# .PCD v0.7 - Point Cloud Data file format
VERSION 0.7
FIELDS x y z
SIZE 4 4 4
TYPE F F F
COUNT 1 1 1
WIDTH 1540
HEIGHT 1
VIEWPOINT 0 0 0 1 0 0 0
POINTS 1540
DATA ascii
0.12406459 0.24121028 1.4053334
0.13439196 0.24068378 1.4070001
0.14294417 0.24068378 1.4070001
0.16982256 0.24068378 1.4070001
0.17633854 0.24068378 1.4070001
0.18753788 0.24251637 1.4070001
0.19552362 0.2421913 1.4051251
0.20297813 0.24121028 1.4053334
0.27586749 0.24173677 1.4036669
0.28222311 0.24068378 1.4070001
-0.73537129 0.256363 1.4036667
-0.72500086 0.25709897 1.4032501
-0.75137317 0.2602317 1.4070001
-0.72205132 0.2602317 1.4070001
0.58648449 0.20980932 1.4130001
0.59141839 0.20902261 1.4160001
0.73617303 0.20674191 1.4130001
0.74598861 0.20796888 1.4130001
0.75531715 0.20823589 1.419
0.77996045 0.20823589 1.419
0.51900196 0.21962495 1.4130001
0.52523834 0.2167428 1.4166001
0.53557605 0.21427844 1.4166001
0.54708123 0.21562888 1.419
0.55447423 0.21562888 1.419
0.56373113 0.21478486 1.4175001
0.57133818 0.21502106 1.4150002
0.58280885 0.2127139 1.4160001
0.59757227 0.21122122 1.4170002
0.60432225 0.21332477 1.4160001
0.42698035 0.22944058 1.4130001
0.43434209 0.22944058 1.4130001
0.46869683 0.22944058 1.4130001
0.47467875 0.22894391 1.4150002
0.48342028 0.22944058 1.4130001
0.50659847 0.22845143 1.4155716
0.51451677 0.22331479 1.4156667
-0.011042595 0.23925623 1.4130001
-0.0049078204 0.23925623 1.4130001
0.11901464 0.23925623 1.4130001
0.12467635 0.23754735 1.416
0.14877677 0.23853204 1.4160001
0.15545534 0.23779158 1.4152501
0.16463563 0.23702338 1.4164288
0.17185101 0.23829065 1.4170002
0.18605693 0.23780786 1.419
0.19500719 0.23828562 1.416
0.20186016 0.23755386 1.4175
0.22746861 0.23853204 1.4160001
0.23395765 0.23592703 1.4166001
0.24375571 0.23576489 1.416
0.25560835 0.23691277 1.4166001
0.26984414 0.23780786 1.419
0.27643394 0.23665124 1.4170002
0.28481847 0.23596874 1.4164287
0.29488689 0.2358298 1.4170002
0.3068091 0.23780786 1.419
0.31537017 0.23671167 1.4154001
0.32378501 0.23320483 1.4160001
0.33555961 0.23287921 1.419
0.35696578 0.23445261 1.4166001
0.36563259 0.23434842 1.4130001
0.37584811 0.23459719 1.4145001
0.38419634 0.23572803 1.4154001
0.39451531 0.23474646 1.4154001
0.40329045 0.23238686 1.4160001
0.41770396 0.23287919 1.419
0.42203695 0.23172954 1.4170002
0.44481158 0.23287919 1.419
0.45959756 0.23287919 1.419
0.46452624 0.23205775 1.419
0.47808003 0.23041487 1.419
0.50395548 0.23041487 1.419
-0.14493048 0.24687977 1.4145001
-0.13499655 0.24504504 1.4168183
-0.12590525 0.24355225 1.4155716
-0.11478933 0.24408591 1.4154001
-0.10574216 0.24345031 1.416
-0.09707012 0.24205226 1.4150002
-0.085019387 0.24520084 1.419
-0.050305158 0.24171014 1.4130001
-0.044531435 0.24281673 1.4166001
-0.038035605 0.24171014 1.4130001
-0.028339796 0.24273652 1.419
-0.015969519 0.24123083 1.4150002
-0.0049286601 0.24027218 1.419
0.015950415 0.24293709 1.4130001
0.11557604 0.24099116 1.4160001
0.134306 0.24027219 1.419
0.14509068 0.24099116 1.4160001
0.17595127 0.2407515 1.4170002
0.18566357 0.24099118 1.4160001
0.19753976 0.24171014 1.4130001
0.20577157 0.24027218 1.419
0.21439672 0.24273652 1.419
-0.75495243 0.25943714 1.4160001
-0.74481475 0.25633636 1.4170002
-0.73386347 0.25610122 1.4166001
-0.72717971 0.25962037 1.4170002
-0.72328091 0.26245114 1.419
0.74366242 0.20664163 1.4250001
0.75356138 0.20911638 1.4250001
0.78202105 0.20787901 1.4250001
0.51598543 0.21901539 1.4250001
0.524647 0.21715932 1.4250001
0.5308339 0.21406588 1.4250001
0.54320765 0.21406588 1.4250001
0.55558145 0.21406588 1.4250001
0.56300569 0.21406588 1.4250001
0.57414204 0.21406588 1.4250001
0.58362859 0.21324097 1.4250001
0.61126328 0.21406588 1.4250001
0.465253 0.22891438 1.4250001
0.47556448 0.22891438 1.4250001
0.48505101 0.22891438 1.4250001
0.50670505 0.22643963 1.4250001
0.51268578 0.22313999 1.4250001
0.11755063 0.23881339 1.4250001
0.12332505 0.23798847 1.4250001
0.1336365 0.23881339 1.4250001
0.14724763 0.23881339 1.4250001
0.15714663 0.23633863 1.4250001
0.16952038 0.23633863 1.4250001
0.17818201 0.23881339 1.4250001
0.18560626 0.2381947 1.4250001
0.1950928 0.23633865 1.4250001
0.20664164 0.23798847 1.4250001
0.21530324 0.23881339 1.4250001
0.22573258 0.23704571 1.4250001
0.23510125 0.23386388 1.4250001
0.24871238 0.23633863 1.4250001
0.2544868 0.23633865 1.4250001
0.26603565 0.23881339 1.4250001
0.29408282 0.2346888 1.4250001
0.31470573 0.23716354 1.4250001
0.33532864 0.23386388 1.4250001
0.34399027 0.23633863 1.4250001
0.35347682 0.23551372 1.4250001
0.36667547 0.23551372 1.4250001
0.38606101 0.23386388 1.4250001
0.39596 0.23386388 1.4250001
0.40709639 0.23138914 1.4250001
0.41699538 0.23386388 1.4250001
0.44421765 0.23138914 1.4250001
0.45535401 0.23386388 1.4250001
0.46401566 0.23138914 1.4250001
0.49495003 0.23138914 1.4250001
0.5011369 0.23138914 1.4250001
-0.12250013 0.24376288 1.4250001
-0.11755063 0.24376288 1.4250001
-0.070530377 0.24376288 1.4250001
-0.06805563 0.24376288 1.4250001
-0.03340913 0.2437629 1.4250001
-0.025984876 0.24376288 1.4250001
0.13982338 0.24128813 1.4250001
0.14353549 0.24128813 1.4250001
0.17694463 0.24128813 1.4250001
0.18189412 0.24128813 1.4250001
0.20911638 0.24128813 1.4250001
0.21530324 0.24128813 1.4250001
0.22334619 0.24190682 1.4250001
-0.76098567 0.25861138 1.4250001
-0.75603616 0.25861138 1.4250001
-0.73376346 0.25675532 1.4250001
-0.72881389 0.25861138 1.4250001
-0.77335942 0.26603565 1.4250001
-0.76469779 0.2623235 1.4250001
-0.72510177 0.26108614 1.4250001
-0.71891487 0.26356089 1.4250001
0.60141116 0.20999686 1.4310001
0.61391521 0.20838177 1.437
0.74927878 0.20751171 1.4310001
0.75176394 0.20751171 1.4310001
0.7638303 0.20892015 1.4350002
0.77537304 0.20999686 1.4310001
0.78571755 0.20669895 1.4340001
0.5077045 0.21677661 1.4335715
0.51382321 0.21588337 1.4333079
0.52321494 0.21564062 1.4355001
0.53424644 0.21456863 1.4325001
0.5429523 0.21332605 1.4325001
0.55372667 0.21443579 1.4330001
0.56487525 0.21266004 1.4350002
0.57455772 0.2119216 1.4344287
0.58423227 0.21251746 1.4346001
0.59395039 0.21087736 1.437
0.60765016 0.2116797 1.434
0.6138761 0.21199036 1.4340001
0.62015414 0.21212515 1.437
0.76988953 0.21087736 1.437
0.77488071 0.21087736 1.437
0.38307306 0.2283465 1.437
0.46620473 0.22770742 1.4330001
0.4742147 0.22777443 1.4334
0.48528549 0.226879 1.4330001
0.49491978 0.22767596 1.4328002
0.50434691 0.22510228 1.4332501
0.51070243 0.22242272 1.4310001
0.018638775 0.23981892 1.4310001
0.021123946 0.23981892 1.4310001
0.11804558 0.23733374 1.4310001
0.13419919 0.23795503 1.4310001
0.14463012 0.23872586 1.4334
0.15424596 0.23695862 1.4325001
0.16405857 0.23633341 1.4350002
0.17545283 0.23766546 1.4330001
0.18291184 0.23766546 1.4330001
0.19011551 0.23733374 1.4310001
0.20601034 0.23633343 1.4350002
0.21606354 0.2366907 1.4335716
0.22454754 0.23533919 1.434
0.23208988 0.23333767 1.437
0.24332003 0.23583326 1.437
0.25704578 0.23583326 1.437
0.26522285 0.23658352 1.4339999
0.27518439 0.23627287 1.434
0.28609022 0.23509474 1.4325001
0.2982204 0.23484857 1.4310001
0.30544096 0.23723269 1.4334002
0.31589743 0.23623653 1.4334
0.32555729 0.23298469 1.4310001
0.33316126 0.23333767 1.437
0.35662189 0.23484857 1.4310001
0.36550587 0.2338413 1.4350002
0.37508965 0.23379268 1.4330002
0.38413981 0.23222534 1.434
0.39496082 0.23171143 1.4335715
0.40372294 0.2313492 1.4350002
0.41378081 0.2323634 1.4310001
0.42490244 0.23301291 1.4350002
0.4304893 0.23084208 1.437
0.4485732 0.2323634 1.4310001
0.45500582 0.23268643 1.4330001
0.46145579 0.2313492 1.4350002
-0.74992484 0.24831121 1.437
-0.18217808 0.24831121 1.437
-0.1746913 0.24831121 1.437
-0.16417418 0.24724168 1.4370002
-0.15431067 0.24664748 1.437
-0.14599203 0.24831121 1.437
-0.12477951 0.24394393 1.437
-0.11456009 0.24405986 1.434
-0.092336833 0.24581562 1.437
-0.084850065 0.24581562 1.437
-0.076115504 0.24581562 1.437
-0.063371837 0.24478927 1.4310001
-0.055337273 0.24394971 1.4344287
-0.044447377 0.2429814 1.4350002
-0.037433848 0.24332003 1.437
-0.022366531 0.24478926 1.4310001
-0.016221335 0.24332003 1.437
0.0087163299 0.24405465 1.434
0.014423886 0.2433833 1.4352859
0.11354935 0.24082445 1.437
0.14349642 0.24082445 1.437
-0.76534247 0.25864524 1.4355
-0.75427949 0.25460836 1.4350002
-0.74829835 0.25508523 1.4358002
-0.7353279 0.25518617 1.4335715
-0.72787869 0.25788653 1.4347501
-0.78236747 0.26578033 1.437
-0.77475739 0.26393166 1.4360001
-0.72395819 0.26167053 1.4350002
0.61525154 0.20842865 1.4460001
0.75587988 0.20717566 1.4460001
0.76162475 0.20870304 1.4450001
0.77811611 0.20925184 1.4430001
0.78577363 0.20749955 1.4463335
0.79311985 0.20374277 1.4466002
0.50684446 0.21680114 1.4460001
0.51209354 0.21263835 1.4490001
0.52646446 0.21318018 1.4470003
0.5349412 0.2141397 1.4450001
0.54368436 0.2134511 1.4460001
0.55596071 0.21429513 1.4466002
0.56443447 0.21197799 1.4445002
0.57512933 0.21175785 1.4430001
0.58385086 0.21093988 1.4460001
0.59141839 0.21175785 1.4430001
0.60018939 0.21175785 1.4430001
0.77614152 0.21053091 1.4475002
0.78688717 0.21175785 1.4430001
0.38634321 0.22929993 1.4430002
0.39698899 0.22890916 1.4445
0.4038839 0.22867472 1.4454002
0.45859984 0.22929992 1.4430001
0.46457571 0.22851843 1.4460001
0.47363591 0.22679392 1.4430001
0.48625717 0.22658376 1.4470003
0.49646801 0.22481933 1.4464288
0.50307846 0.22182183 1.4460001
-0.1632293 0.2385633 1.4460001
-0.15913165 0.23932396 1.4430001
-0.12154149 0.23932396 1.4430001
0.015469359 0.23881686 1.4450001
0.11802995 0.2385633 1.4460001
0.12568995 0.23755646 1.4475002
0.13641499 0.23790996 1.4466002
0.14471452 0.23751609 1.4441999
0.15411963 0.23681796 1.4430002
0.16790268 0.23681796 1.4430001
0.17560697 0.23706412 1.4445002
0.1856336 0.23706412 1.4445
0.19615218 0.23714618 1.4450001
0.20508905 0.23528621 1.4490001
0.21494117 0.235008 1.4442002
0.22460049 0.23338024 1.4450002
0.23328036 0.23328385 1.4470003
0.24031907 0.23528621 1.4490001
0.25478101 0.23620735 1.4454001
0.26665735 0.23363724 1.4440001
0.27436122 0.23369507 1.4454001
0.28435659 0.23528621 1.4490001
0.29518455 0.2348965 1.4466
0.30604973 0.23580852 1.4445
0.31428441 0.23589893 1.4466002
0.32394737 0.23416997 1.4460001
0.33216876 0.23276979 1.4490001
0.34708241 0.23681796 1.4430001
0.35659066 0.23731029 1.4460001
0.36638546 0.23315793 1.4475
0.3756727 0.23114055 1.4455715
0.38968456 0.23180594 1.4430001
0.39551717 0.23102964 1.4460001
0.4149726 0.23228525 1.4460001
0.42627829 0.23228525 1.4460001
0.43568626 0.23102964 1.4460001
0.45499843 0.23252882 1.4475002
-0.74428499 0.249348 1.4430001
-0.17259115 0.2444381 1.4466002
-0.16632099 0.24292219 1.4440908
-0.15600243 0.24514633 1.4443847
-0.14565076 0.24609697 1.446
-0.13479573 0.24423909 1.4454001
-0.12498902 0.24189997 1.4455715
-0.11802734 0.24358575 1.4460001
-0.093641937 0.24446884 1.4475
-0.085943788 0.24383807 1.4464287
-0.07675112 0.24535193 1.4490001
-0.065227903 0.24458998 1.4445
-0.055305455 0.24258412 1.4475
-0.045431722 0.24273339 1.4454001
-0.034720309 0.24383581 1.4450001
-0.023906088 0.24535194 1.4490001
-0.015812872 0.24273339 1.4454001
-0.0041844985 0.24149393 1.4460001
0.0051377714 0.24360894 1.4468184
0.0125561 0.24107453 1.4460001
-0.78260976 0.25793409 1.4490001
-0.77392793 0.25601795 1.4476669
-0.76418221 0.25457174 1.4468184
-0.75331134 0.25254172 1.4490002
-0.74363416 0.25265932 1.4455715
-0.73318166 0.25429314 1.4450002
-0.72532147 0.2562657 1.4443334
-0.71592438 0.25730497 1.4490001
-0.79141724 0.26045051 1.4490001
-0.78462952 0.26223755 1.4450001
-0.77847564 0.26116428 1.4460001
-0.72189248 0.26223755 1.4450001
-0.71534026 0.26195908 1.4450001
0.59507316 0.20846513 1.455
0.75931847 0.20593828 1.455
0.76816243 0.20846513 1.455
0.77321613 0.20846513 1.455
0.78585035 0.20657 1.455
0.7959578 0.20214801 1.455
0.50537002 0.21730909 1.455
0.51547742 0.21225542 1.455
0.52516365 0.21351883 1.4550002
0.53569221 0.21351883 1.455
0.54579961 0.21351883 1.455
0.55632818 0.21351883 1.4550002
0.56727785 0.21099198 1.4550002
0.57612181 0.21099198 1.455
0.58749264 0.21099198 1.455
0.59380978 0.21099198 1.455
0.61276114 0.21099198 1.455
0.39671546 0.22867993 1.455
0.46241355 0.22867993 1.455
0.48473406 0.22783765 1.4550002
0.49905288 0.22362623 1.455
0.50157976 0.22109938 1.455
-0.16045497 0.23878734 1.455
-0.092230029 0.23878734 1.455
0.0088439751 0.23878734 1.455
0.14403045 0.23626049 1.455
0.15034758 0.23626049 1.455
0.19583088 0.23878734 1.455
0.20593828 0.23626049 1.455
0.21478225 0.23499706 1.455
0.23752391 0.23373364 1.455
0.2463679 0.2362605 1.4550002
0.25521186 0.23562877 1.455
0.26405585 0.23373364 1.4550002
0.27416325 0.23120677 1.455
0.29564148 0.23373364 1.455
0.30532771 0.23457593 1.4550002
0.31648797 0.23436536 1.455
0.32470024 0.23373364 1.4550002
0.33733448 0.23373364 1.455
0.34575734 0.2362605 1.4550002
0.35502243 0.23752391 1.455
0.36260298 0.23499706 1.455
0.37271038 0.23120677 1.455
0.38281778 0.23120677 1.455
0.4232474 0.23373364 1.455
0.43082795 0.23247021 1.455
0.45483303 0.23247021 1.455
-0.18066978 0.24889474 1.455
-0.17645836 0.2463679 1.4550002
-0.15413785 0.24257761 1.455
-0.13265963 0.24257761 1.455
-0.096020304 0.24384104 1.455
-0.086334042 0.24215648 1.4550002
-0.075384364 0.2463679 1.4550002
-0.064434677 0.24384104 1.4550002
-0.054327276 0.24131419 1.455
-0.034112476 0.24384104 1.4550002
-0.026026556 0.24434641 1.455
-0.016424526 0.24131419 1.455
-0.0063171252 0.24131419 1.455
0.00252685 0.24131419 1.455
0.11370825 0.24131419 1.455
-0.79343092 0.25900212 1.455
-0.78660846 0.25698066 1.455
-0.77700651 0.25310615 1.4550002
-0.76942587 0.25268501 1.455
-0.74163049 0.25394842 1.455
-0.73784024 0.25394842 1.455
-0.72394252 0.25773871 1.455
0.56961715 0.20932478 1.4610001
0.58484077 0.20932478 1.4610001
0.59372121 0.20932478 1.4610001
0.6000644 0.20932478 1.4610001
0.62036252 0.20932478 1.4610001
0.76622868 0.20735368 1.4650002
0.77449775 0.20763674 1.4670001
0.78519911 0.20721039 1.4640001
0.79337275 0.20396022 1.4650002
0.80124855 0.20254137 1.4670001
0.4980734 0.2178275 1.4670001
0.50482857 0.2167163 1.4644287
0.51350892 0.21328786 1.4650002
0.52792156 0.2124421 1.4650002
0.53482306 0.21215209 1.4630002
0.54541063 0.21172749 1.4630002
0.55728191 0.21289156 1.4646001
0.56440711 0.21085548 1.4646001
0.57586658 0.21102324 1.4640001
0.58979023 0.21018443 1.4670001
0.59233797 0.21018443 1.4670001
0.6051389 0.21186206 1.4610002
0.6152724 0.21229708 1.4640001
0.78341472 0.21018443 1.4670001
0.37501323 0.22882061 1.4640001
0.39708275 0.22835431 1.4610001
0.40596318 0.22771999 1.4610001
0.41258603 0.22855316 1.4650002
0.43006727 0.22962295 1.4610001
0.46051452 0.22962295 1.4610001
0.47259653 0.22801827 1.4670001
0.48278725 0.22801827 1.4670002
0.49518621 0.22149709 1.4660001
0.50078434 0.22176974 1.4650002
-0.17126574 0.23977202 1.4610001
-0.16652724 0.23899052 1.4640001
-0.158905 0.23899052 1.4640001
-0.14903986 0.23820902 1.4670001
-0.090073086 0.23977202 1.4610001
-0.087535821 0.23977202 1.4610001
0.0063431752 0.23977202 1.4610001
0.0127124 0.23771928 1.4640001
0.12865835 0.23820902 1.4670001
0.13464059 0.23607755 1.4643335
0.14499365 0.23402604 1.4647501
0.15509388 0.23772189 1.4640001
0.17542592 0.23772189 1.4640001
0.18530843 0.23788427 1.4650002
0.19999367 0.23820902 1.4670001
0.20171297 0.23723476 1.4610001
0.21655366 0.23566133 1.4670001
0.2245484 0.23342884 1.4610001
0.23526955 0.23273228 1.4646001
0.24636918 0.23493843 1.4625001
0.25589436 0.23430152 1.4625001
0.26441532 0.23263693 1.4640001
0.27360231 0.23216021 1.4610002
0.28524724 0.2335345 1.4643335
0.29457021 0.23296949 1.4643334
0.30623388 0.23343042 1.4658002
0.3151786 0.23306601 1.4644287
0.32543746 0.23136306 1.4640001
0.33518192 0.23136309 1.4640001
0.34577471 0.23432845 1.4640001
0.35513932 0.23524678 1.4644287
0.36469433 0.23355649 1.4634001
0.37196276 0.23056595 1.4670001
0.38342735 0.23056595 1.4670001
0.41864955 0.23216021 1.4610001
0.42654744 0.23273019 1.4646001
0.43692887 0.23056595 1.4670001
0.45775843 0.23162881 1.4630002
-0.19283253 0.2499211 1.4610001
-0.18609266 0.24890664 1.4635717
-0.17860793 0.24470979 1.4640001
-0.15334332 0.24305302 1.4655001
-0.14492136 0.24407548 1.4640001
-0.13592976 0.24348676 1.4630002
-0.12052033 0.24230929 1.4610001
-0.11411307 0.24575415 1.4634001
-0.10412388 0.24568479 1.4643335
-0.096614242 0.241533 1.4640001
-0.081991076 0.24216992 1.4640001
-0.075000562 0.24407548 1.4640001
-0.065210104 0.24221465 1.4630002
-0.056782927 0.24153301 1.4640001
-0.04585842 0.2433044 1.4670001
-0.034818955 0.2421978 1.4634001
-0.025424801 0.24153301 1.4640002
-0.015877476 0.24192114 1.4625001
-0.0050771451 0.241533 1.4640001
0.0025476902 0.24075671 1.4670001
0.11846759 0.24075671 1.4670001
-0.79506433 0.25653955 1.4650002
-0.78851008 0.254769 1.4670001
-0.75029474 0.25349516 1.4670001
-0.74519938 0.25349516 1.4670002
-0.71462709 0.25604284 1.4670001
0.56534231 0.20848598 1.473
0.5742957 0.20848599 1.473
0.77766544 0.20592786 1.473
0.78491348 0.20678058 1.473
0.79557222 0.20336975 1.473
0.80964184 0.20081164 1.473
0.4955059 0.21769516 1.473
0.50303406 0.21506397 1.4730002
0.51204836 0.21445489 1.473
0.52569163 0.21360219 1.473
0.53848219 0.21104409 1.473
0.54487747 0.21104409 1.473
0.55638897 0.2110441 1.473
0.56534231 0.21104409 1.473
0.57941192 0.21104409 1.473
0.5858072 0.21232313 1.473
0.60755116 0.21104409 1.473
0.62289983 0.21104409 1.473
0.2929036 0.22895086 1.473
0.32360095 0.22895086 1.473
0.33255431 0.22895086 1.473
0.41057667 0.22639275 1.473
0.44553751 0.22895086 1.473
0.46941319 0.22895086 1.473
0.47708753 0.22895086 1.473
0.4879595 0.22575322 1.473
0.49397108 0.2253695 1.473
0.50138956 0.22639275 1.473
-0.16243999 0.23918329 1.473
-0.1552773 0.23816004 1.473
-0.14709133 0.23790424 1.473
-0.098487236 0.23918329 1.473
-0.065231808 0.23918329 1.473
-0.025581101 0.23918329 1.473
0.0070348028 0.23854376 1.473
0.10871968 0.23918329 1.473
0.12406834 0.23918329 1.473
0.13813794 0.23406707 1.473
0.15604472 0.23726471 1.473
0.1649981 0.23918329 1.473
0.17352514 0.23747788 1.473
0.18375759 0.23747788 1.473
0.19569543 0.23918329 1.473
0.20720692 0.23662518 1.473
0.21232313 0.23662518 1.473
0.22639275 0.23406707 1.473
0.24813667 0.23406707 1.473
0.25453195 0.23406707 1.473
0.28522927 0.23150896 1.473
0.29801983 0.23150896 1.473
0.30441511 0.23150896 1.473
0.31464753 0.23150896 1.473
0.34534487 0.23150896 1.473
0.35429823 0.23406707 1.473
0.36580974 0.23406707 1.473
0.38499558 0.23150896 1.473
0.39266989 0.23150896 1.473
0.41825101 0.23150896 1.473
0.42464626 0.23150896 1.473
0.43871588 0.23150896 1.473
0.44602478 0.23406708 1.4730002
0.4553436 0.23406707 1.473
-0.19313732 0.24941573 1.473
-0.18482345 0.2462181 1.473
-0.17778865 0.2417414 1.473
-0.15348661 0.2417414 1.473
-0.14581227 0.2417414 1.473
-0.13941699 0.24429952 1.473
-0.11255684 0.24557857 1.473
-0.10360345 0.24259411 1.473
-0.084417634 0.2417414 1.473
-0.074185193 0.2417414 1.473
-0.06778992 0.2417414 1.473
-0.047325037 0.24429952 1.473
-0.03581354 0.2417414 1.473
-0.014069606 0.2417414 1.473
-0.0051162201 0.2417414 1.473
0.10871968 0.2417414 1.473
0.1138359 0.2417414 1.473
-0.8019675 0.25709006 1.473
-0.79429317 0.25581101 1.473
-0.74185193 0.25453195 1.473
-0.73204583 0.25623736 1.473
-0.72394514 0.25709006 1.473
-0.71499175 0.25453195 1.473
0.55646276 0.20947675 1.48
0.5652017 0.20793457 1.48
0.57439166 0.20775875 1.4815
0.58194488 0.20774528 1.4860001
0.59373164 0.20947674 1.48
0.6014424 0.20947674 1.48
0.62843025 0.20947674 1.48
0.77779138 0.20732588 1.483
0.78437173 0.20395391 1.4825715
0.79433781 0.20199656 1.4836
0.80385542 0.20141339 1.4812001
0.48963583 0.21975781 1.48
0.49527523 0.21504813 1.4814999
0.50536031 0.21135859 1.4824001
0.51509535 0.21247682 1.483
0.52047902 0.21204701 1.48
0.53418893 0.21239085 1.4824001
0.54323459 0.21032599 1.4860001
0.55355728 0.21032597 1.4860001
0.58591837 0.2111865 1.483
0.61429375 0.21204701 1.48
0.62413549 0.21233009 1.4820001
0.31665027 0.22735851 1.4860001
0.3238762 0.22839078 1.4860001
0.34774753 0.22774561 1.4860001
0.35484442 0.22839078 1.4860001
0.36129615 0.22839078 1.4860001
0.3806513 0.22839078 1.4860001
0.41807127 0.22839078 1.4860001
0.42194229 0.22839078 1.4860001
0.43484572 0.22839078 1.4860001
0.44555357 0.22664066 1.483
0.45438886 0.22751507 1.4845001
0.46323329 0.22839078 1.4860001
0.47646058 0.22792971 1.483
0.48557663 0.22434203 1.4819999
0.49306282 0.22661185 1.48
-0.15528464 0.23635398 1.4820001
-0.14541979 0.23721074 1.4820001
-0.10495164 0.23800461 1.4848001
-0.097320631 0.23782739 1.4845001
-0.086453006 0.23871352 1.4860001
-0.072259232 0.23871352 1.4860001
-0.034839272 0.23768125 1.4860001
-0.025742393 0.23682208 1.48225
-0.014182054 0.23782738 1.4845001
-0.0055914884 0.23871353 1.4860001
0.0051566851 0.23584369 1.4842001
0.011613091 0.23484248 1.4860001
0.10763296 0.23782739 1.4845001
0.11484056 0.23871353 1.4860001
0.12541977 0.23796213 1.4840001
0.1313467 0.23565611 1.483
0.14645398 0.23290698 1.4860001
0.15394302 0.23439375 1.4848001
0.16483051 0.23694126 1.483
0.17474169 0.23542005 1.4833333
0.18616951 0.23635398 1.4820001
0.19512668 0.23705676 1.4825715
0.20443943 0.2364586 1.4834287
0.21611992 0.23541777 1.4815
0.2236132 0.23517941 1.48
0.24724838 0.23436578 1.483
0.25591812 0.23355214 1.4860001
0.2650097 0.23284489 1.4815
0.27501854 0.23260914 1.48
0.28607067 0.23158102 1.48
0.29686582 0.23003887 1.48
0.30678785 0.23073831 1.4845001
0.3161428 0.23003887 1.48
0.3341347 0.23003887 1.48
0.34441572 0.23003887 1.48
0.35565844 0.23140687 1.4817144
0.3648499 0.23177405 1.4817144
0.37326759 0.23151736 1.4840001
0.38554001 0.23003887 1.48
0.39560229 0.2306606 1.4840001
0.40258712 0.23097147 1.4860001
0.42495885 0.23050517 1.483
0.43437508 0.23003887 1.48
0.44465613 0.23196657 1.48
0.45536563 0.23175238 1.48
0.46568587 0.23027202 1.4815
-0.2006484 0.24710076 1.4860001
-0.194188 0.24691147 1.4809999
-0.18531623 0.24391833 1.48
-0.17383948 0.24209221 1.483
-0.16835247 0.24031994 1.48
-0.14112559 0.24150145 1.4820001
-0.13572094 0.24249122 1.4815
-0.11472595 0.24330483 1.4844999
-0.10672934 0.24192788 1.4808571
-0.093814731 0.24031994 1.48
-0.084988125 0.24080709 1.483
-0.074694037 0.24080709 1.483
-0.064005435 0.24096946 1.4840001
-0.053852994 0.24193262 1.4836
-0.044020336 0.24328201 1.4824001
-0.035983734 0.24096251 1.48
-0.015438533 0.24056351 1.4815
-0.0059220339 0.24122369 1.4824001
0.0012851334 0.24031994 1.48
0.1040958 0.24031994 1.48
0.11540498 0.240834 1.48
-0.74152195 0.25702667 1.48
-0.73491603 0.25594684 1.4812001
-0.72499406 0.2549696 1.483
-0.20258391 0.25161695 1.4860001
-0.19662541 0.25060099 1.48
0.79790026 0.19914965 1.4990001
0.80252719 0.19868466 1.4955001
0.51154125 0.2095627 1.4990001
0.54538369 0.2095627 1.4990001
0.58963919 0.2095627 1.4990001
0.59484571 0.2095627 1.4990001
0.63191718 0.20891032 1.4943335
0.77733201 0.2085841 1.4920001
0.78510535 0.20340188 1.4920001
0.792813 0.20112483 1.4943335
0.80712974 0.20081078 1.4920001
0.81484866 0.20143887 1.4966668
0.82263124 0.20305455 1.4990001
0.48681027 0.21867412 1.4990001
0.49283838 0.21616502 1.4966668
0.50294733 0.21183571 1.4966668
0.51423961 0.21167058 1.4955001
0.52401292 0.21207067 1.4937501
0.53631264 0.21167058 1.4955001
0.5427804 0.21216597 1.4990001
0.55061018 0.2111752 1.4920001
0.5933634 0.2111752 1.4920001
0.60243231 0.2111752 1.4920001
0.61279678 0.2111752 1.4920001
0.6251986 0.21248168 1.4960001
0.30963725 0.22931294 1.4920001
0.31309205 0.22758554 1.4920001
0.32259279 0.22672184 1.4920001
0.3303661 0.22931294 1.4920001
0.34566766 0.22763555 1.4937501
0.35539341 0.22633696 1.4937501
0.36594921 0.22797103 1.4934001
0.37456256 0.22880381 1.4943335
0.38710448 0.22880381 1.4943335
0.39255267 0.22931294 1.4920001
0.41782379 0.22778554 1.4990001
0.42539883 0.22829467 1.4966668
0.43372688 0.22854924 1.4955001
0.4417837 0.22931294 1.4920001
0.45646667 0.22585814 1.4920001
0.46655843 0.22829467 1.4966668
0.47428265 0.22818378 1.4948001
0.48442698 0.22361553 1.4943335
-0.14305314 0.23683982 1.4931668
-0.13680904 0.23908587 1.4948001
-0.11297755 0.23893799 1.4955001
-0.10234872 0.23449516 1.4920001
-0.095377363 0.23650487 1.4930001
-0.085407875 0.23700814 1.4948002
-0.075801335 0.23700814 1.4948002
-0.067908019 0.23918447 1.4943335
-0.044152148 0.238938 1.4955001
-0.034979939 0.23708627 1.4920001
-0.02331996 0.23449516 1.4920001
-0.016132269 0.23681748 1.4950001
-0.0057113753 0.23596926 1.4948002
0.0012955534 0.23449516 1.4920001
0.099757612 0.23967737 1.4920001
0.10441209 0.23801212 1.4937501
0.11486959 0.23623432 1.4960001
0.12423404 0.23634082 1.4955001
0.1353697 0.23559535 1.4990001
0.14251088 0.23319961 1.4920001
0.15639083 0.23367634 1.4934001
0.16491821 0.23374361 1.4955001
0.17470728 0.23285747 1.4948001
0.18390658 0.23326609 1.4960001
0.19501226 0.2353203 1.4972501
0.20565781 0.23559535 1.4990001
0.21557243 0.23504525 1.4955001
0.22530428 0.23439443 1.4955001
0.2342937 0.23559535 1.4990001
0.24509877 0.2343225 1.498
0.25514063 0.23329268 1.4976001
0.26292962 0.23299207 1.4990001
0.27724755 0.23299207 1.4990001
0.28416586 0.23226675 1.4943335
0.3084867 0.23038881 1.4990001
0.33712262 0.23038881 1.4990001
0.34232914 0.23038881 1.4990001
0.37182382 0.23190406 1.4920001
0.38658461 0.23038881 1.4990001
0.39829928 0.23038881 1.4990001
0.40480745 0.23038881 1.4990001
0.41001397 0.23038881 1.4990001
-0.20469743 0.24745069 1.4920001
-0.13365071 0.24351107 1.4943335
-0.12235338 0.2460084 1.4990001
-0.11714685 0.24080187 1.4990001
-0.062478319 0.24080187 1.4990001
-0.053840142 0.24109522 1.4976001
-0.045344368 0.24226849 1.4920001
-0.81231195 0.25781512 1.4920001
-0.80842531 0.25781512 1.4920001
-0.77577245 0.25316739 1.4990001
-0.76669675 0.25371015 1.4940001
-0.74479359 0.25485948 1.4990001
-0.73542941 0.25414348 1.4948001
-0.72939652 0.25263292 1.4920001
0.80816483 0.19746421 1.506
0.63554704 0.2079259 1.506
0.78593373 0.20705411 1.506
0.79377997 0.20138735 1.506
0.80424166 0.20007963 1.506
0.81339562 0.20007963 1.506
0.82254964 0.20007963 1.506
0.48777583 0.21446444 1.506
0.4935298 0.21367982 1.506
0.50739145 0.21054132 1.506
0.52526355 0.21141313 1.506
0.53485346 0.21315674 1.506
0.54139197 0.21184903 1.506
0.60285431 0.21054132 1.506
0.61854684 0.21315673 1.506
0.6255213 0.21054134 1.506
0.63162392 0.21054132 1.506
0.78070289 0.21054132 1.506
0.31254271 0.22884926 1.506
0.32823521 0.22884926 1.506
0.34392774 0.22884926 1.506
0.35613307 0.22623384 1.506
0.3622357 0.22623384 1.506
0.3779282 0.22884926 1.506
0.38403088 0.22884926 1.506
0.39362073 0.22884926 1.506
0.40539008 0.22884926 1.506
0.41628766 0.22797745 1.506
0.42500576 0.22623384 1.506
0.43285203 0.22754155 1.506
0.44331372 0.22884926 1.506
0.45900622 0.22623384 1.506
0.46554476 0.22754155 1.506
0.47626802 0.22675693 1.506
0.48385271 0.22361842 1.506
-0.13861726 0.23669551 1.506
-0.1176939 0.23931094 1.506
-0.092847414 0.23669551 1.506
-0.065385506 0.23800324 1.506
-0.035308171 0.23669551 1.506
-0.015954062 0.23460317 1.506
-0.0030513236 0.2349519 1.506
0.09677054 0.23931094 1.506
0.10505271 0.23756734 1.506
0.11507849 0.23408009 1.506
0.12423246 0.23473394 1.506
0.14515582 0.23408009 1.506
0.15561749 0.23146468 1.506
0.1686946 0.23146468 1.506
0.17523316 0.23146468 1.506
0.18700254 0.23233649 1.506
0.19484881 0.23408011 1.506
0.20269506 0.23408011 1.506
0.21577215 0.23408011 1.506
0.22361843 0.23408011 1.506
0.2353878 0.23408009 1.506
0.24628541 0.23233649 1.506
0.25500345 0.23146468 1.506
0.26415741 0.23211853 1.506
0.2746191 0.23408009 1.506
0.28115767 0.23408009 1.506
0.29161933 0.23146468 1.506
0.30600417 0.23146468 1.506
0.41585177 0.23146468 1.506
-0.13207871 0.24454178 1.506
-0.12580171 0.24558794 1.506
-0.81993419 0.25761887 1.506
-0.78070289 0.25500345 1.506
-0.7780875 0.25500345 1.506
-0.76239496 0.25761887 1.506
-0.75585639 0.25696501 1.506
-0.74539471 0.25238803 1.506
0.80854601 0.19916876 1.5190001
0.81514096 0.19916876 1.5190001
0.82569301 0.19916876 1.5190001
0.48583108 0.20884141 1.5190001
0.49480066 0.20923752 1.5155001
0.5501135 0.20875429 1.5120001
0.58424944 0.20875429 1.5120001
0.59618723 0.20972075 1.5190001
0.60278225 0.20972076 1.5190001
0.61861026 0.20972075 1.5190001
0.62639356 0.20923752 1.5155001
0.63490868 0.20741706 1.5176001
0.64367121 0.20708275 1.5190001
0.65026617 0.20444475 1.5190001
0.78440535 0.2072262 1.5162001
0.792638 0.20353809 1.5155001
0.80219412 0.20087677 1.5120001
0.82378745 0.20134176 1.5155001
0.83316731 0.20268607 1.5190001
0.47900611 0.2184462 1.5155001
0.48450738 0.21513462 1.5141878
0.49497089 0.21138012 1.5120001
0.50362843 0.21170633 1.5143335
0.51335174 0.21138012 1.5120001
0.52202958 0.21170633 1.5143335
0.53427035 0.21318236 1.5155001
0.54486179 0.21138012 1.5120001
0.55533779 0.21186943 1.5155001
0.56426758 0.21288633 1.5190001
0.57640231 0.21235874 1.5190001
0.61323392 0.21186943 1.5155001
0.62284082 0.21170633 1.5143335
0.16936669 0.229761 1.5120001
0.24485958 0.22844809 1.5120001
0.25578135 0.22906099 1.5131668
0.26430622 0.22879861 1.5143335
0.32051662 0.22818671 1.5190001
0.34478739 0.22897387 1.5155001
0.35372052 0.22573106 1.5143335
0.36761761 0.22713517 1.5120001
0.37607461 0.22660635 1.5143335
0.38483548 0.22660635 1.5143335
0.39580286 0.22748569 1.5143335
0.40456375 0.22748367 1.5143335
0.41531372 0.22660576 1.5155001
0.42332324 0.22285224 1.5163751
0.43426046 0.22634193 1.5155001
0.44582146 0.22818671 1.5190001
0.45769244 0.22818671 1.5190001
0.46739954 0.22713517 1.5120001
0.47531304 0.2234056 1.5149168
0.48271698 0.22275877 1.5120001
-0.1342248 0.23687164 1.5155001
-0.12583244 0.23768352 1.5190001
-0.11684988 0.23763853 1.5120001
-0.061707243 0.23763853 1.5120001
-0.048802938 0.2387387 1.5190001
-0.015755041 0.23238684 1.5120001
0.094749063 0.2368696 1.5155001
0.10431635 0.23625062 1.5143335
0.11439627 0.23274547 1.5143335
0.12518451 0.23377271 1.5176001
0.13389841 0.23439269 1.5148001
0.14048244 0.23501268 1.5120001
0.16461748 0.23310409 1.5166668
0.18070278 0.23082471 1.5190001
0.19450928 0.23171736 1.5150001
0.20598257 0.23334236 1.5148001
0.21384186 0.23358123 1.5155001
0.22546464 0.2324851 1.5155001
0.2359442 0.23199631 1.5137501
0.24334002 0.23176198 1.5148001
0.26914862 0.23238684 1.5120001
0.27503243 0.23226376 1.5155001
0.28457692 0.23253424 1.5172501
0.29499167 0.23274547 1.5143335
0.30266756 0.23292477 1.5155001
0.33898258 0.23082471 1.5190001
-0.78480405 0.24929069 1.5190001
-0.75446707 0.24929069 1.5190001
-0.74655306 0.24929069 1.5190001
-0.13244323 0.24198453 1.5162001
-0.12547766 0.24214 1.5120002
-0.05120388 0.24026437 1.5120001
-0.82115549 0.25924397 1.5155001
-0.817779 0.25984269 1.5190001
-0.80458903 0.25984269 1.5190001
-0.79403704 0.25720468 1.5190001
-0.78598326 0.25461531 1.5162001
-0.77387768 0.25567538 1.5162001
-0.76417953 0.255211 1.5158889
-0.75580275 0.25302735 1.5137501
-0.74525923 0.25218484 1.5160002
-0.73732007 0.25588569 1.5190001
-0.72413009 0.25720468 1.5190001
-0.7135781 0.25984269 1.5190001
0.82763022 0.19995546 1.5250001
0.83027864 0.19995546 1.5250001
0.48598447 0.20790072 1.5250001
0.49657816 0.20790073 1.5250001
0.62767482 0.20790072 1.5250001
0.63517863 0.20613512 1.5250001
0.64488947 0.20525232 1.5250001
0.6501863 0.2052523 1.5250001
0.7859177 0.20591439 1.5250001
0.79320085 0.20525229 1.5250001
0.47697988 0.21637566 1.5250001
0.48157045 0.21319756 1.5250001
0.4912813 0.21054913 1.5250001
0.5045234 0.21054913 1.5250001
0.52703488 0.21054913 1.5250001
0.533656 0.21054913 1.5250001
0.54557383 0.21121123 1.5250001
0.55484331 0.21054913 1.5250001
0.56278855 0.21054915 1.5250001
0.57470644 0.21319754 1.5250001
0.59192115 0.21054913 1.5250001
0.61487406 0.21054915 1.5250001
0.62370217 0.21054913 1.5250001
0.23968172 0.22908805 1.5250001
0.24233013 0.22908805 1.5250001
0.27543533 0.22908805 1.5250001
0.31781 0.22908805 1.5250001
0.32707947 0.22908805 1.5250001
0.34429419 0.22908805 1.5250001
0.38666886 0.22511542 1.5250001
0.3946141 0.22643963 1.5250001
0.40653196 0.22643963 1.5250001
0.41580141 0.22379121 1.5250001
0.43831298 0.22643963 1.5250001
0.44537541 0.22820525 1.5250001
0.45552769 0.22908805 1.5250001
0.46479714 0.22643964 1.5250001
0.4722127 0.22326155 1.5250001
-0.13109663 0.23703329 1.5250001
-0.046347294 0.23968172 1.5250001
0.088721961 0.23703329 1.5250001
0.092694588 0.23438488 1.5250001
0.10858509 0.23438488 1.5250001
0.13904189 0.23438488 1.5250001
0.14433871 0.23438488 1.5250001
0.15360817 0.23438488 1.5250001
0.16420183 0.23306067 1.5250001
0.17611973 0.23173647 1.5250001
0.18671338 0.23173647 1.5250001
0.19730705 0.23173647 1.5250001
0.20525229 0.23173647 1.5250001
0.22643963 0.23173647 1.5250001
0.23438488 0.23173647 1.5250001
0.27411112 0.23173647 1.5250001
0.28602901 0.23173647 1.5250001
0.29265004 0.23173647 1.5250001
0.31251317 0.23173647 1.5250001
0.33634892 0.23173647 1.5250001
-0.77201349 0.24630275 1.5250001
-0.76274407 0.24762696 1.5250001
-0.75744724 0.24630275 1.5250001
-0.71904516 0.24630275 1.5250001
-0.059589379 0.24233013 1.5250001
-0.80485392 0.25716129 1.5250001
-0.79637891 0.25292382 1.5250001
-0.77532405 0.25292379 1.5250001
-0.76724637 0.25133476 1.5250001
-0.74199808 0.25292382 1.5250001
-0.73758405 0.25822064 1.5250001
-0.72257638 0.25645503 1.5250001
-0.71537811 0.25455362 1.525
-0.70845145 0.25689644 1.5250001
-0.81385851 0.26192841 1.5250001
-0.80644292 0.26219326 1.5250001
-0.7146312 0.26086909 1.5250001
0.81679606 0.19821271 1.5320001
0.82647943 0.19851463 1.5343335
0.83408976 0.19821271 1.5320001
0.84591907 0.19911839 1.539
0.47708234 0.20980933 1.539
0.4858143 0.20836094 1.5362
0.49466085 0.20599581 1.5355
0.50494254 0.20828222 1.5343335
0.53320962 0.20980932 1.539
0.55592787 0.20980932 1.539
0.5652824 0.20980933 1.539
0.57463694 0.20980932 1.539
0.5813188 0.20980932 1.539
0.60670972 0.20980932 1.539
0.61603874 0.20920482 1.5378335
0.62532675 0.20766324 1.5355
0.63550919 0.20517415 1.5343335
0.64529914 0.20337133 1.5348001
0.65065998 0.2026625 1.5355
0.79641867 0.20376638 1.5337501
0.80482352 0.2008733 1.5320001
0.81147492 0.20087329 1.5320001
0.8394109 0.20087329 1.5320001
0.84207147 0.20087329 1.5320001
0.42835233 0.21949731 1.5320001
0.46772775 0.21649113 1.539
0.47377023 0.21501599 1.5336154
0.48156378 0.21151559 1.5320001
0.50949979 0.21151559 1.5320001
0.51560915 0.21183774 1.5343335
0.52280265 0.21151559 1.5320001
0.53610551 0.21151559 1.5320001
0.54408729 0.21151559 1.5320001
0.57335365 0.21151559 1.5320001
0.58399153 0.21248204 1.539
0.60002792 0.21248204 1.539
0.61592275 0.21151559 1.5320001
0.26860937 0.22851843 1.539
0.27620411 0.22817197 1.5366668
0.28598213 0.22851843 1.539
0.2940003 0.22851843 1.539
0.31538215 0.22851843 1.539
0.32424438 0.22817197 1.5366668
0.33141851 0.22851843 1.539
0.34705526 0.22825858 1.53725
0.35537761 0.22728106 1.5366668
0.37551859 0.22851843 1.539
0.38422078 0.22507527 1.5337501
0.39635181 0.22416024 1.5348001
0.40471408 0.22649904 1.5362
0.41231078 0.22461239 1.5366668
0.42968261 0.22215788 1.5320001
0.43566832 0.22382653 1.5343335
0.44490227 0.22540197 1.5360001
0.4546611 0.22666235 1.5355
0.46540767 0.22372776 1.5357691
0.47199431 0.22132906 1.5355
-0.052118238 0.23920934 1.539
0.08809828 0.23626764 1.53725
0.096135445 0.23407714 1.5334001
0.10324501 0.23450263 1.5362
0.1109183 0.23386388 1.539
0.13743691 0.23350528 1.5366668
0.14379756 0.23290387 1.5362
0.15393935 0.23397051 1.5362
0.16411965 0.2335093 1.5366668
0.19614783 0.23084065 1.5366668
0.20580022 0.23119116 1.539
0.21423121 0.2323693 1.5362
0.22436814 0.2323693 1.5362
0.23439336 0.2304025 1.5337501
0.28645131 0.23049013 1.5343335
0.29566252 0.23106764 1.5337501
0.30584285 0.23178943 1.5351111
0.31466186 0.23066539 1.5355
0.33656257 0.2301396 1.5320001
0.34188369 0.2301396 1.5320001
-0.80582809 0.24990027 1.539
-0.79950231 0.24876362 1.5320001
-0.7844463 0.24990027 1.539
-0.77437007 0.24762075 1.5331668
-0.76624513 0.24610303 1.5320001
-0.75579631 0.24838264 1.5337501
-0.71569419 0.2474333 1.5320001
-0.055605985 0.24131401 1.5320001
-0.83427846 0.25829032 1.53725
-0.8262648 0.25762212 1.53725
-0.81466097 0.2546604 1.5354999
-0.80571032 0.25452822 1.5320001
-0.79551148 0.25142419 1.5320001
-0.78486913 0.25142419 1.5320001
-0.7441771 0.25562063 1.53725
-0.73532921 0.25666523 1.5355
-0.7263366 0.25275448 1.5320001
-0.71569425 0.25341964 1.5320001
-0.83790088 0.26059118 1.539
-0.82453728 0.26059121 1.539
0.83902711 0.19733918 1.5460001
0.84305441 0.19733918 1.5460001
0.47790983 0.20807873 1.5460001
0.48730695 0.20673628 1.5460001
0.49804649 0.20539384 1.5460001
0.50878602 0.20807873 1.5460001
0.5597989 0.20807873 1.5460001
0.57322335 0.20807873 1.5460002
0.58262038 0.20807873 1.5460001
0.60812682 0.20807873 1.5460001
0.61483902 0.20807873 1.5460001
0.63497573 0.20539384 1.5460001
0.64392537 0.20270894 1.5460002
0.65242743 0.20002407 1.5460001
0.80680847 0.201814 1.5460002
0.84708178 0.20002407 1.5460001
0.46636486 0.21559642 1.5460001
0.4720926 0.21165857 1.5460002
0.53160763 0.2107636 1.5460001
0.54530048 0.21237452 1.5460001
0.55308664 0.2107636 1.5460001
0.56248379 0.2107636 1.5460001
0.5772506 0.2107636 1.5460001
0.58799016 0.2107636 1.5460001
0.59470242 0.21255355 1.5460002
0.6027571 0.2107636 1.5460001
0.20449889 0.22955781 1.5460002
0.21344849 0.22955781 1.5460001
0.23627004 0.22955781 1.5460001
0.24029736 0.22955781 1.5460001
0.26446134 0.22955781 1.5460001
0.27251601 0.22955781 1.5460001
0.29667997 0.22821537 1.5460001
0.30473465 0.22955781 1.5460002
0.3133263 0.22740991 1.5460001
0.32352886 0.22687294 1.5460001
0.33829573 0.22955781 1.5460001
0.34366551 0.22821537 1.5460001
0.35037771 0.22687294 1.5460001
0.36559209 0.22866285 1.5460002
0.37991148 0.22955781 1.5460001
0.38662368 0.22418804 1.5460001
0.39467835 0.22351682 1.5460001
0.40541789 0.22351682 1.5460001
0.41347256 0.22418804 1.5460001
0.4242121 0.22418804 1.5460001
0.43763655 0.22150315 1.5460001
0.4456912 0.2228456 1.5460001
0.4556253 0.22311409 1.5460001
0.46247172 0.22217438 1.5460001
0.087258816 0.23492759 1.5460001
0.093971036 0.2322427 1.5460001
0.10873792 0.23492759 1.5460001
0.12753212 0.23492759 1.5460001
0.13558678 0.23492759 1.5460001
0.14766878 0.2322427 1.5460001
0.15303855 0.2322427 1.5460001
0.17049031 0.2322427 1.5460001
0.18928452 0.2322427 1.5460001
0.19196941 0.2322427 1.5460001
0.21881828 0.2322427 1.5460001
0.22418804 0.2322427 1.5460001
0.25909159 0.2322427 1.5460001
-0.75311071 0.24835202 1.5460001
-0.73297405 0.24835202 1.5460001
-0.056382619 0.24298225 1.5460001
-0.84305441 0.25640669 1.5460001
-0.8349998 0.25506428 1.5460002
-0.82452869 0.25318485 1.5460001
-0.8148632 0.25103694 1.5460002
-0.7524395 0.25170815 1.5460001
-0.74505609 0.25439304 1.5460001
-0.73633021 0.2530506 1.5460001
0.84282607 0.19688417 1.5530001
0.85226572 0.1982327 1.5530001
0.47602817 0.20902087 1.5530001
0.48546782 0.20767234 1.5530001
0.50569564 0.20632382 1.5530001
0.5470503 0.20812187 1.5530002
0.55559093 0.20902087 1.5530001
0.56637907 0.20902087 1.5530001
0.57042468 0.20902087 1.5530001
0.58525842 0.20767234 1.5530001
0.59402382 0.20834661 1.5530001
0.60413772 0.20902087 1.5530001
0.61762297 0.20632382 1.5530001
0.62706256 0.20632383 1.5530002
0.63245666 0.20632382 1.5530001
0.64863896 0.20362678 1.5530001
0.80506748 0.20362678 1.5530001
0.83473492 0.20092973 1.5530001
0.40185946 0.21980904 1.5530001
0.45894688 0.21891002 1.5530002
0.46434101 0.21621299 1.5530002
0.51783234 0.2117179 1.5530001
0.52457494 0.2117179 1.5530001
0.54480278 0.2117179 1.5530001
0.59604657 0.2117179 1.5530001
0.60548627 0.2117179 1.5530001
0.21441495 0.22790016 1.5530001
0.27644694 0.22790016 1.5530001
0.28633612 0.22790018 1.5530002
0.29532623 0.22790016 1.5530001
0.30476591 0.22790016 1.5530001
0.31420559 0.22520313 1.5530002
0.3236452 0.22655165 1.5530001
0.33443338 0.22790016 1.5530001
0.34567106 0.22655165 1.5530002
0.35466123 0.22700116 1.5530002
0.36679789 0.22790016 1.5530001
0.37488902 0.22790016 1.5530001
0.38567719 0.22452885 1.5530001
0.39781392 0.22250608 1.5530001
0.40725356 0.22250608 1.5530001
0.41534472 0.22250608 1.5530001
0.42208728 0.22520313 1.5530001
0.4477092 0.22250608 1.5530001
0.4531033 0.22250608 1.5530001
0.094846033 0.23239523 1.5530002
0.10383617 0.23329425 1.5530002
0.11597286 0.2359913 1.5530001
0.12271547 0.2359913 1.5530001
0.13350365 0.23509228 1.5530002
0.14159478 0.23329425 1.5530001
0.15777704 0.23329425 1.5530001
0.16586816 0.23329425 1.5530002
0.17665635 0.23329425 1.5530002
0.18474749 0.23329425 1.5530002
0.1982327 0.23059721 1.5530001
0.20362678 0.23059721 1.5530001
0.217112 0.23059721 1.5530001
0.2238546 0.23194572 1.5530001
0.23194572 0.23059721 1.5530001
0.24543095 0.23059721 1.5530001
0.25621912 0.23329425 1.5530001
0.26835582 0.23059721 1.5530001
0.37488902 0.23059721 1.5530001
-0.83203787 0.24947652 1.5530001
-0.82124972 0.24947652 1.5530001
-0.81720412 0.24947652 1.5530001
-0.79158223 0.24947652 1.5530001
-0.78079408 0.24677947 1.5530001
-0.76326329 0.24947652 1.5530001
-0.75247514 0.24947652 1.5530001
-0.74438393 0.24947652 1.5530001
-0.84552312 0.25487059 1.5530002
-0.83473492 0.2521736 1.5530002
-0.82934088 0.25217357 1.5530001
-0.80776453 0.25217357 1.5530001
-0.79427928 0.25217357 1.5530001
-0.75112659 0.25217357 1.5530001
-0.74438393 0.25217357 1.5530001
0.66239941 0.1991262 1.5600001
0.8452704 0.196417 1.5600001
0.85459232 0.19609746 1.5646667
0.86130941 0.19729836 1.567
0.46671268 0.20818381 1.5670002
0.4738161 0.20907339 1.5635002
0.48031947 0.2081838 1.567
0.50753301 0.20546244 1.567
0.5158323 0.20877688 1.5646667
0.53777623 0.20996301 1.5600001
0.5451616 0.20816056 1.5617501
0.55527139 0.20635812 1.5635002
0.56604218 0.2081838 1.567
0.5745312 0.20781179 1.5642
0.58514547 0.20635812 1.5635
0.59508765 0.20560601 1.5646667
0.60399467 0.20595622 1.5638891
0.61500758 0.20601946 1.5635002
0.62657213 0.20591028 1.56525
0.63465941 0.20477407 1.5617501
0.64208043 0.2045446 1.5600001
0.65511304 0.20183432 1.56525
0.66265035 0.20001972 1.567
0.80869621 0.20183541 1.5600001
0.81276 0.20183541 1.5600001
0.82560098 0.20243919 1.5646667
0.84498125 0.20001972 1.567
0.3782686 0.21906921 1.567
0.38507199 0.21906921 1.5670002
0.3905147 0.21906921 1.567
0.45629883 0.2168719 1.5649003
0.46427557 0.21229392 1.5638891
0.47004622 0.2126722 1.5600001
0.52693939 0.2126722 1.5600001
0.53235781 0.2126722 1.5600001
0.545632 0.21090515 1.567
0.19729836 0.22995465 1.567
0.20508802 0.22954376 1.5642
0.21693282 0.22779799 1.5646667
0.22562492 0.22969784 1.56525
0.23469631 0.22926983 1.5623335
0.24492212 0.22995465 1.567
0.2639716 0.22995465 1.567
0.27485704 0.22995465 1.567
0.2853491 0.22836271 1.5623335
0.29595929 0.22672576 1.5635
0.30478901 0.22524323 1.5640002
0.31328839 0.2249385 1.56525
0.32604384 0.22655658 1.5623335
0.33564189 0.22579165 1.5617501
0.34460407 0.22364971 1.5631113
0.35569844 0.22445999 1.5635002
0.3665626 0.22672576 1.5635
0.37606606 0.22536509 1.5635002
0.38441601 0.22334865 1.5631113
0.39579174 0.22247796 1.5642
0.40548217 0.22179058 1.567
0.41500694 0.2217906 1.5670002
0.42861369 0.22451194 1.567
0.43269572 0.22451194 1.567
0.44632596 0.22113006 1.5623335
0.45379099 0.2207998 1.5600002
0.094658181 0.23232953 1.5646667
0.10577884 0.23257378 1.5617501
0.11417086 0.23445413 1.56525
0.12457841 0.23530827 1.5628
0.13334647 0.23539735 1.567
0.16440098 0.23323262 1.5646667
0.17416683 0.232676 1.567
0.18505226 0.232676 1.567
0.19428322 0.23232953 1.5646667
0.22621821 0.23163661 1.5600001
0.25466481 0.23163661 1.5600001
0.26279241 0.23163661 1.5600001
-0.83630276 0.24844798 1.5635
-0.79327554 0.24900416 1.5670002
-0.78160423 0.24789181 1.5600001
-0.77889502 0.24789181 1.5600001
-0.75451225 0.24789183 1.5600002
-0.85314536 0.25263262 1.5670002
-0.84575695 0.25245142 1.5614001
-0.83398211 0.25060099 1.5600002
-0.82407486 0.25116324 1.5635
-0.81504637 0.25172549 1.567
-0.80553353 0.25359437 1.5617501
-0.76263982 0.25060099 1.5600001
0.8487559 0.19817972 1.5740001
0.85513419 0.19544622 1.5740001
0.46333054 0.20911378 1.5740001
0.49066564 0.20911378 1.5740001
0.51800078 0.20911378 1.5740001
0.52620137 0.20911378 1.5740001
0.53713536 0.20911378 1.5740001
0.54601932 0.20843039 1.5740001
0.5849719 0.20638026 1.5740001
0.5959059 0.20364675 1.5740001
0.60547322 0.20364675 1.5740001
0.61458492 0.20364675 1.5740001
0.62324107 0.20364675 1.5740001
0.63417512 0.20364675 1.5740001
0.64465356 0.20364675 1.5740001
0.65194297 0.20364675 1.5740001
0.81732047 0.20091324 1.5740001
0.82278752 0.20091324 1.5740001
0.84465563 0.20091324 1.5740001
0.38952565 0.21731432 1.5740001
0.39225918 0.21731432 1.5740001
0.44966295 0.21731432 1.5740001
0.45512998 0.21526419 1.5740001
0.46059701 0.21184729 1.5740001
0.52620137 0.21184729 1.5740001
0.53576863 0.21184729 1.5740001
0.20911378 0.22824837 1.5740001
0.21321404 0.22824837 1.5740001
0.22551487 0.22824839 1.5740001
0.23508216 0.22824837 1.5740001
0.26515079 0.22824837 1.5740001
0.33758891 0.22551486 1.5740001
0.34305593 0.22278135 1.5740001
0.35262322 0.2214146 1.5740001
0.36219051 0.22551486 1.5740001
0.37585807 0.22369252 1.5740001
0.38132513 0.22278135 1.5740001
0.40319324 0.22004783 1.5740001
0.41686079 0.22004783 1.5740001
0.42506135 0.22414809 1.5740001
0.44692945 0.22095901 1.5740001
0.10524027 0.23098189 1.5740001
0.11617433 0.2337154 1.5740001
0.12164135 0.2337154 1.5740001
0.15717702 0.2337154 1.5740001
0.16264404 0.2337154 1.5740001
0.17904513 0.23098189 1.5740001
0.18724567 0.23098189 1.5740001
0.19407946 0.23098189 1.5740001
0.25558352 0.23098189 1.5740001
0.26515079 0.23098189 1.5740001
0.27198458 0.23098189 1.5740001
-0.85968995 0.25285 1.5740001
-0.84602243 0.25011647 1.5740001
-0.83508837 0.25011647 1.5740001
-0.82597673 0.25102764 1.5740001
-0.81322026 0.25285 1.5740001
-0.80501974 0.25193882 1.5740001
-0.76675051 0.25011647 1.5740001
-0.72574782 0.25421673 1.5740001
0.84841204 0.19906108 1.5810001
0.85546464 0.19730878 1.5890001
0.86625892 0.19631541 1.5810001
0.87202203 0.19592899 1.5890001
0.465774 0.20808479 1.5870001
0.47522587 0.20799738 1.5863335
0.50932181 0.20729809 1.5810001
0.51611221 0.20644279 1.585
0.52465659 0.20523684 1.5842001
0.53546071 0.20420393 1.586867
0.54478449 0.20385921 1.5863335
0.5537414 0.20432262 1.5863335
0.56609291 0.20672789 1.5836668
0.57674873 0.20834704 1.5890001
0.58463305 0.20661663 1.5842001
0.59452504 0.20397758 1.5836668
0.60388607 0.20221522 1.5842001
0.61585379 0.20235589 1.5810002
0.62535232 0.20111142 1.5842001
0.63399202 0.20133922 1.5845557
0.64579052 0.20174573 1.5867144
0.66337717 0.20231733 1.585
0.82924879 0.20006835 1.5890001
0.83471179 0.20168489 1.5836668
0.84367359 0.20162743 1.5850002
0.4468357 0.21791551 1.5850003
0.45568275 0.21307945 1.5854445
0.46264541 0.21004376 1.5810001
0.48982251 0.2111066 1.5890001
0.53403282 0.21004376 1.5810001
0.17984138 0.22926345 1.5810001
0.18473011 0.22873031 1.5836668
0.19356975 0.22926345 1.5810001
0.20592526 0.22926345 1.5810001
0.22766398 0.22766398 1.5890001
0.23426591 0.22737743 1.5870001
0.24466856 0.22886357 1.5830002
0.25488973 0.22926347 1.5810001
0.26527628 0.22806385 1.5870001
0.27456892 0.22894357 1.5826
0.28419161 0.22873031 1.5836668
0.29589936 0.22709088 1.585
0.30482352 0.22506478 1.5836668
0.31163356 0.22377211 1.5810001
0.33804652 0.22766398 1.5890001
0.34546036 0.22295848 1.585
0.3679198 0.22651778 1.5810001
0.37499064 0.22367311 1.5842003
0.39949501 0.22102644 1.5810001
0.41596901 0.22102644 1.5810001
0.42420602 0.22239926 1.5810001
0.43474552 0.22357415 1.5874002
0.44337586 0.22316775 1.5878571
0.095469259 0.23137489 1.5842001
0.10404674 0.23081993 1.5870001
0.1149769 0.2313296 1.5844289
0.12504281 0.23217545 1.5863333
0.13445611 0.23357503 1.5854447
0.14524476 0.23408122 1.5844287
0.15378861 0.23302786 1.5842001
0.16593793 0.2314806 1.5836668
0.17479119 0.23121634 1.585
0.18580857 0.23121634 1.585
0.19454922 0.23042354 1.5890001
0.20144814 0.23042354 1.5890001
0.25801918 0.23042354 1.5890001
-0.86512315 0.24974051 1.5890001
-0.859604 0.2497405 1.5890001
-0.8071723 0.24974051 1.5890001
-0.79825538 0.24911182 1.585
-0.76192343 0.24848314 1.5810001
-0.73404384 0.2497405 1.5890001
-0.72635657 0.24816361 1.5890001
-0.71519351 0.24758975 1.5878571
-0.7063942 0.24923757 1.5858002
-0.86214042 0.25122881 1.5810001
-0.85527629 0.25122881 1.5810001
-0.84154791 0.25122881 1.5810001
-0.83605653 0.25122881 1.5810001
-0.82646555 0.25165257 1.5836668
