# .PCD v0.7 - Point Cloud Data file format
VERSION 0.7
FIELDS x y z
SIZE 4 4 4
TYPE F F F
COUNT 1 1 1
WIDTH 1511
HEIGHT 1
VIEWPOINT 0 0 0 1 0 0 0
POINTS 1511
DATA ascii
0.43060216 0.19997457 1.6810001
0.53861761 0.19997457 1.6810001
0.54299664 0.19997457 1.6810001
0.56197232 0.19997457 1.6810001
0.59846401 0.19997457 1.6810001
0.60576236 0.19851491 1.6810001
0.61160105 0.19997457 1.6810001
0.64371377 0.19705525 1.6810001
0.6553911 0.19608212 1.6810001
0.6845845 0.19705525 1.6810001
0.69528878 0.19705525 1.6810001
0.70793915 0.19413589 1.6810001
0.71085852 0.19121656 1.6810001
0.85828501 0.19267622 1.6810001
0.86558336 0.19121656 1.6810001
0.91813141 0.19121656 1.6810001
0.41600549 0.20873258 1.6810001
0.42403364 0.20581324 1.6810001
0.43206185 0.2028939 1.6810001
0.48898891 0.20581324 1.6810001
0.49482757 0.20727292 1.6810001
0.50504529 0.2028939 1.6810001
0.51526296 0.2028939 1.6810001
0.52256131 0.2028939 1.6810001
0.57364964 0.2028939 1.6810001
0.58386731 0.2028939 1.6810001
0.26128063 0.21749058 1.6810001
0.39557013 0.21749058 1.6810001
0.40724748 0.21603093 1.6810001
0.41250229 0.21281965 1.6810001
0.096338108 0.22916794 1.6810001
0.10655579 0.22478893 1.6810001
0.11531381 0.22332928 1.6810001
0.12407181 0.22040993 1.6810001
0.13574916 0.22527549 1.6810001
0.14596683 0.22624859 1.6810001
0.15472485 0.22624859 1.6810001
0.16202319 0.22624859 1.6810001
0.17661987 0.22332928 1.6810001
0.18391821 0.22332926 1.6810001
0.19705522 0.22430238 1.6810001
0.20581323 0.22332926 1.6810001
0.21311158 0.22332926 1.6810001
0.23500662 0.22624859 1.6810001
0.24376462 0.22430238 1.6810001
0.26419997 0.22040993 1.6810001
0.27393112 0.22235614 1.6810001
0.28463537 0.22235614 1.6810001
0.29533958 0.22138304 1.6810001
0.30215135 0.22040993 1.6810001
0.31528836 0.22624859 1.6810001
0.32623589 0.22259942 1.6810001
0.35469943 0.22040993 1.6810001
-0.9093734 0.24960329 1.6810001
-0.87142199 0.24376462 1.6810001
-0.86704302 0.24376462 1.6810001
-0.85585225 0.24668396 1.6810001
-0.84806734 0.24668396 1.6810001
-0.81011593 0.24376462 1.6810001
-0.79697895 0.24376462 1.6810001
-0.78092259 0.24668396 1.6810001
-0.7750839 0.24668396 1.6810001
-0.76632589 0.2452243 1.6810001
-0.75172919 0.24668396 1.6810001
-0.91521204 0.25252262 1.6810001
0.86728269 0.18930535 1.6900001
0.87668324 0.18754524 1.694
0.88563365 0.18807371 1.6948003
0.93183982 0.18725261 1.6980001
0.4324578 0.19857916 1.694
0.49835736 0.19904806 1.6980001
0.50720394 0.19904806 1.6980001
0.51188946 0.19857916 1.694
0.52479255 0.19749339 1.6948
0.53374368 0.19904806 1.6980001
0.54553914 0.19904806 1.6980001
0.55586016 0.19904806 1.6980001
0.5632323 0.19904806 1.6980001
0.59566975 0.19904806 1.6980001
0.60381907 0.19857916 1.6940001
0.61487556 0.19811027 1.6900001
0.62426537 0.19770804 1.6916001
0.63641834 0.19842285 1.6926668
0.644297 0.19676957 1.6953334
0.65361881 0.19431679 1.6953334
0.66483134 0.19743991 1.6926668
0.67663664 0.19857916 1.694
0.68237978 0.19811025 1.6900001
0.69428116 0.19710472 1.694
0.7060523 0.19563724 1.694
0.71341401 0.19122091 1.694
0.86492604 0.19122091 1.694
0.89497906 0.19020148 1.6980001
0.90382564 0.19020148 1.6980001
0.91709548 0.19020148 1.6980001
0.9274165 0.19020148 1.6980001
0.40942785 0.20985012 1.6900001
0.41492918 0.20654525 1.6930001
0.42466578 0.20309874 1.6935556
0.43731004 0.20251271 1.6900001
0.4452084 0.20298856 1.694
0.45491984 0.20398019 1.6900001
0.46372473 0.20398019 1.6900001
0.47375748 0.20528036 1.6926668
0.48631182 0.20642281 1.692
0.49503711 0.20326819 1.6945717
0.50440758 0.20182256 1.6916001
0.51508665 0.20202355 1.6900001
0.52438205 0.20123556 1.6916001
0.53563142 0.20104524 1.6900001
0.5679161 0.20104523 1.6900001
0.57729059 0.20249274 1.696
0.58442944 0.20265803 1.6953335
0.59355968 0.20128314 1.692
0.63248533 0.20104523 1.6900001
0.19609921 0.21969007 1.6980002
0.204356 0.21851054 1.6980002
0.2108435 0.21969007 1.6980001
0.24770424 0.21969007 1.6980001
0.25212753 0.21969007 1.6980001
0.29489884 0.21712537 1.6964
0.30276641 0.21836209 1.6953335
0.31700245 0.21969007 1.6980001
0.32290018 0.21969007 1.6980001
0.35533762 0.21969007 1.6980002
0.36418423 0.21969007 1.6980002
0.37450525 0.21969007 1.6980001
0.3966217 0.21821564 1.6980001
0.40487942 0.21519303 1.6921821
0.08699137 0.22853665 1.6980002
0.094874971 0.22726107 1.694
0.10419133 0.2255033 1.6900001
0.11647998 0.22263893 1.6980001
0.12473609 0.22158998 1.6900001
0.13522151 0.22340712 1.6926668
0.14506291 0.22458488 1.696
0.15457204 0.22523353 1.6953334
0.16570406 0.2245729 1.6948003
0.17451677 0.22311044 1.696
0.18533359 0.22284821 1.6940001
0.19400883 0.22291796 1.6926668
0.20544767 0.22158998 1.6900001
0.21640548 0.22228929 1.6953334
0.22579359 0.22579011 1.694
0.23448598 0.22440541 1.6922859
0.24376445 0.22259657 1.6932001
0.2553421 0.22158998 1.6900001
0.27724668 0.22326761 1.6953335
0.28366655 0.22193965 1.6926668
0.29349667 0.22158998 1.6900001
0.30817151 0.22305746 1.6900001
0.31600678 0.22340713 1.6926668
0.32358009 0.22232373 1.6900001
0.086581521 0.23039488 1.6900001
0.092451453 0.23039488 1.6900001
-0.91493857 0.24859169 1.694
-0.90543723 0.2480047 1.6900001
-0.88287705 0.24372815 1.696
-0.87344521 0.24315505 1.692
-0.86786103 0.24564977 1.694
-0.82227987 0.24409142 1.6900001
-0.81637406 0.24564977 1.694
-0.80481911 0.24446537 1.696
-0.79445267 0.24682145 1.6953335
-0.78660214 0.24479833 1.6968572
-0.77615005 0.24576299 1.6948003
-0.76489401 0.24564977 1.694
-0.75868893 0.24800469 1.6900001
-0.92594206 0.25212753 1.6980001
-0.91717708 0.25093967 1.6900001
0.87549365 0.18813485 1.7060001
0.8858633 0.1851721 1.7060001
0.8962329 0.18813485 1.7060001
0.93326735 0.18665347 1.7060001
0.42367375 0.19998586 1.7060001
0.49527365 0.19899827 1.7060001
0.50514948 0.19998586 1.7060001
0.52292597 0.19998586 1.7060001
0.54564047 0.19998586 1.7060001
0.55847901 0.19998586 1.7060001
0.57477415 0.19998586 1.7060001
0.58366239 0.19998586 1.7060001
0.59255064 0.19998586 1.7060001
0.61477137 0.19702311 1.7060001
0.62563479 0.19702312 1.7060001
0.63699198 0.19702311 1.7060001
0.64439893 0.19603553 1.7060001
0.65476853 0.19257897 1.7060001
0.66810089 0.19702311 1.7060001
0.68884015 0.19702311 1.7060001
0.69476569 0.19702311 1.7060001
0.70217252 0.19702311 1.7060001
0.71402359 0.19406036 1.7060001
0.90363979 0.1910976 1.7060001
0.91104668 0.1910976 1.7060001
0.92734182 0.1910976 1.7060001
0.4147855 0.20517068 1.7060001
0.44589439 0.20294861 1.7060001
0.45478266 0.20294861 1.7060001
0.46515229 0.20294861 1.7060001
0.47552198 0.2039362 1.7060001
0.48441023 0.20443001 1.7060002
0.49181706 0.20294861 1.7060001
0.58810657 0.20294861 1.7060001
0.19702309 0.21702167 1.7060001
0.20887412 0.21776238 1.7060001
0.28738707 0.21776238 1.7060001
0.29479396 0.21479963 1.7060001
0.30516362 0.216281 1.7060001
0.39700896 0.21776238 1.7060001
0.40441585 0.21282446 1.7060001
0.084438473 0.22763823 1.7060001
0.094808102 0.22590996 1.7060001
0.10517775 0.22467548 1.7060001
0.11604118 0.2227003 1.7060001
0.12295426 0.22072513 1.7060001
0.13184252 0.22368789 1.7060001
0.14813766 0.22368789 1.7060001
0.15554455 0.22368789 1.7060001
0.16443281 0.22368789 1.7060001
0.18813485 0.22072513 1.7060001
0.1910976 0.22072513 1.7060001
0.21479963 0.22072513 1.7060001
0.22665064 0.22368789 1.7060001
0.23257615 0.22368789 1.7060001
0.24294579 0.22072513 1.7060001
0.25775954 0.22072513 1.7060001
0.26220366 0.22072513 1.7060001
0.28738707 0.22072513 1.7060001
0.30960774 0.22072513 1.7060001
0.31405187 0.22072513 1.7060001
0.32442153 0.22072513 1.7060001
0.33182839 0.22072513 1.7060001
0.38663933 0.22072515 1.7060001
0.3955276 0.22072513 1.7060001
-0.9228977 0.24738991 1.7060001
-0.9147501 0.24590853 1.7060001
-0.90808392 0.24738991 1.7060001
-0.88141912 0.24146441 1.7060001
-0.87549365 0.24294579 1.7060001
-0.86956811 0.24738991 1.7060001
-0.82660818 0.24442716 1.7060001
-0.8117944 0.24442716 1.7060001
-0.80290616 0.24442716 1.7060001
-0.79648685 0.24541473 1.7060001
-0.78512967 0.24442716 1.7060001
-0.77624142 0.24442716 1.7060001
-0.762909 0.24738991 1.7060001
-0.75994623 0.24738991 1.7060001
-0.92734182 0.25035265 1.7060001
0.87713391 0.18912734 1.715
0.88606906 0.18515617 1.715
0.89559996 0.18436193 1.715
0.90542853 0.18763816 1.715
0.91436374 0.18912734 1.715
0.93521237 0.18763815 1.715
0.94265836 0.18614896 1.715
0.48994407 0.19806249 1.715
0.49590084 0.19806251 1.715
0.50632513 0.19806249 1.715
0.51674956 0.19806251 1.715
0.52568465 0.19806249 1.715
0.53610897 0.19806249 1.715
0.54653335 0.19806249 1.715
0.55397928 0.19806249 1.715
0.56440371 0.19806251 1.715
0.57482803 0.19806249 1.715
0.5852524 0.19806251 1.715
0.5941875 0.19806251 1.715
0.60411549 0.19806251 1.715
0.61503619 0.19806249 1.715
0.63588488 0.19806249 1.715
0.64482009 0.19508412 1.715
0.65375519 0.19210574 1.715
0.66715789 0.19359492 1.715
0.7163012 0.19309853 1.715
0.87266636 0.19210573 1.715
0.40605295 0.20898324 1.715
0.41548452 0.20401928 1.715
0.42144126 0.20104088 1.715
0.4318656 0.20104088 1.715
0.4646278 0.20253007 1.715
0.47505218 0.20104089 1.715
0.48458296 0.20163655 1.715
0.49590084 0.20104088 1.715
0.52270627 0.20104088 1.715
0.57780635 0.20104088 1.715
0.59120911 0.20104088 1.715
0.19329707 0.21533714 1.715
0.20699766 0.21593282 1.715
0.21295442 0.21891119 1.715
0.28741401 0.2159328 1.715
0.29039237 0.2159328 1.715
0.30528429 0.21444361 1.715
0.31124106 0.21891119 1.715
0.37825468 0.21891119 1.715
0.38570064 0.2189112 1.715
0.39463583 0.2159328 1.7150002
0.40158534 0.21394722 1.715
0.084883928 0.22635713 1.715
0.095804676 0.22486797 1.715
0.10498802 0.22263417 1.715
0.11466776 0.22188959 1.715
0.1265813 0.22188957 1.715
0.16530028 0.22486795 1.715
0.17423543 0.22188959 1.715
0.1831706 0.22188959 1.715
0.21891119 0.22188957 1.715
0.22188957 0.22188957 1.715
0.23678148 0.22188959 1.715
0.26954371 0.22188957 1.715
0.27550048 0.22188957 1.715
0.28294644 0.22188957 1.715
0.33804652 0.22188957 1.715
0.34102491 0.22188957 1.715
-0.88408345 0.23876707 1.715
-0.87713391 0.23827067 1.715
-0.81309867 0.23975986 1.715
-0.80416358 0.23975986 1.715
-0.79870319 0.23876707 1.715
-0.93223405 0.24720582 1.715
-0.9252845 0.24522023 1.715
-0.8845799 0.24273825 1.715
-0.87415552 0.24571663 1.715
-0.82352304 0.24571663 1.715
-0.81458789 0.24422744 1.715
-0.80267435 0.24273825 1.715
-0.79820681 0.24273825 1.715
-0.78480405 0.24273825 1.715
-0.77437973 0.24571663 1.715
-0.76991212 0.24869502 1.715
-0.67575586 0.1830276 1.723
0.8842178 0.18701729 1.723
0.89169848 0.18252888 1.723
0.90516371 0.18502244 1.723
0.94406337 0.18402502 1.723
0.42639944 0.19898641 1.723
0.43537629 0.19898641 1.723
0.47577199 0.19898641 1.723
0.48474884 0.19898641 1.723
0.51317549 0.19898641 1.723
0.52514458 0.19898641 1.723
0.53412139 0.19599412 1.723
0.54459435 0.19898641 1.723
0.55207509 0.19898641 1.723
0.56404418 0.19749027 1.723
0.5775094 0.19898641 1.723
0.58499008 0.19599412 1.723
0.5954631 0.19599412 1.723
0.60593605 0.19749027 1.723
0.6119206 0.19599412 1.723
0.62688196 0.19599412 1.723
0.67475843 0.19599414 1.723
0.68074298 0.19898641 1.723
0.69271207 0.19898641 1.723
0.71515417 0.19449799 1.723
0.92610967 0.19000958 1.723
0.93359035 0.19000958 1.723
0.39797282 0.20796323 1.723
0.40545353 0.2069658 1.723
0.41443032 0.20347482 1.723
0.45632219 0.20197868 1.723
0.46679518 0.20197868 1.723
0.10622582 0.21993236 1.723
0.11520266 0.21993236 1.723
0.12118721 0.21993235 1.723
0.19000958 0.21993235 1.723
0.20197868 0.21694006 1.723
0.21694006 0.21993235 1.723
0.24536669 0.21993235 1.723
0.25284737 0.21993235 1.723
0.27977788 0.21993235 1.723
0.28426629 0.21993235 1.723
0.29773155 0.21245165 1.723
0.31568521 0.21893494 1.723
0.32466203 0.21993236 1.723
0.33513498 0.21993235 1.723
0.3471041 0.21993235 1.723
0.35308865 0.21993235 1.723
0.36505777 0.21993235 1.723
0.37403458 0.21993235 1.723
0.3845076 0.21544394 1.7229999
0.39348444 0.21266539 1.7229999
0.085279889 0.22591689 1.723
0.094256721 0.22292463 1.723
0.10024127 0.22292462 1.723
0.13914087 0.22292462 1.723
0.14662156 0.22292462 1.723
0.15410225 0.22292463 1.723
0.16457522 0.22292462 1.723
0.22741303 0.22292462 1.723
0.23190145 0.22292462 1.723
0.27678561 0.22292462 1.723
-0.8842178 0.237886 1.723
-0.94107103 0.24686283 1.723
-0.93608397 0.24287313 1.723
-0.92411488 0.24486798 1.723
-0.89618689 0.24387056 1.723
-0.8842178 0.24087828 1.723
-0.87623835 0.24486798 1.723
-0.86925638 0.24985512 1.723
-0.83634138 0.24387056 1.723
-0.82137996 0.24387056 1.723
-0.81240314 0.24237442 1.723
-0.80941087 0.24387056 1.723
-0.79295337 0.24387056 1.723
-0.78547263 0.24387056 1.723
-0.77200741 0.24686283 1.723
-0.94107103 0.25284737 1.723
-0.68580276 0.18498626 1.7320001
0.88883644 0.18498626 1.7320001
0.89184433 0.18498626 1.7320001
0.90387601 0.18197836 1.7320001
0.91741157 0.18799417 1.7320001
0.92493135 0.18799417 1.7320001
0.93771493 0.1872422 1.7320001
0.94297874 0.18649021 1.7320001
0.48878485 0.19701789 1.7320001
0.49480069 0.19701789 1.7320001
0.50532836 0.19701789 1.7320001
0.52487969 0.19701789 1.7320001
0.53089553 0.19701789 1.7320001
0.54593503 0.19701789 1.7320001
0.55796671 0.19701789 1.7320001
0.56473452 0.19626591 1.7320001
0.57451022 0.19701789 1.7320001
0.58503789 0.19701789 1.7320001
0.59406161 0.19551393 1.7320001
0.60458922 0.19551393 1.7320001
0.61511695 0.19701789 1.7320001
0.62414068 0.19701789 1.7320001
0.63466835 0.19701789 1.7320001
0.64519602 0.19701789 1.7320001
0.65421975 0.19400999 1.7320001
0.67828298 0.19400999 1.7320001
0.68279481 0.19701789 1.7320001
0.69933832 0.19701789 1.7320001
0.70385015 0.19701789 1.7320001
0.71437788 0.19601527 1.7320001
0.72340155 0.1910021 1.7320001
0.88282061 0.19100209 1.7320001
0.38952392 0.20904952 1.7320001
0.39614135 0.20664321 1.7320002
0.40456343 0.20528963 1.7320001
0.41458982 0.20203106 1.7320001
0.42261091 0.2000258 1.7320001
0.45268998 0.2030337 1.7320001
0.46472159 0.2030337 1.7320001
0.47374532 0.2000258 1.7320001
0.6873067 0.2000258 1.7320001
0.69181854 0.2000258 1.7320001
0.10678069 0.21807323 1.7320001
0.12182023 0.21807323 1.7320001
0.20904952 0.21506533 1.7320001
0.21506533 0.21807323 1.7320001
0.24664834 0.21807323 1.7320001
0.28575116 0.21807323 1.7320001
0.29327092 0.21506533 1.7320001
0.30530256 0.21506533 1.7320001
0.31733418 0.21807323 1.7320001
0.32034206 0.21807323 1.7320001
0.3353816 0.21807323 1.7320001
0.3413974 0.21807323 1.7320001
0.35342905 0.21807323 1.7320001
0.37749231 0.21807323 1.7320001
0.38410968 0.21386217 1.7320002
0.085725352 0.2250917 1.7320001
0.094749063 0.22108117 1.7320001
0.10076488 0.22108115 1.7320001
0.13385186 0.22408907 1.7320001
0.18498628 0.22108117 1.7320001
0.22408907 0.22108117 1.7320001
0.23461673 0.22108115 1.7320001
0.25717604 0.22108115 1.7320001
0.26319182 0.22108117 1.7320001
0.27672744 0.22108115 1.7320001
0.34440532 0.22108115 1.7320001
0.35944486 0.22108115 1.7320001
-0.94448268 0.24213649 1.7320001
-0.92432976 0.24454282 1.7320002
-0.91590762 0.2481523 1.7320001
-0.9068839 0.24714968 1.7320001
-0.89786017 0.24213649 1.7320001
-0.87530088 0.2481523 1.7320001
-0.83469415 0.24514441 1.7320001
-0.82717437 0.24364045 1.7320001
-0.78355974 0.24514441 1.7320001
-0.77453601 0.24614704 1.7320001
-0.76701623 0.2481523 1.7320001
-0.69289386 0.18796322 1.7410001
-0.68483108 0.18897104 1.7410001
-0.67878401 0.18745928 1.7410001
0.72716057 0.18897104 1.7410001
0.88740802 0.18897104 1.7410001
0.89043158 0.18897104 1.7410001
0.92520225 0.18670338 1.7410001
0.9357847 0.18796322 1.7410001
0.94183171 0.18594751 1.7410001
0.95090228 0.18292397 1.7410001
-0.69289386 0.19300243 1.7410001
-0.68396723 0.19501813 1.7410002
-0.67878407 0.19501814 1.7410001
0.54877192 0.19804166 1.7410001
0.5563308 0.19804166 1.7410001
0.56475353 0.19329038 1.7410002
0.57598376 0.19501814 1.7410001
0.58505434 0.19703382 1.7410001
0.59412497 0.19501814 1.7410001
0.60773087 0.19501813 1.7410001
0.61528969 0.19501813 1.7410001
0.64250153 0.19804166 1.7410001
0.67576045 0.19199458 1.7410001
0.68634284 0.19501813 1.7410001
0.69541341 0.1965299 1.7410001
0.7067517 0.19426224 1.7410001
0.71431053 0.195774 1.7410001
0.88438451 0.19199458 1.7410001
0.93578464 0.19199458 1.7410001
0.38852447 0.20711227 1.7410001
0.39457154 0.2056005 1.7410001
0.40666568 0.20408873 1.7410001
0.41724807 0.2010652 1.7410001
0.4489952 0.20408873 1.7410001
0.45201874 0.20408873 1.7410001
0.47318351 0.2010652 1.7410001
0.10431202 0.21920641 1.7410001
0.1148944 0.21920641 1.7410001
0.21618287 0.21769464 1.7410001
0.22525349 0.21920641 1.7410001
0.2343241 0.21920641 1.7410001
0.24188294 0.21920641 1.7410001
0.25246531 0.21920641 1.7410001
0.27967715 0.21920641 1.7410001
0.28270069 0.21920641 1.7410001
0.29580268 0.21517503 1.7410001
0.31444782 0.21618287 1.7410001
0.32654196 0.21920641 1.7410001
0.33258903 0.21920641 1.7410001
0.3446832 0.21845052 1.7410001
0.35224202 0.21920641 1.7410001
0.36433619 0.21920642 1.7410001
0.37491855 0.21845052 1.7410001
0.38550097 0.21114366 1.7410001
0.12547678 0.22222996 1.7410001
0.14966507 0.22222996 1.7410001
0.15571216 0.22222996 1.7410001
0.16478275 0.22222996 1.7410001
0.17536512 0.22222996 1.7410001
0.27211833 0.22222996 1.7410001
-0.9236905 0.24566236 1.7410001
-0.91461992 0.24641827 1.7410001
-0.90706104 0.2433947 1.7410001
-0.8828727 0.24641825 1.7410001
-0.87531394 0.24641827 1.7410001
-0.8511256 0.2433947 1.7410001
-0.84507859 0.2433947 1.7410001
-0.83449614 0.2433947 1.7410001
-0.82844907 0.24037117 1.7410001
-0.78359997 0.24238686 1.7410001
-0.77553719 0.24541041 1.7410001
-0.76949012 0.24490649 1.7410001
0.95615137 0.1787056 1.7590001
0.96073359 0.1787056 1.7590001
0.56376541 0.18842834 1.7500001
0.57277441 0.18787 1.7590001
0.60327458 0.18994792 1.7500001
0.70688808 0.18890896 1.7545002
0.71491945 0.18925528 1.7530001
0.72788042 0.18994792 1.7500001
0.88743669 0.18994792 1.7500001
0.89351934 0.18722916 1.7530001
0.9041521 0.18386959 1.7500001
0.91023046 0.18386959 1.7500001
0.92238712 0.18690875 1.7500001
0.9361459 0.18621092 1.7530001
0.94547534 0.18413977 1.7525716
0.95436043 0.18223208 1.7518002
0.9618963 0.18386959 1.7500001
-0.70413065 0.19703439 1.7590001
-0.69242352 0.19602625 1.7500002
-0.68274707 0.19397959 1.7590001
-0.67939997 0.19737536 1.7530001
0.43460083 0.19906542 1.7500001
0.44219875 0.19906542 1.7500001
0.48474711 0.19906542 1.7500002
0.49082544 0.19906542 1.7500001
0.51817793 0.19906542 1.7500001
0.55454677 0.19653031 1.7545002
0.56666481 0.19397959 1.7590001
0.57484192 0.19161223 1.7560003
0.5850212 0.19459976 1.7536001
0.59415364 0.19348334 1.7545
0.60449982 0.19257462 1.7518002
0.61543131 0.19400015 1.7500002
0.62454879 0.19602625 1.7500001
0.63234293 0.19703439 1.7590001
0.64886212 0.19906542 1.7500001
0.65797961 0.19602625 1.7500001
0.67469501 0.19298708 1.7500001
0.6838125 0.19298708 1.7500001
0.69536752 0.19297163 1.7554001
0.70467699 0.19210324 1.7538573
0.71490902 0.19229965 1.7530001
0.72463721 0.19174972 1.7554001
0.88591713 0.19298708 1.7500001
-0.70107585 0.20467138 1.7590001
-0.69365728 0.20442168 1.7512859
-0.68486214 0.20561327 1.7516365
-0.67960459 0.20415802 1.7572001
0.38606828 0.20618109 1.755625
0.39501876 0.20283349 1.7525716
0.40524468 0.20109689 1.7545002
0.41368565 0.20089534 1.7554001
0.4251259 0.20008919 1.7590002
0.44790241 0.20109689 1.7545002
0.45669216 0.203144 1.7590002
0.46678019 0.20288414 1.7567501
0.475229 0.20076099 1.756
0.48113048 0.20008919 1.7590001
0.13746585 0.21841797 1.7590001
0.14204805 0.21841797 1.7590001
0.20818292 0.21730043 1.7500001
0.21730043 0.21730043 1.7500001
0.22414985 0.21804546 1.756
0.23521934 0.21841797 1.7590001
0.2460157 0.21674903 1.7554001
0.25394568 0.21674906 1.7554001
0.26271251 0.21841797 1.7590001
0.28562349 0.21841797 1.7590002
0.29024044 0.21730043 1.7500001
0.31922626 0.21536317 1.7590001
0.32423136 0.21767294 1.7530001
0.33617717 0.21684355 1.7545002
0.34530336 0.21569732 1.7518002
0.35527951 0.21651807 1.756
0.36504823 0.21841797 1.7590002
0.375094 0.21702719 1.756
0.38158599 0.21287541 1.7536001
0.083577089 0.22641793 1.7500001
0.097753495 0.22147277 1.7590001
0.10233569 0.22147277 1.7590001
0.11092959 0.2203396 1.7500001
0.12629148 0.22138268 1.7522502
0.13535625 0.22204804 1.7515001
0.14457479 0.22283643 1.7525716
0.15347794 0.2203396 1.7500002
0.16495903 0.22147277 1.7590001
0.17534605 0.22109506 1.756
0.18538916 0.2203396 1.7500001
0.19298708 0.2203396 1.7500001
0.22641793 0.2203396 1.7500001
0.23553543 0.2203396 1.7500001
0.25832915 0.2203396 1.7500001
0.2650913 0.22090618 1.7545002
0.27598238 0.22109506 1.7560003
0.36014125 0.2203396 1.7500001
-0.85381573 0.23980156 1.7590002
-0.84032959 0.23857459 1.7500001
-0.83710641 0.23939256 1.7560003
-0.82877511 0.23918808 1.7545002
-0.78703737 0.23760431 1.7518002
-0.92390668 0.24465293 1.7500001
-0.91782832 0.24465293 1.7500001
-0.89047325 0.24285634 1.7590001
-0.88514036 0.24375466 1.7545002
-0.87615949 0.2451531 1.7536001
-0.8543908 0.24244216 1.756
-0.84521294 0.24268419 1.7522501
-0.83729047 0.24161376 1.7500001
-0.8251338 0.24161378 1.7500002
-0.81905544 0.24161376 1.7500001
-0.80356616 0.24549173 1.7560003
-0.79407328 0.24405406 1.7530001
-0.78410506 0.24161376 1.7500001
-0.7780267 0.24465293 1.7500001
0.95643795 0.17961997 1.7680001
0.57877547 0.18883124 1.7680001
0.70466292 0.18883124 1.7680001
0.71387422 0.18883125 1.7680001
0.72308552 0.18883124 1.7680001
0.90731108 0.18576083 1.7680001
0.9380154 0.18576083 1.7680001
0.95336753 0.1826904 1.7680001
-0.71080381 0.19804253 1.7680001
-0.70773339 0.1949721 1.7680001
-0.68316996 0.1949721 1.7680001
0.40529633 0.19804253 1.7680001
0.41450763 0.19804253 1.7680001
0.49587393 0.19804253 1.7680001
0.56342334 0.19599557 1.7680001
0.62636709 0.1949721 1.7680001
0.64427793 0.19804254 1.7680001
0.6524657 0.19804253 1.7680001
0.66167694 0.19804253 1.7680001
0.67549384 0.1949721 1.7680001
0.69852209 0.19190167 1.7680001
-0.7115714 0.20495099 1.7680001
-0.70773339 0.20418338 1.7680001
-0.68009961 0.20418338 1.7680001
-0.63711357 0.20418338 1.7680001
0.38380334 0.20571859 1.7680001
0.39762026 0.20111296 1.7680001
0.42525411 0.20111296 1.7680001
0.45595837 0.20111296 1.7680001
0.47438094 0.20111296 1.7680001
-0.71387422 0.21185943 1.7680001
-0.70773339 0.21032423 1.7680001
-0.68009955 0.21032423 1.7680001
0.10746494 0.21953551 1.7680001
0.11667622 0.21953551 1.7680001
0.12435229 0.21953551 1.7680001
0.13356356 0.21953551 1.7680001
0.14891569 0.21953551 1.7680001
0.15352133 0.21953551 1.7680001
0.18883124 0.21953551 1.7680001
0.19343689 0.21953551 1.7680001
0.21953551 0.21646509 1.7680001
0.22567636 0.21646509 1.7680001
0.23335242 0.21646509 1.7680001
0.24409895 0.21544161 1.7680001
0.2543337 0.21441814 1.7680001
0.26559192 0.21800029 1.7680001
0.27787364 0.21953551 1.7680001
0.28401446 0.21800029 1.7680001
0.29783142 0.21646509 1.7680001
0.31778917 0.21646509 1.7680001
0.32546523 0.21646509 1.7680001
0.33314133 0.21646509 1.7680001
0.34849343 0.21339466 1.7680001
0.366916 0.21646509 1.7680001
0.37689489 0.21339466 1.7680001
0.38226813 0.21032423 1.7680001
-0.7430433 0.22260594 1.7680001
-0.73843765 0.22260594 1.7680001
0.27173278 0.22260594 1.7680001
-0.89809984 0.23795807 1.7680001
-0.88888854 0.23795807 1.7680001
-0.86227816 0.23591113 1.7680001
-0.85716081 0.2369346 1.7680001
-0.90117025 0.24256372 1.7680001
-0.89605296 0.24205199 1.7680001
-0.88581818 0.24205199 1.7680001
-0.8796773 0.24409893 1.7680001
-0.85204345 0.2410285 1.7680001
-0.83055043 0.2410285 1.7680001
-0.82748002 0.2410285 1.7680001
-0.81519836 0.24614589 1.7680001
-0.80521941 0.24333133 1.7680001
-0.79984617 0.2410285 1.7680001
-0.78756446 0.24409893 1.7680001
-0.71442217 0.18979248 1.7770001
-0.68973368 0.18979248 1.7770001
0.72985244 0.18979248 1.7770001
0.73602456 0.18979248 1.7770002
0.90678638 0.18567775 1.7770002
0.91347277 0.18516341 1.7770001
0.92427397 0.18362038 1.7770001
0.93661821 0.18670644 1.7770001
0.94587642 0.18670644 1.7770001
-0.71442217 0.1951931 1.7770001
-0.68510461 0.1959646 1.7770001
-0.67430341 0.19827914 1.7770001
-0.66504526 0.19905066 1.7770002
-0.65578711 0.19905066 1.7770002
-0.64529449 0.19843344 1.7770001
0.39964435 0.19905066 1.7770001
0.42278975 0.19905066 1.7770001
0.4397631 0.19905066 1.7770001
0.44747823 0.19905066 1.7770001
0.45673639 0.19905066 1.7770001
0.46136549 0.19905066 1.7770001
0.47679576 0.19905066 1.7770001
0.48605394 0.19905066 1.7770002
0.49531209 0.19905066 1.7770001
0.50457031 0.19905066 1.7770001
0.51074237 0.19905066 1.7770001
0.54314601 0.19905066 1.7770001
0.55549026 0.19905066 1.7770001
0.56320536 0.1959646 1.7770001
0.59097987 0.19287854 1.7770001
0.60332406 0.19287854 1.7770001
0.6357277 0.1959646 1.7770001
0.64447153 0.19699329 1.7770002
0.65887314 0.19905066 1.7770001
0.66504526 0.19699329 1.7770002
0.67276037 0.1959646 1.7770001
-0.72059423 0.2067658 1.7770001
-0.7175082 0.20367974 1.7770001
-0.68047559 0.20522277 1.7770002
-0.67430347 0.20522277 1.7770002
-0.66504526 0.20522277 1.7770002
-0.65617281 0.20483701 1.7770002
-0.64540672 0.20522282 1.7770003
-0.63418466 0.20367973 1.7770002
-0.62801254 0.20213671 1.7770001
0.25151363 0.20830883 1.7770001
0.37804195 0.20830883 1.7770001
0.38267106 0.2067658 1.7770001
0.39501524 0.20213671 1.7770001
0.4659946 0.20213671 1.7770001
0.4737097 0.20213671 1.7770001
0.52925873 0.20213671 1.7770001
0.53234482 0.20213671 1.7770001
-0.7468257 0.217567 1.7770001
-0.73293847 0.21602398 1.7770001
-0.72638059 0.2133237 1.7770002
-0.68047553 0.21139489 1.7770001
-0.67430341 0.21139489 1.7770002
-0.66504526 0.21139489 1.7770002
-0.6573301 0.21139489 1.7770001
0.10646896 0.217567 1.7770001
0.13732952 0.217567 1.7770001
0.14350164 0.21633258 1.7770001
0.15430284 0.217567 1.7770001
0.19596462 0.21756701 1.7770002
0.217567 0.217567 1.7770001
0.2391694 0.217567 1.7770001
0.24534151 0.21448095 1.7770001
0.25459969 0.21293792 1.7770001
0.2669439 0.217567 1.7770001
0.28391725 0.217567 1.7770001
0.29163235 0.217567 1.7770001
0.33792323 0.21448095 1.7770001
0.3425523 0.21448095 1.7770001
0.36878377 0.21448095 1.7770001
0.37495589 0.21345226 1.7770002
-0.75299788 0.22373912 1.7770001
-0.74528277 0.22065306 1.7770002
0.086409591 0.22682518 1.7770001
0.094124734 0.22373912 1.7770002
0.10183987 0.22065306 1.7770001
0.11264107 0.22065306 1.7770001
0.13115741 0.22065306 1.7770001
0.15893193 0.22065306 1.7770001
0.16510405 0.22065306 1.7770002
0.17436221 0.22065306 1.7770002
0.18362038 0.22065306 1.7770002
0.2067658 0.22065306 1.7770001
0.27465904 0.22065306 1.7770001
-0.85483772 0.2391694 1.7770001
-0.80494642 0.23814073 1.7770002
-0.93044609 0.24534151 1.7770001
-0.92736006 0.24534151 1.7770001
-0.82860625 0.24225545 1.7770001
-0.81471896 0.24302697 1.7770001
-0.78848749 0.24534151 1.7770001
0.71493876 0.18765205 1.7860001
0.72424388 0.18765205 1.7860001
0.73613369 0.18661815 1.7860001
0.742854 0.18765205 1.7860001
0.91448063 0.18248257 1.7860001
0.92585349 0.18455036 1.7860001
0.95687032 0.18455036 1.7860001
0.96307373 0.18144867 1.7860001
0.97858214 0.18455036 1.7860001
0.98168385 0.18455036 1.7860001
-0.72114217 0.19695711 1.7860001
-0.68392199 0.19695711 1.7860001
-0.67306602 0.19695711 1.7860001
-0.66531181 0.19695711 1.7860001
-0.65538639 0.19571643 1.7860001
-0.64670175 0.19437239 1.7860001
0.40477014 0.19695711 1.7860001
0.41562605 0.19695711 1.7860001
0.42338026 0.19695711 1.7860001
0.4606005 0.19695711 1.7860001
0.57226121 0.19230458 1.7860001
0.58776963 0.19385542 1.7860001
0.59087133 0.19385542 1.7860001
0.60327804 0.19385542 1.7860001
0.63119328 0.19385542 1.7860001
0.64608139 0.19447576 1.7860001
0.65600675 0.19540626 1.7860001
0.66469145 0.19509609 1.7860001
0.67461693 0.19385543 1.7860001
0.68082023 0.19385542 1.7860001
0.70718455 0.19075374 1.7860001
-0.73199809 0.20936386 1.7860001
-0.72579467 0.20471133 1.7860001
-0.65600675 0.20936386 1.7860001
-0.64049834 0.2000588 1.7860001
-0.63584578 0.2000588 1.7860001
-0.61413395 0.20160964 1.7860001
-0.60741365 0.20419437 1.7860001
-0.59707469 0.20316048 1.7860001
0.25588915 0.20936386 1.7860001
0.37561426 0.20812319 1.7860001
0.38616002 0.20471132 1.7860001
0.39236337 0.20316048 1.7860001
0.42958361 0.2000588 1.7860001
0.43578696 0.2000588 1.7860001
0.44509205 0.2000588 1.7860001
0.45439711 0.2000588 1.7860001
0.4683547 0.2000588 1.7860001
0.47455806 0.20160964 1.7860001
0.48231229 0.2000588 1.7860001
0.51539695 0.2000588 1.7860001
0.52573597 0.2000588 1.7860001
0.53504097 0.2000588 1.7860001
0.54124433 0.2000588 1.7860001
0.55210024 0.2000588 1.7860001
-0.76611662 0.21866892 1.7860001
-0.7546404 0.21618758 1.7860001
-0.74595565 0.21608418 1.7860001
-0.73897684 0.2147918 1.7860001
-0.65600675 0.21246554 1.7860001
0.097703137 0.21866892 1.7860001
0.10390651 0.21763504 1.7860001
0.11476241 0.21866892 1.7860001
0.12499797 0.21742825 1.7860001
0.13337253 0.21866892 1.7860001
0.15973687 0.21866892 1.7860001
0.1643894 0.21866892 1.7860001
0.17524529 0.21866892 1.7860001
0.18455037 0.21866892 1.7860001
0.19075374 0.21866892 1.7860001
0.20626217 0.21866892 1.7860001
0.21634266 0.21634266 1.7860001
0.22332144 0.21556723 1.7860001
0.23417735 0.21556723 1.7860001
0.24968578 0.21246554 1.7860001
0.25588915 0.21246554 1.7860001
0.26364338 0.21556723 1.7860001
0.2744993 0.21866892 1.7860001
0.28380436 0.21660113 1.7860001
0.29233399 0.2147918 1.7860001
0.33343133 0.21556723 1.7860001
0.34893975 0.21556723 1.7860001
0.36522362 0.2147918 1.7860001
0.37375325 0.21246555 1.7860001
-0.77076918 0.22797398 1.7860001
-0.76508278 0.22487229 1.7860001
-0.75681156 0.2217706 1.7860001
0.085296385 0.22487229 1.7860001
0.092533648 0.22280452 1.7860001
0.14733012 0.2217706 1.7860001
-0.86226892 0.23727904 1.7860001
-0.76766747 0.23107566 1.7860001
-0.85141301 0.24038072 1.7860001
-0.84831131 0.24038072 1.7860001
-0.82571334 0.24348241 1.7860003
-0.81574363 0.24038072 1.7860001
0.7185415 0.18859766 1.7950001
0.9242844 0.18548034 1.7950001
0.96169221 0.18548034 1.7950001
-0.72633481 0.19639096 1.7950001
-0.69048566 0.1948323 1.7950001
-0.68425101 0.1948323 1.7950001
-0.6748991 0.1948323 1.7950001
-0.66554713 0.1948323 1.7950001
-0.64216727 0.19794962 1.7950001
-0.63749129 0.19794962 1.7950001
-0.61878735 0.19794962 1.7950001
-0.60320079 0.1948323 1.7950001
-0.59696615 0.1948323 1.7950001
-0.58387345 0.19483231 1.7950001
-0.57826227 0.19171499 1.7950001
0.40680984 0.19794962 1.7950001
0.41304448 0.19794962 1.7950001
0.42551374 0.19794962 1.7950001
0.45824558 0.19794962 1.7950001
0.46603888 0.1969105 1.7950001
0.47539079 0.19794962 1.7950001
0.48162544 0.19794962 1.7950001
0.49721202 0.19794962 1.7950001
0.5050053 0.19794962 1.7950001
0.51591593 0.19794962 1.7950001
0.53461981 0.19794962 1.7950001
0.5470891 0.19794962 1.7950001
0.55799973 0.19794962 1.7950001
0.56579298 0.19639096 1.7950001
0.57202762 0.1948323 1.7950001
0.60320079 0.19327363 1.7950001
0.62813932 0.1948323 1.7950001
0.63749129 0.1948323 1.7950001
0.64580411 0.19275409 1.7950001
0.6546365 0.19171499 1.7950001
0.66554713 0.19171499 1.7950001
0.6748991 0.19171499 1.7950001
0.68425101 0.19275409 1.7950001
0.69827896 0.1948323 1.7950001
0.70451361 0.1948323 1.7950001
-0.74036276 0.20418426 1.7950001
-0.73451781 0.2037946 1.7950001
-0.63250357 0.20418425 1.7950001
-0.62502199 0.20418426 1.7950001
-0.61489075 0.2057429 1.7950001
-0.60423988 0.2038379 1.7950001
-0.59423852 0.20418426 1.7950001
-0.58345783 0.20210604 1.7950001
-0.51591593 0.20418425 1.7950001
0.36940202 0.20730156 1.7950001
0.3750132 0.20543118 1.7950001
0.38498861 0.20340492 1.7950001
0.3943406 0.20106694 1.7950001
0.40057519 0.20106693 1.7950001
0.47539079 0.20106693 1.7950001
0.54397178 0.20418425 1.7950001
-0.77309453 0.21821217 1.7950001
-0.76530135 0.21457532 1.7950001
-0.75672865 0.21119821 1.7950001
-0.74607778 0.21145801 1.7950001
0.087284863 0.21977083 1.7950001
0.095078163 0.21873173 1.7950001
0.10443011 0.21509485 1.7950001
0.11378206 0.21665351 1.7950001
0.12438095 0.21415968 1.7950001
0.13248596 0.21665351 1.7950001
0.14807254 0.21821217 1.7950001
0.15430719 0.21665351 1.7950001
0.16521779 0.21821217 1.7950001
0.1948323 0.21665351 1.7950001
0.20340492 0.21587418 1.7950001
0.21431553 0.2158742 1.7950001
0.22912279 0.21665351 1.7950001
0.24315071 0.21665351 1.7950001
0.26341328 0.2135362 1.7950001
0.27588254 0.21665351 1.7950001
0.28523448 0.21301666 1.7950001
0.29536575 0.21431553 1.7950001
0.30237973 0.21665351 1.7950001
0.32731825 0.21665351 1.7950001
0.33511156 0.2135362 1.7950001
0.34384003 0.21228929 1.7950001
0.3553741 0.21509486 1.7950001
0.36472607 0.2124971 1.7950001
-0.77361411 0.22496638 1.7950001
-0.76530129 0.22288814 1.7950001
0.079491578 0.22912279 1.7950001
0.084687106 0.22392726 1.7950001
-0.94298834 0.23847473 1.7950001
-0.93987101 0.23847473 1.7950001
-0.86193806 0.23847473 1.7950001
-0.82297164 0.23847473 1.7950001
-0.81673694 0.2353574 1.7950001
-0.7746532 0.23327921 1.7950001
-0.76841861 0.2322401 1.7950001
-0.94610566 0.24509904 1.7950001
-0.93883193 0.24367027 1.7950001
-0.83388221 0.24159205 1.7950001
-0.79803312 0.24470937 1.7950001
-0.77777052 0.24159205 1.7950001
-0.67515004 -0.20834096 1.8040001
-0.58304137 0.18766351 1.8040001
-0.57802868 0.18641035 1.8040003
0.66888416 0.18954328 1.8040001
0.67515004 0.18954328 1.8040001
0.68454885 0.18954328 1.8040001
0.75034076 0.18641034 1.8040001
0.92891872 0.18327738 1.8040001
0.93518466 0.1832774 1.8040003
0.95398229 0.18745467 1.8040003
0.96442544 0.1843217 1.8040003
-0.74407494 0.19894212 1.8040003
-0.73467606 0.19789782 1.8040003
-0.72841012 0.19267623 1.8040001
-0.68454885 0.19580917 1.8040001
-0.67515004 0.19580917 1.8040001
-0.65426373 0.19267623 1.8040003
-0.64382052 0.19580917 1.8040003
-0.63442171 0.19894212 1.8040003
-0.62658936 0.19894212 1.8040001
-0.61562407 0.19894212 1.8040003
-0.60622519 0.19894212 1.8040003
-0.59525985 0.19580917 1.8040001
-0.58586103 0.19580919 1.8040001
-0.57646221 0.19267623 1.8040001
-0.53103447 0.19894212 1.8040001
0.36812124 0.19580919 1.8040003
0.37360391 0.19815889 1.8040001
0.38691893 0.19894212 1.8040001
0.43547958 0.19894212 1.8040001
0.44957787 0.19894212 1.8040001
0.45584378 0.19789782 1.8040003
0.46524259 0.19580917 1.8040001
0.47464144 0.1968535 1.8040003
0.48717323 0.19894212 1.8040001
0.49343914 0.19894212 1.8040003
0.51536971 0.19894212 1.8040001
0.52476859 0.19894212 1.8040003
0.5333842 0.19659242 1.8040001
0.54356629 0.19789782 1.8040003
0.56706333 0.19580917 1.8040001
0.57489574 0.19267623 1.8040001
0.58429456 0.19267623 1.8040001
0.59682643 0.19267623 1.8040003
0.60622519 0.19267623 1.8040001
0.62658936 0.19580917 1.8040001
0.63442171 0.19580917 1.8040001
0.66261822 0.19267623 1.8040001
0.69473094 0.1942427 1.8040001
0.70491302 0.19267623 1.8040001
-0.77227139 0.20834096 1.8040001
-0.76600552 0.20834097 1.8040003
-0.75441355 0.20583463 1.8040001
-0.74720782 0.205208 1.8040003
-0.59160483 0.2041637 1.8040003
-0.53312314 0.20311938 1.8040003
-0.5255518 0.20442477 1.8040001
-0.51850271 0.20207506 1.8040001
0.264734 0.20520802 1.8040001
0.36707693 0.20729665 1.8040003
0.37360391 0.2028583 1.8040001
0.38221949 0.20207506 1.8040001
0.39005187 0.20207506 1.8040001
-0.78167021 0.21617332 1.8040001
-0.77728415 0.21398027 1.8040001
-0.76913846 0.21147391 1.8040001
0.088244669 0.21669549 1.8040003
0.094928287 0.21586004 1.8040001
0.10182077 0.21460685 1.8040001
0.11591902 0.21460685 1.8040001
0.12061845 0.21460685 1.8040001
0.16604617 0.21773981 1.8040001
0.17387855 0.21773981 1.8040003
0.18484387 0.21773981 1.8040001
0.20677449 0.21460685 1.8040001
0.21304038 0.21460685 1.8040001
0.26630047 0.21304038 1.8040001
0.27491608 0.21382362 1.8040001
0.28144306 0.21251822 1.8040003
0.33679181 0.21147391 1.8040003
0.34932357 0.21147391 1.8040001
0.35558945 0.2127271 1.8040001
0.36185536 0.21304038 1.8040001
-0.78435558 0.22311059 1.8040001
0.079106897 0.2240057 1.8040001
0.083023086 0.22087274 1.8040001
-0.95398229 0.23967044 1.8040003
-0.94458342 0.23758182 1.8040003
-0.93831754 0.23967043 1.8040001
-0.8341471 0.23888719 1.8040001
-0.82657576 0.23549318 1.8040003
-0.79106903 0.23967043 1.8040001
-0.78480321 0.2355976 1.8040001
-0.77853727 0.23653749 1.8040001
-0.95084935 0.24280338 1.8040001
-0.94145048 0.24280338 1.8040001
-0.93518466 0.2475028 1.8040001
-0.92735225 0.24593632 1.8040001
-0.90072221 0.24280338 1.8040001
-0.8960228 0.24280338 1.8040001
-0.86312681 0.24280338 1.8040001
-0.80360091 0.24280338 1.8040003
-0.79420203 0.24436985 1.8040001
-0.78636962 0.24436985 1.8040001
-0.6662913 -0.21264616 1.8140001
-0.67889255 -0.20477037 1.8140001
-0.6662913 -0.20949584 1.8140001
-0.59225893 0.18744364 1.8140001
-0.58753347 0.18744364 1.8140001
0.67259192 0.18744364 1.8140001
0.92776728 0.18114302 1.8140001
0.95612013 0.18639354 1.8140001
0.96399593 0.18429333 1.8140001
0.97502196 0.18271817 1.8140001
0.98132265 0.18114302 1.8140001
0.99707419 0.18429333 1.8140001
-0.75292492 0.19689459 1.8140001
-0.74504912 0.19610702 1.8140001
-0.73769844 0.19479439 1.8140001
-0.69464409 0.19374427 1.8140001
-0.68204284 0.19374427 1.8140001
-0.6662913 0.19374427 1.8140001
-0.6505397 0.19374427 1.8140001
-0.64345151 0.19453186 1.8140001
-0.63478822 0.19531946 1.8140001
-0.62533724 0.19689459 1.8140001
-0.61509871 0.19610702 1.8140001
-0.60517526 0.19311421 1.8140001
-0.59540927 0.19059396 1.8140001
-0.58280802 0.19689459 1.8140001
-0.5744822 0.19419433 1.8140002
-0.54132885 0.1958445 1.8140001
-0.5339781 0.19689459 1.8140001
0.36701152 0.19531943 1.8140001
0.37803763 0.19689459 1.8140001
0.38906372 0.19689459 1.8140001
0.41426623 0.19689459 1.8140001
0.42529231 0.19689459 1.8140001
0.43474326 0.19689459 1.8140001
0.45522028 0.19689459 1.8140001
0.47727248 0.19374427 1.8140001
0.48199797 0.19689459 1.8140001
0.50562525 0.19689459 1.8140001
0.51507628 0.19689459 1.8140001
0.52452719 0.19689459 1.8140001
0.5339781 0.19531943 1.8140001
0.54500425 0.19531944 1.8140001
0.55603039 0.19689459 1.8140001
0.56390607 0.19689459 1.8140001
0.57493222 0.19374427 1.8140001
0.60643536 0.19374427 1.8140001
0.61588627 0.19374427 1.8140001
0.62533724 0.19374427 1.8140001
0.64423913 0.19374427 1.8140001
0.6505397 0.19374427 1.8140001
0.66629124 0.19059396 1.8140001
0.67574221 0.19059396 1.8140001
0.68361801 0.19059396 1.8140001
0.69464415 0.19164407 1.8140001
0.70409507 0.19059396 1.8140001
0.71827149 0.19059396 1.8140001
-0.79335392 0.20582049 1.8140001
-0.78670323 0.20599549 1.814
-0.77497709 0.20555794 1.8140001
-0.763951 0.20319521 1.8140001
-0.75607526 0.2000449 1.8140001
-0.58280802 0.20162006 1.8140001
-0.57493222 0.20162006 1.8140001
-0.54432917 0.20274517 1.8140002
-0.53555328 0.20240763 1.8140001
-0.52515727 0.20130503 1.8140001
-0.51822656 0.20319521 1.8140001
0.34495932 0.20949584 1.8140001
0.35125995 0.20949584 1.8140001
0.36622393 0.20477037 1.8140001
0.37016183 0.20319521 1.8140001
0.38433826 0.2000449 1.8140001
0.39536434 0.20004492 1.8140001
0.40324014 0.2000449 1.8140001
0.44576937 0.20004492 1.8140001
0.5576055 0.2000449 1.8140001
-0.79506034 0.21540268 1.8140001
-0.78836596 0.21500888 1.8140001
0.048829861 0.21579647 1.8140001
0.085058466 0.21737163 1.8140001
0.11183613 0.21579647 1.8140001
0.15751567 0.21579647 1.8140001
0.16539147 0.21579647 1.8140001
0.17641756 0.21579647 1.8140001
0.19689459 0.21579647 1.8140001
0.2000449 0.21579647 1.8140001
0.22682257 0.21579647 1.8140001
0.2472996 0.21579647 1.8140001
0.25044993 0.21579647 1.8140001
0.30558038 0.21579647 1.8140001
0.31030586 0.21894678 1.8140001
0.32815766 0.21579647 1.8140001
0.33235806 0.21422131 1.8140001
-0.83955854 0.22839773 1.8140001
-0.79635423 0.22569746 1.8140002
-0.78915352 0.22839773 1.8140001
0.048829857 0.2220971 1.8140001
0.07718268 0.22524741 1.8140001
0.32290712 0.2220971 1.8140001
-0.95675009 0.23595849 1.8140001
-0.94576913 0.23559844 1.8140002
-0.84270883 0.23469836 1.8140001
-0.83745837 0.2341733 1.8140001
-0.81120569 0.23784867 1.8140001
-0.8041175 0.23706108 1.8140001
-0.79635423 0.23424833 1.8140002
-0.94141865 0.2430992 1.8140001
-0.93469805 0.2428892 1.8140001
-0.92776728 0.2441493 1.8140001
-0.85531008 0.24336171 1.8140001
-0.8479594 0.2420491 1.8140001
-0.81435603 0.24099898 1.8140001
-0.80490512 0.24099898 1.8140001
-0.79860443 0.24099898 1.8140001
-0.67471588 -0.21065073 1.8240001
-0.66362906 -0.21065073 1.8240001
-0.65412593 -0.21065073 1.8240001
-0.68263507 -0.20114769 1.8240001
-0.67946738 -0.20748305 1.8240001
-0.66996431 -0.20589921 1.8240001
-0.60185921 0.18847696 1.8240001
-0.5923562 0.18530929 1.8240001
-0.57493395 0.18689314 1.8240001
0.67629969 0.18847696 1.8240001
0.68580282 0.18847696 1.8240001
0.69530576 0.18847696 1.8240001
0.93921715 0.1821416 1.8240001
0.94238484 0.1821416 1.8240001
0.95505553 0.18847696 1.8240001
0.9645586 0.1831975 1.8240001
0.97406167 0.1821416 1.8240001
0.98039699 0.1821416 1.8240001
0.99940306 0.18530929 1.8240001
-0.77766544 0.19798 1.8240001
-0.76341093 0.19798 1.8240001
-0.7548582 0.19354527 1.8240002
-0.74598867 0.19243658 1.8240001
-0.69213808 0.19481233 1.8240001
-0.68580276 0.19481233 1.8240001
-0.67629975 0.19481234 1.8240001
-0.63353598 0.19322848 1.8240001
-0.62561679 0.19481234 1.8240001
-0.57335007 0.19402039 1.8240001
-0.54325712 0.19375643 1.8240001
-0.5329622 0.19560425 1.8240001
-0.52583492 0.19798 1.8240001
0.36586705 0.19798 1.8240001
0.38645697 0.19798 1.8240001
0.39596 0.19798 1.8240001
0.40387923 0.19798002 1.8240001
0.41338223 0.19798 1.8240001
0.4228853 0.19798 1.8240001
0.44664288 0.19798 1.8240001
0.4545621 0.19798 1.8240001
0.47356817 0.19481234 1.8240001
0.48940659 0.19798 1.8240001
0.49574193 0.19798002 1.8240001
0.50207728 0.19798 1.8240001
0.52741873 0.19481233 1.8240001
0.53375411 0.19481234 1.8240001
0.54959249 0.19481233 1.8240001
0.55592793 0.19481234 1.8240001
0.56543088 0.19481234 1.8240001
0.57335007 0.19481233 1.8240001
0.60661077 0.19164464 1.8240001
0.61452997 0.19164464 1.8240001
0.62403297 0.19481233 1.8240001
0.63511992 0.19481234 1.8240001
0.64145523 0.19481233 1.8240001
0.66468489 0.19164464 1.8240001
0.70322502 0.19164464 1.8240001
0.71431184 0.19164464 1.8240001
-0.79033619 0.20114769 1.8240001
-0.78400087 0.20273152 1.8240001
-0.77449787 0.20114771 1.8240001
-0.76816243 0.20114769 1.8240001
-0.57414204 0.2019396 1.8240001
-0.56606442 0.20241475 1.8240002
-0.55751169 0.20273152 1.8240001
-0.52108335 0.20114769 1.8240001
-0.51791567 0.20431536 1.8240001
0.34686098 0.20748305 1.8240001
0.35478017 0.20642716 1.8240002
0.3642832 0.20431539 1.8240002
-0.8045907 0.21065073 1.8240001
0.044875469 0.21593019 1.8240001
0.052266721 0.21698609 1.8240001
0.16788705 0.21223456 1.8240001
0.17263857 0.21698609 1.8240001
0.18530929 0.2169861 1.8240001
0.19322848 0.21698609 1.8240001
0.23599218 0.2169861 1.8240001
0.24391136 0.21698609 1.8240001
0.25341439 0.2138184 1.8240001
0.30726498 0.2138184 1.8240001
0.31360033 0.21698609 1.8240001
0.3278549 0.21540225 1.8240001
0.33419025 0.21065073 1.8240001
0.34210944 0.21065073 1.8240001
0.35530815 0.21065073 1.8240001
0.36269936 0.21065073 1.8240001
-0.80511868 0.22543323 1.8240001
0.03326064 0.22332145 1.8240001
0.044347521 0.22015376 1.8240001
0.053322613 0.22120968 1.8240001
0.07285665 0.22648913 1.8240002
0.080775842 0.22015376 1.8240001
0.31676799 0.22173761 1.8240001
0.32310337 0.22173761 1.8240001
-0.87744737 0.23915985 1.8240001
-0.82306886 0.23704807 1.8240001
-0.81567764 0.23599218 1.8240002
-0.80828637 0.23388039 1.8240001
-0.92337883 0.24232754 1.8240001
-0.91070801 0.24232753 1.8240001
-0.90595651 0.24232753 1.8240001
-0.86636055 0.24232754 1.8240001
-0.85685748 0.24232753 1.8240001
-0.66053683 -0.21169013 1.8330001
-0.68282002 -0.20373185 1.8330001
-0.67518014 -0.20500517 1.8330001
-0.66411805 -0.20572141 1.8330001
-0.65629244 -0.20744571 1.8330001
-0.67327017 -0.19895689 1.8330001
-0.66690344 -0.19895688 1.8330001
0.97568452 0.17985702 1.8330001
0.9852345 0.17985702 1.8330001
-0.58254576 0.18781529 1.8330001
-0.57458746 0.18940695 1.8330001
-0.54593772 0.18940696 1.8330001
-0.53957105 0.18940695 1.8330001
0.61597049 0.18940695 1.8330001
0.63666201 0.18940695 1.8330001
0.66690344 0.18940695 1.8330001
0.67167842 0.18940695 1.8330001
0.69555324 0.18622364 1.8330001
0.70510316 0.18834585 1.8330001
0.71306145 0.18940695 1.8330001
0.95340145 0.18410145 1.8330001
0.96454298 0.18463199 1.8330001
1.0075177 0.18304034 1.8330001
-0.77513599 0.19895689 1.8330001
-0.76622277 0.19386359 1.8330001
-0.70669484 0.19577357 1.8330001
-0.69873655 0.19577357 1.8330001
-0.67327011 0.19259027 1.8330001
-0.65098691 0.19259027 1.8330001
-0.6446203 0.19259028 1.8330001
-0.63188708 0.19259027 1.8330001
-0.62552047 0.19365136 1.8330001
-0.61278719 0.19259027 1.8330001
-0.57140416 0.19736522 1.8330001
-0.56503755 0.19736522 1.8330001
-0.55612433 0.19768356 1.8330001
-0.54593766 0.19259027 1.8330001
-0.53384113 0.19322693 1.8330001
-0.52365458 0.19789577 1.8330001
0.35653073 0.19736522 1.8330001
0.36448902 0.19789577 1.8330001
0.37722224 0.19577357 1.8330001
0.38518053 0.19577357 1.8330001
0.3963221 0.19577357 1.8330001
0.40268874 0.19577357 1.8330001
0.42815521 0.19577357 1.8330001
0.43452185 0.19577357 1.8330001
0.44407177 0.19577357 1.8330001
0.46953824 0.19577357 1.8330001
0.47908816 0.19259027 1.8330001
0.4854548 0.19471249 1.8330001
0.49500474 0.19577357 1.8330001
0.50455463 0.19577357 1.8330001
0.5141046 0.19577357 1.8330001
0.5244503 0.19497776 1.8330001
0.53479606 0.19259027 1.8330001
0.54593766 0.19259028 1.8330001
0.55707932 0.19259027 1.8330001
0.56503761 0.19259028 1.8330001
0.57458746 0.19259028 1.8330001
0.60164559 0.19259027 1.8330001
0.6223371 0.19259027 1.8330001
0.63507038 0.19259028 1.8330001
0.64462036 0.19259028 1.8330001
0.65417022 0.19259028 1.8330001
0.66053683 0.19259027 1.8330001
-0.79105258 0.2021402 1.8330001
-0.56503755 0.2053235 1.8330001
-0.55230433 0.20373185 1.8330001
-0.52047122 0.2021402 1.8330001
-0.51728791 0.2021402 1.8330001
0.27217302 0.20850681 1.8330001
0.33583921 0.20850681 1.8330001
0.34538913 0.20691516 1.8330001
0.35414323 0.20293602 1.8330001
0.36130568 0.20373185 1.8330001
-0.81174409 0.21646509 1.8330001
0.036608066 0.21805674 1.8330001
0.042974688 0.21487343 1.8330001
0.054116271 0.21646509 1.8330001
0.084357716 0.21805674 1.8330001
0.091785431 0.21381234 1.8330001
0.10186592 0.21487343 1.8330001
0.14802392 0.21805674 1.8330001
0.15279889 0.21805674 1.8330001
0.16234881 0.21328178 1.8330001
0.17349041 0.21487343 1.8330001
0.18940695 0.21487343 1.8330001
0.24829818 0.21487343 1.8330001
0.25466481 0.21169013 1.8330001
0.27641743 0.21381234 1.8330001
0.31737602 0.21487343 1.8330001
0.32575876 0.21487343 1.8330001
-0.81121349 0.22442338 1.8330001
0.027058136 0.22442336 1.8330001
0.034485862 0.22230117 1.8330001
0.042974688 0.22442336 1.8330001
0.068441167 0.22601502 1.8330001
0.074807793 0.22124006 1.8330001
0.13847399 0.22124006 1.8330001
0.14165729 0.22124006 1.8330001
0.31992266 0.22124006 1.8330001
0.32310596 0.22124006 1.8330001
-0.81492734 0.23078999 1.8330001
-0.94066811 0.24352323 1.8330001
-0.93589318 0.24352323 1.8330001
-0.87381864 0.24140102 1.8330001
-0.86426872 0.24033992 1.8330001
-0.85631037 0.24033991 1.8330001
-0.68494487 -0.20004229 1.8430001
-0.66350031 -0.20132259 1.8430001
-0.65453833 -0.2038831 1.8430003
-0.68430465 -0.19428109 1.8430003
-0.67374253 -0.19364095 1.8430002
-0.66454047 -0.19404103 1.8430002
-0.65408117 -0.19455543 1.8430002
-0.64813703 -0.19524129 1.8430001
-0.68094397 -0.18483908 1.8430001
-0.67374253 -0.18403891 1.8430002
-0.66454053 -0.18363884 1.8430002
-0.65133774 -0.18403892 1.8430002
-0.64685678 -0.18339877 1.8430001
-0.68014383 -0.17763756 1.8430001
-0.67374247 -0.1744369 1.8430002
-0.6641404 -0.17443688 1.8430002
-0.65408123 -0.17352243 1.8430002
-0.64653671 -0.1744369 1.8430002
-0.68380177 -0.16437763 1.8430002
-0.67374247 -0.16643518 1.8430002
-0.6641404 -0.16483486 1.8430002
-0.65133774 -0.1664352 1.8430001
-0.64573652 -0.16723537 1.8430001
-0.66414052 -0.1552328 1.8430002
-0.64173567 -0.15523282 1.8430002
-0.63533431 -0.15203215 1.8430001
-0.67054176 -0.14883147 1.8430001
-0.66505492 -0.14608805 1.8430002
-0.64301592 -0.14499067 1.8430001
-0.63613451 -0.14483063 1.8430001
-0.67054176 -0.13442843 1.8430001
-0.66454047 -0.13562869 1.8430002
-0.6577391 -0.13442843 1.8430001
-0.64365608 -0.13666891 1.8430001
-0.63533437 -0.13922945 1.8430002
-0.67246217 -0.12322606 1.8430001
-0.66414046 -0.12482639 1.8430003
