# .PCD v0.7 - Point Cloud Data file format
VERSION 0.7
FIELDS x y z
SIZE 4 4 4
TYPE F F F
COUNT 1 1 1
WIDTH 1511
HEIGHT 1
VIEWPOINT 0 0 0 1 0 0 0
POINTS 1511
DATA ascii
0.12638679 0.21936098 1.6730001
0.24841541 0.21936098 1.6730001
0.33703142 0.21936098 1.6730001
0.34284234 0.21936098 1.6730001
0.36608589 0.21936098 1.6730001
0.37044403 0.21936098 1.6730001
0.41402572 0.21161315 1.6730001
0.094426915 0.22807732 1.6730001
0.10459597 0.22371915 1.6730001
0.12929223 0.22517186 1.6730001
0.13655585 0.22807731 1.6730001
0.14672489 0.22807731 1.6730001
0.15253578 0.22807731 1.6730001
0.16996844 0.22517186 1.6730001
0.17287388 0.22517186 1.6730001
0.1874011 0.22517186 1.6730001
0.19466472 0.22589822 1.6730001
0.21355009 0.22517186 1.6730001
0.22517186 0.22807731 1.6730001
0.23969908 0.22517186 1.6730001
0.24405724 0.22226642 1.6730001
0.26439536 0.22226642 1.6730001
0.27165896 0.22226642 1.6730001
0.28618619 0.22226642 1.6730001
0.29490253 0.22323489 1.6730001
0.30071339 0.22226642 1.6730001
0.32540965 0.22226642 1.6730001
0.33267328 0.22226642 1.6730001
-0.83822042 0.23969908 1.6730001
-0.73652995 0.2396991 1.6730001
-0.89284277 0.24609104 1.6730002
-0.82078779 0.24550997 1.6730001
-0.81642962 0.24841541 1.6730001
-0.8033551 0.24841541 1.6730001
-0.7960915 0.24841541 1.6730001
-0.78592247 0.24841541 1.6730001
-0.76558435 0.24841541 1.6730001
-0.75589955 0.24647844 1.6730001
-0.73798263 0.24260452 1.6730001
-0.91230923 0.25277358 1.6730001
-0.90504563 0.2513209 1.6730001
-0.80771327 0.25132087 1.6730001
0.87434137 0.18829723 1.6810001
0.88309944 0.18829724 1.6810001
0.42768285 0.19997457 1.6810001
0.50553179 0.19997458 1.6810001
0.51234359 0.19997457 1.6810001
0.5298596 0.19997457 1.6810001
0.53861761 0.19997457 1.6810001
0.54591596 0.19997457 1.6810001
0.550295 0.19997457 1.6810001
0.56781101 0.19997457 1.6810001
0.59846401 0.19997457 1.6810001
0.61452037 0.19705524 1.6810001
0.62911707 0.19997457 1.6810001
0.63641542 0.19997457 1.6810001
0.64517343 0.19632541 1.6810001
0.65685076 0.19705524 1.6810001
0.66560876 0.19705524 1.6810001
0.67728615 0.19705524 1.6810001
0.68312478 0.19559556 1.6810001
0.69528866 0.19705525 1.6810001
0.86266398 0.19413589 1.6810001
0.87142199 0.19121656 1.6810001
0.41454583 0.20873258 1.6810001
0.42476353 0.20386702 1.6810001
0.43790051 0.2028939 1.6810001
0.44665852 0.2028939 1.6810001
0.45979553 0.2028939 1.6810001
0.46563423 0.2028939 1.6810001
0.47439227 0.20386702 1.6810001
0.48315024 0.20581324 1.6810001
0.49774691 0.2028939 1.6810001
0.51526296 0.2028939 1.6810001
0.57948834 0.2028939 1.6810001
0.58240765 0.2028939 1.6810001
0.34594139 0.21749058 1.6810001
0.40627441 0.21651748 1.6810001
0.41113994 0.21262503 1.6810001
0.089039773 0.22916794 1.6810001
0.097797781 0.22624859 1.6810001
0.10363645 0.22332926 1.6810001
0.11531381 0.22040993 1.6810001
0.12991048 0.22332926 1.6810001
0.13574916 0.22624859 1.6810001
0.14304751 0.22624859 1.6810001
0.15764418 0.22624859 1.6810001
0.16640219 0.22624859 1.6810001
0.17661987 0.22332928 1.6810001
0.18537788 0.22332928 1.6810001
0.19559556 0.22478893 1.6810001
0.20581326 0.22624859 1.6810001
0.21749058 0.22332926 1.6810001
0.22478893 0.22624859 1.6810001
0.23573644 0.22551875 1.6810001
0.24376461 0.22186959 1.6810001
0.25544196 0.22040993 1.6810001
0.26419997 0.22040993 1.6810001
0.27441767 0.22186959 1.6810001
0.28463534 0.22235617 1.6810001
0.294853 0.2218696 1.6810001
0.3050707 0.22186959 1.6810001
0.31674802 0.22332926 1.6810001
0.32696572 0.22040993 1.6810001
0.33280438 0.22040993 1.6810001
0.35469943 0.22332926 1.6810001
-0.91229272 0.24960329 1.6810001
-0.90411866 0.24785168 1.6810001
-0.89769608 0.24376462 1.6810001
-0.81157565 0.24814361 1.6810001
-0.8042773 0.24668396 1.6810001
-0.79551929 0.24960329 1.6810001
-0.76194692 0.24376462 1.6810001
-0.75464857 0.24668396 1.6810001
-0.91813141 0.25252262 1.6810001
-0.81595463 0.25252262 1.6810001
0.87608755 0.18930535 1.6900001
0.8841179 0.18766317 1.6964
0.89433479 0.18827899 1.694
0.90543723 0.18930535 1.6900001
0.92891699 0.18930535 1.6900001
0.42997262 0.19811025 1.6900001
0.43290758 0.19811025 1.6900001
0.44822675 0.19904806 1.6980001
0.46739432 0.19904806 1.6980001
0.47181761 0.19904806 1.6980001
0.4998318 0.19904806 1.6980001
0.5054065 0.19834471 1.692
0.51483834 0.19857916 1.694
0.5248971 0.19904806 1.6980001
0.54259026 0.19904806 1.6980001
0.60503447 0.19873546 1.6953334
0.61486024 0.19730861 1.6932001
0.62514794 0.19811025 1.6900001
0.63542032 0.19811027 1.6900001
0.64485526 0.19554208 1.6932
0.65256244 0.19337033 1.6913335
0.66486204 0.19710472 1.694
0.67357492 0.19811025 1.6900001
0.68345189 0.19548325 1.6926668
0.69521493 0.19646159 1.6926668
0.70605224 0.19637099 1.694
0.71436137 0.19609919 1.6980001
0.86638999 0.19195811 1.694
0.87327623 0.19101703 1.6948003
0.90530002 0.19020148 1.6980001
0.91345716 0.19122091 1.694
0.92228293 0.19269533 1.694
0.93036538 0.19020148 1.6980001
0.41554356 0.20813863 1.694
0.42313644 0.20436643 1.6932
0.43584257 0.20104523 1.6900001
0.44422197 0.20152107 1.6940001
0.45625824 0.20267133 1.6913335
0.46592596 0.20177896 1.6900001
0.47602904 0.20201689 1.692
0.48541224 0.20298856 1.6940002
0.4952209 0.20298856 1.6940001
0.5033468 0.20104523 1.6900001
0.51802164 0.20104523 1.6900001
0.52535903 0.20104523 1.6900001
0.53836668 0.20152107 1.694
0.54443634 0.20104523 1.6900001
0.57818842 0.20104523 1.6900001
0.58829761 0.20199692 1.6980001
0.59355968 0.20128316 1.692
0.71172947 0.20104523 1.6900001
0.10763339 0.21969007 1.6980001
0.11549702 0.21969007 1.6980002
0.12473609 0.21865503 1.6900001
0.18725261 0.21969007 1.6980001
0.24917868 0.21969007 1.6980001
0.25802526 0.21969007 1.6980001
0.26617312 0.21853462 1.6966667
0.27424401 0.21969007 1.6980001
0.284565 0.21969007 1.6980001
0.29577065 0.21910031 1.6980002
0.30350971 0.21720897 1.694
0.31601951 0.21969007 1.6980002
0.32431382 0.21865503 1.6900001
0.3345862 0.21865502 1.6900001
0.34339112 0.21865502 1.6900001
0.35366353 0.21865503 1.6900001
0.36436135 0.21891376 1.692
0.3742083 0.21865503 1.6900001
0.3800782 0.21865502 1.6900001
0.40521523 0.21615572 1.6934286
0.41136599 0.2108435 1.6980001
0.087496392 0.22714177 1.6964
0.094799422 0.22569895 1.6900002
0.10357741 0.22258598 1.692
0.11006125 0.22158998 1.6900001
0.13582 0.22314754 1.6922859
0.1456935 0.22515988 1.6948
0.15481573 0.22585756 1.6926668
0.1662181 0.22456259 1.694
0.17451677 0.22311044 1.6960001
0.18343543 0.22158998 1.6900001
0.19514577 0.22309279 1.694
0.20523259 0.22371668 1.6934286
0.21574576 0.22339335 1.6948
0.22555357 0.22512834 1.6945714
0.23464179 0.2232974 1.6934286
0.24360225 0.22158998 1.6900001
0.27735436 0.22158998 1.6900001
0.28322428 0.22158998 1.6900001
0.29349667 0.22158998 1.6900001
0.30768237 0.22256832 1.6900001
0.31580487 0.22297378 1.6916001
0.32284635 0.22158998 1.6900001
0.35576209 0.22238679 1.6916001
0.36393589 0.22158998 1.6900001
-0.9215188 0.24917868 1.6980001
-0.91709548 0.24917868 1.6980001
-0.90837222 0.24800469 1.6900001
-0.83452737 0.24622981 1.6980001
-0.82373232 0.24711725 1.6940001
-0.81481594 0.24553099 1.6932001
-0.80622959 0.24682145 1.6953335
-0.79540342 0.24847429 1.6932001
-0.78339815 0.24741307 1.6926668
-0.77577132 0.24724403 1.6934289
-0.76162386 0.24506973 1.6900001
-0.7549082 0.24622981 1.6980001
-0.9215796 0.25093967 1.6900001
-0.82032323 0.25093967 1.6900001
0.87697506 0.18813485 1.7060001
0.88141912 0.18813485 1.7060001
0.89327013 0.1851721 1.7060001
0.90363979 0.18813485 1.7060001
0.45478266 0.19998586 1.7060001
0.46515229 0.19998586 1.7060001
0.47552192 0.19801068 1.7060001
0.48515087 0.19924517 1.7060001
0.49379227 0.19899827 1.7060002
0.50663084 0.19702311 1.7060001
0.51403773 0.19702311 1.7060001
0.52440739 0.19850448 1.7060001
0.53477705 0.19998586 1.7060001
0.57921827 0.19998586 1.7060001
0.58218104 0.19998586 1.7060001
0.5955134 0.19998586 1.7060001
0.60292029 0.19998586 1.7060001
0.61477137 0.19702312 1.7060001
0.62810373 0.19702311 1.7060001
0.64291751 0.19702311 1.7060001
0.66810089 0.19554174 1.7060001
0.67550778 0.19702311 1.7060001
0.68291467 0.19702311 1.7060001
0.69180292 0.19406036 1.7060001
0.70365393 0.19702311 1.7060001
0.71352977 0.19307277 1.7060001
0.86956811 0.1910976 1.7060001
0.91993493 0.1910976 1.7060001
0.92882317 0.19406036 1.7060001
0.41700754 0.20591137 1.7060001
0.42515513 0.20294861 1.7060001
0.4577454 0.20294861 1.7060001
0.49626121 0.20294861 1.7060001
0.58810657 0.20294861 1.7060001
0.29479396 0.21776238 1.7060001
0.30960774 0.21776238 1.7060001
0.3244215 0.21776238 1.7060001
0.34516078 0.21776238 1.7060001
0.36886281 0.21776238 1.7060001
0.37182555 0.21776238 1.7060001
0.39849034 0.21776238 1.7060001
0.40441585 0.21430585 1.7060002
0.41034135 0.21183687 1.7060001
0.084438473 0.22665064 1.7060001
0.096289486 0.22368789 1.7060001
0.10517775 0.22072513 1.7060001
0.14813766 0.22368789 1.7060001
0.15554455 0.22368789 1.7060001
0.16443282 0.2227003 1.7060001
0.17480245 0.22072513 1.7060001
0.18369073 0.22072513 1.7060001
0.19554172 0.22072513 1.7060001
0.20442998 0.22072513 1.7060001
0.21183687 0.22368789 1.7060001
0.22665064 0.22368789 1.7060001
0.2355389 0.22072515 1.7060001
0.24442717 0.22072515 1.7060001
0.25331542 0.22072513 1.7060001
0.27998021 0.22072513 1.7060001
0.28590572 0.22072513 1.7060001
0.31553325 0.22072513 1.7060001
0.38812071 0.22072513 1.7060001
0.39626825 0.22146583 1.7060001
0.40145308 0.22072513 1.7060001
-0.91400945 0.24590853 1.7060001
-0.90808392 0.24442716 1.7060001
-0.83401507 0.24738991 1.7060001
-0.82660818 0.24442716 1.7060001
-0.81475717 0.24442716 1.7060001
-0.80438757 0.24738991 1.7060001
-0.79352415 0.24640232 1.7060001
-0.78661108 0.24541473 1.7060001
-0.76587176 0.24738991 1.7060001
-0.93178594 0.25035265 1.7060001
-0.92882317 0.25035265 1.7060001
0.87564468 0.18912734 1.715
0.88755822 0.18614896 1.715
0.89500421 0.18515617 1.715
0.90393943 0.18614897 1.715
0.91585296 0.18912736 1.715
0.93967998 0.18912734 1.715
0.94265836 0.18912734 1.715
0.47207376 0.19806249 1.715
0.4839873 0.19806251 1.715
0.49887922 0.19806249 1.715
0.5033468 0.19806249 1.715
0.5167495 0.19806249 1.715
0.53313065 0.19806249 1.715
0.59567666 0.19806249 1.715
0.60461187 0.19806249 1.715
0.61503619 0.19607691 1.715
0.62546051 0.19508411 1.715
0.63588488 0.1970697 1.715
0.64184165 0.19806249 1.715
0.65524435 0.19359492 1.715
0.66566867 0.19309853 1.715
0.6775822 0.19508411 1.715
0.68949574 0.19508411 1.715
0.69247413 0.19508411 1.715
0.71233004 0.19409132 1.715
0.92776644 0.19210573 1.715
0.93372321 0.19210573 1.715
0.40754217 0.20799045 1.715
0.41488883 0.20640197 1.715
0.44824672 0.20104088 1.715
0.46164942 0.20104088 1.715
0.54355496 0.20104088 1.715
0.5554685 0.20104089 1.715
0.56291449 0.20104088 1.715
0.57929558 0.20104088 1.715
0.58823073 0.20104088 1.715
0.59120911 0.20104088 1.715
0.11466776 0.21891119 1.715
0.12062453 0.21891119 1.715
0.1965733 0.21891119 1.715
0.20401928 0.2189112 1.715
0.24422744 0.21891119 1.715
0.29485995 0.21742199 1.715
0.30528429 0.2159328 1.715
0.31570864 0.21891119 1.715
0.3231546 0.21891119 1.715
0.34499609 0.2189112 1.715
0.35591683 0.2189112 1.715
0.36485201 0.2189112 1.715
0.37825468 0.21891119 1.715
0.38570064 0.2189112 1.715
0.39562863 0.21692561 1.715
0.40158534 0.21394722 1.715
0.090840697 0.22486795 1.715
0.10275423 0.22188957 1.715
0.11466776 0.22188957 1.715
0.15785432 0.22188957 1.715
0.16381109 0.22188957 1.715
0.20997603 0.22188957 1.715
0.21593282 0.22188959 1.715
0.22486794 0.22188959 1.715
0.23082471 0.22188957 1.715
0.25763017 0.22188957 1.715
-0.93223405 0.24869502 1.715
-0.92404342 0.24646123 1.715
-0.91883129 0.24571663 1.715
-0.83543652 0.24571663 1.715
-0.82650137 0.24273825 1.715
-0.81756628 0.24273825 1.715
-0.8056528 0.24670944 1.715
-0.79572481 0.24373105 1.715
-0.78480405 0.24472384 1.715
-0.77884728 0.24571663 1.715
-0.76693374 0.24869502 1.715
0.88571393 0.18701729 1.723
0.89319462 0.18402502 1.723
0.91414052 0.18701729 1.723
0.92162126 0.18701729 1.723
0.46529904 0.19898641 1.723
0.48624498 0.19599412 1.723
0.49522179 0.19599412 1.723
0.50345057 0.19524606 1.723
0.51018322 0.19599412 1.723
0.52664071 0.19898641 1.723
0.54459435 0.19898641 1.723
0.58499014 0.19898641 1.723
0.59247082 0.19898641 1.723
0.60593605 0.19599412 1.723
0.61341673 0.19599412 1.723
0.62314165 0.19225378 1.723
0.65231633 0.19449799 1.723
0.67475843 0.19399928 1.723
0.68523139 0.19524606 1.723
0.69720048 0.19300185 1.723
0.70468116 0.19599412 1.723
0.7121619 0.19449799 1.723
0.93708134 0.191007 1.723
0.94107103 0.19000958 1.723
0.39946896 0.20796323 1.723
0.40545353 0.20546967 1.7229999
0.41343293 0.20297611 1.723
0.42440459 0.20197868 1.723
0.43388012 0.20197868 1.723
0.57451713 0.20197868 1.723
0.10772196 0.21993235 1.723
0.11520266 0.21993235 1.723
0.16607136 0.21918428 1.723
0.1750482 0.21993236 1.723
0.18252888 0.21993235 1.723
0.19300185 0.21843621 1.723
0.20347482 0.21694006 1.723
0.21095552 0.21993235 1.723
0.22890916 0.21993235 1.723
0.23489372 0.21993236 1.723
0.24536669 0.21843621 1.723
0.25583968 0.21993236 1.723
0.26481649 0.21993236 1.723
0.28725857 0.21993235 1.723
0.29673412 0.2179375 1.723
0.31269291 0.21694006 1.723
0.36954618 0.21694006 1.723
0.37403458 0.21694006 1.723
0.38650244 0.21594265 1.723
0.39423248 0.21357375 1.7229998
0.40246123 0.21095552 1.723
0.10024127 0.22292462 1.723
0.14811771 0.22292462 1.723
0.15260611 0.22292462 1.723
-0.94107103 0.24985512 1.723
-0.93508649 0.24611476 1.723
-0.92610967 0.24486798 1.723
-0.91414052 0.24387056 1.723
-0.8453182 0.24686283 1.723
-0.83634138 0.24287313 1.723
-0.82437223 0.24387056 1.723
-0.81539541 0.24461862 1.723
-0.80741608 0.24486798 1.723
-0.78696877 0.24387056 1.723
-0.77499968 0.24686283 1.723
0.88582855 0.18799417 1.7320001
0.92493129 0.1859889 1.7320001
0.93696296 0.18799417 1.7320001
0.94598669 0.18799417 1.7320001
0.95200247 0.18799417 1.7320001
0.48577693 0.19701789 1.7320001
0.53691137 0.19701789 1.7320001
0.58804578 0.19701789 1.7320001
0.59556556 0.19701789 1.7320001
0.60458922 0.19626592 1.7320001
0.61511695 0.19501263 1.7320001
0.62414062 0.19250605 1.7320001
0.63316435 0.19400999 1.7320001
0.64519596 0.19701789 1.7320001
0.6512118 0.19701789 1.7320001
0.66324341 0.19400999 1.7320001
0.68429875 0.19400999 1.7320001
0.69332254 0.19400999 1.7320001
0.7068581 0.19551393 1.7320001
0.71287394 0.19400999 1.7320001
0.72039366 0.19100209 1.7320001
0.93395507 0.1910021 1.7320001
0.39639917 0.20647131 1.7320004
0.4039619 0.20303369 1.7320002
0.41960299 0.2030337 1.7320001
0.42561883 0.20152974 1.7320001
0.45720184 0.2000258 1.7320001
0.4617137 0.2000258 1.7320001
0.47224134 0.2000258 1.7320001
0.54743904 0.2000258 1.7320001
0.55495882 0.2000258 1.7320001
0.56699049 0.2000258 1.7320001
0.57601416 0.20203106 1.7320001
0.58202994 0.2000258 1.7320001
0.10828464 0.21807323 1.7320001
0.11430046 0.21807323 1.7320001
0.16693883 0.21807323 1.7320001
0.19100209 0.21807323 1.7320001
0.20453766 0.21807323 1.7320001
0.21205743 0.21807323 1.7320001
0.23762465 0.21807323 1.7320001
0.24213649 0.21807323 1.7320001
0.2511602 0.21807323 1.7320001
0.29176694 0.21807323 1.7320001
0.30831045 0.21506533 1.7320001
0.34741324 0.21807323 1.7320001
0.35493299 0.21807323 1.7320001
0.36546069 0.21807323 1.7320001
0.37749231 0.21506533 1.7320001
0.38501209 0.21506535 1.7320002
0.39253184 0.21205743 1.7320001
0.088733248 0.22709696 1.7320001
0.096253015 0.22408906 1.7320001
0.10226883 0.22108115 1.7320001
0.14588347 0.22408906 1.7320001
0.1549072 0.22108117 1.7320001
0.160923 0.22108115 1.7320001
0.21506533 0.22108115 1.7320001
0.225593 0.22108115 1.7320001
0.27823138 0.22108115 1.7320001
0.28274322 0.22108115 1.7320001
-0.80160713 0.23912859 1.7320001
0.082717434 0.23010486 1.7320001
-0.94523466 0.2451444 1.7320001
-0.93575984 0.24273808 1.7320002
-0.92793924 0.2451444 1.7320001
-0.85274154 0.2451444 1.7320001
-0.84612417 0.24333966 1.7320002
-0.8331902 0.24213649 1.7320001
-0.82567036 0.24213649 1.7320001
-0.81514275 0.24213649 1.7320001
-0.80461502 0.24213651 1.7320001
-0.78355974 0.24514441 1.7320001
-0.77528799 0.2451444 1.7320001
-0.76852018 0.2481523 1.7320001
0.88740802 0.18897104 1.7410001
0.89496684 0.18594751 1.7410001
0.90857279 0.18594751 1.7410001
0.92520225 0.18594751 1.7410001
0.93679249 0.18695536 1.7410001
0.94485521 0.18519163 1.7410001
0.95241404 0.18594751 1.7410001
0.47015998 0.19804166 1.7410001
0.48527765 0.19804166 1.7410001
0.52307189 0.19804166 1.7410001
0.53667772 0.19804166 1.7410001
0.54574841 0.19804166 1.7410001
0.55481899 0.19804166 1.7410001
0.56540138 0.19804166 1.7410001
0.5880779 0.19804166 1.7410001
0.59412497 0.19804166 1.7410001
0.60420346 0.19501814 1.7410001
0.61528975 0.19501813 1.7410001
0.62436032 0.19199458 1.7410001
0.6455251 0.1965299 1.7410001
0.65610749 0.19501813 1.7410001
0.66668987 0.19350636 1.7410001
0.70599592 0.19199459 1.7410001
0.71204293 0.19501813 1.7410001
0.7211135 0.19199458 1.7410001
0.38852447 0.20711227 1.7410001
0.39457154 0.20408873 1.7410001
0.40464997 0.20106521 1.7410001
0.41573632 0.20106521 1.7410001
0.42178339 0.2010652 1.7410001
0.45353049 0.20257697 1.7410001
0.46713644 0.2010652 1.7410001
0.56237781 0.2010652 1.7410001
0.57900727 0.2010652 1.7410001
0.58203083 0.2010652 1.7410001
0.10431202 0.21920641 1.7410001
0.17385337 0.21920641 1.7410001
0.20711227 0.21618287 1.7410001
0.21315934 0.21769464 1.7410001
0.22827703 0.21920641 1.7410001
0.2343241 0.21819857 1.7410001
0.24490647 0.21618287 1.7410001
0.25548884 0.21819857 1.7410001
0.2630477 0.21920641 1.7410001
0.28874776 0.21920641 1.7410001
0.30462131 0.215427 1.7410001
0.31293607 0.21618287 1.7410001
0.34619495 0.21920641 1.7410001
0.35677731 0.21920641 1.7410001
0.37491858 0.21618287 1.7410001
0.38550094 0.21240346 1.7410001
0.39154801 0.2101358 1.7410001
0.0861708 0.22827703 1.7410001
0.095241413 0.22374173 1.7410001
0.13605915 0.22525349 1.7410001
0.14462584 0.22424565 1.7410001
0.18897104 0.22222996 1.7410001
0.21920641 0.22222996 1.7410001
0.22222996 0.22222996 1.7410001
0.32503021 0.22222996 1.7410001
0.33410081 0.22222996 1.7410001
0.34317142 0.22222996 1.7410001
-0.822402 0.23734763 1.7410001
-0.80879611 0.23734763 1.7410001
-0.78158426 0.23734763 1.7410001
-0.94636703 0.24188294 1.7410001
-0.93276107 0.2433947 1.7410001
-0.92973757 0.2433947 1.7410001
-0.85490507 0.24188294 1.7410001
-0.84507847 0.24037117 1.7410001
-0.82542551 0.24188294 1.7410001
-0.81484318 0.24037117 1.7410001
-0.80577254 0.24188294 1.7410001
-0.79519016 0.2433947 1.7410001
-0.78359997 0.24137902 1.7410001
-0.77755284 0.24339472 1.7410001
0.95462406 0.17870562 1.7590002
0.96073359 0.1787056 1.7590001
-0.68580186 0.18787 1.7590001
0.56666481 0.18787 1.7590001
0.70476806 0.18925528 1.7530001
0.71268463 0.18994792 1.7500001
0.72636086 0.18994792 1.7500001
0.89503461 0.18690875 1.7500001
0.90111291 0.18690875 1.7500001
0.91023046 0.18690875 1.7500001
0.92238712 0.18690875 1.7500001
0.93436968 0.18504791 1.7554001
0.94584751 0.18283992 1.7518002
0.95446116 0.182815 1.7545
0.96213949 0.18449478 1.7560003
-0.70107591 0.19397959 1.7590002
-0.6949662 0.19397959 1.7589999
-0.68480915 0.19462302 1.7545
0.3991507 0.1980499 1.7545002
0.40474179 0.19703233 1.755625
0.41239756 0.19703439 1.7590001
0.46955127 0.19906542 1.7500001
0.477458 0.19838843 1.7530001
0.48170793 0.19906542 1.7500001
0.49690378 0.19906542 1.7500001
0.52121711 0.19906542 1.7500001
0.53322178 0.1980499 1.7545002
0.54222643 0.19703439 1.7590001
0.55559874 0.19838843 1.7530001
0.5664013 0.19647084 1.7540001
0.57588232 0.19601746 1.7538573
0.58576488 0.19754216 1.7567501
0.59415364 0.19653033 1.7545
0.605744 0.19479826 1.7554001
0.61551392 0.19296777 1.7567501
0.62234014 0.19271964 1.7545002
0.64278376 0.19602625 1.7500001
0.65433735 0.19576663 1.7545
0.66214675 0.19331793 1.7530001
0.67052788 0.19397959 1.7590001
0.68580186 0.19397959 1.7590002
0.6944496 0.19298708 1.7500002
0.70308912 0.19195592 1.7545002
0.71603292 0.19195592 1.7545002
0.72325867 0.19161223 1.756
-0.70107585 0.20467138 1.7590001
-0.69459742 0.20461844 1.7573637
-0.68572354 0.20475273 1.7575001
-0.67969227 0.20314398 1.7590001
0.24896593 0.20772618 1.7590001
0.25202075 0.20619878 1.7590001
0.26118511 0.20925358 1.7590001
0.38645276 0.20617858 1.7551429
0.39357126 0.20210919 1.7538573
0.41545236 0.20008919 1.7590001
0.42003456 0.20008919 1.7590001
0.45552766 0.20185669 1.7545002
0.46585649 0.20008919 1.7590002
0.48724008 0.20008919 1.7590001
0.58652103 0.20008919 1.7590001
-0.70107585 0.21230838 1.7590001
-0.69649363 0.21230838 1.7590001
0.10664436 0.21633181 1.7545002
0.11244917 0.21730043 1.7500001
0.12066447 0.21841797 1.7590001
0.15273984 0.21841797 1.7590001
0.16648643 0.21841797 1.7590001
0.20414387 0.21785921 1.7545002
0.21462336 0.21665469 1.7530001
0.22547665 0.21785921 1.7545002
0.23538129 0.21633179 1.7545
0.24576092 0.21348324 1.7536001
0.2555646 0.21442646 1.7545
0.26362893 0.21597412 1.7590001
0.28867829 0.21841797 1.7590001
0.29555333 0.21684092 1.7545002
0.3029103 0.21462858 1.7530001
0.31759292 0.21730043 1.7500001
0.32228106 0.21841797 1.7590001
0.33450025 0.21841797 1.7590002
0.34474462 0.21813861 1.7567501
0.35528207 0.21804547 1.7560003
0.3656339 0.21785921 1.7545002
0.37478265 0.21633181 1.7545002
0.38239098 0.21328741 1.7545002
0.08596392 0.22746882 1.7522501
0.094810367 0.22284614 1.7554001
0.10181209 0.2203396 1.7500001
0.12493016 0.22242968 1.7545002
0.13635048 0.22318947 1.7545002
0.14473164 0.22242576 1.7545002
0.15499751 0.2203396 1.7500001
0.16259542 0.2203396 1.7500001
0.17779125 0.2203396 1.7500001
0.18538918 0.2203396 1.7500001
0.22337876 0.2203396 1.7500002
0.26896626 0.2203396 1.7500001
0.27598238 0.22109506 1.756
0.2841621 0.2203396 1.7500002
0.32519084 0.2203396 1.7500001
0.33582795 0.22135267 1.7500002
0.34234196 0.22138268 1.7522501
-0.85465705 0.23596962 1.7500002
-0.84825206 0.23812154 1.7522501
-0.82310772 0.23654848 1.7500002
-0.81753588 0.237055 1.7500001
-0.79501092 0.23751044 1.7590001
-0.78764474 0.23689696 1.7545
-0.95277876 0.24161376 1.7500001
-0.94518089 0.24161376 1.7500001
-0.92102122 0.24743854 1.7590001
-0.91754806 0.24406917 1.7567501
-0.85552543 0.24161376 1.7500001
-0.84184921 0.24161376 1.7500001
-0.83568144 0.24202797 1.7530001
-0.82817292 0.24161376 1.7500001
-0.81104857 0.24285634 1.7590001
-0.80493897 0.24285635 1.7590002
-0.79271603 0.24262683 1.7500002
-0.78050059 0.24743854 1.7590001
-0.77814597 0.24651 1.7560003
0.95643795 0.17808476 1.7680001
-0.68624038 0.18883124 1.7680001
0.57570505 0.18883125 1.7680001
0.70466292 0.18883124 1.7680001
0.71080381 0.18883124 1.7680001
0.72001505 0.18883124 1.7680001
0.90424067 0.18576083 1.7680001
0.91345197 0.18576083 1.7680001
0.92573369 0.18678431 1.7680001
0.93340969 0.18576083 1.7680001
0.94569147 0.1826904 1.7680001
0.95029706 0.1826904 1.7680001
0.96871966 0.1826904 1.7680001
0.97179008 0.18576083 1.7680001
-0.70773339 0.19804253 1.7680001
-0.6852169 0.1949721 1.7680001
0.39608505 0.19804253 1.7680001
0.4006907 0.1949721 1.7680001
0.41911325 0.19804253 1.7680001
0.47591615 0.19804253 1.7680001
0.49587393 0.19804253 1.7680001
0.5296486 0.19804253 1.7680001
0.5388599 0.19804253 1.7680001
0.55728245 0.19804253 1.7680001
0.56802893 0.19343689 1.7680001
0.57570505 0.19190167 1.7680001
0.58645153 0.1949721 1.7680001
0.5941276 0.1949721 1.7680001
0.60180366 0.1949721 1.7680001
0.61869097 0.19190167 1.7680001
0.62790227 0.19190167 1.7680001
0.63250792 0.19190167 1.7680001
0.64786005 0.1949721 1.7680001
0.65553617 0.1949721 1.7680001
0.66474736 0.19190167 1.7680001
0.67395866 0.19343689 1.7680001
0.68316996 0.1949721 1.7680001
0.69545168 0.1949721 1.7680001
0.7015925 0.19190167 1.7680001
-0.71182728 0.20623033 1.7680001
-0.70773339 0.20418338 1.7680001
-0.68132776 0.20418338 1.768
-0.65860653 0.20418338 1.7680001
0.24716936 0.2072538 1.7680001
0.38533854 0.20571859 1.7680001
0.3914794 0.20111296 1.7680001
0.42678931 0.20111296 1.7680001
0.44060624 0.20418338 1.7680001
0.45595837 0.20418338 1.7680001
-0.72231787 0.21416226 1.7680001
-0.71387422 0.21185943 1.7680001
-0.70773339 0.21185943 1.7680001
-0.68163478 0.21032423 1.7680001
-0.66167694 0.21032423 1.7680001
-0.65860653 0.21032423 1.7680001
-0.64632481 0.21032423 1.7680001
0.099788867 0.21953551 1.7680001
0.1028593 0.21953551 1.7680001
0.13970442 0.21953551 1.7680001
0.14584526 0.21953551 1.7680001
0.15812698 0.21953551 1.7680001
0.16273263 0.21953551 1.7680001
0.17654954 0.21953551 1.7680001
0.18883124 0.21953551 1.7680001
0.19190167 0.21953551 1.7680001
0.20111296 0.21953551 1.7680001
0.21544161 0.21646509 1.7680001
0.22567639 0.21646509 1.7680001
0.23488764 0.21646509 1.7680001
0.24563414 0.21185943 1.7680001
0.26866233 0.21646509 1.7680001
0.27480322 0.21953551 1.7680001
0.28478208 0.21876791 1.7680001
0.29476097 0.21492988 1.7680001
0.30243704 0.21339466 1.7680001
0.31625396 0.21646509 1.7680001
0.32700044 0.21953551 1.7680001
0.33007088 0.21953551 1.7680001
0.34695822 0.21646509 1.7680001
0.35309908 0.21646509 1.7680001
0.36538076 0.21646509 1.7680001
0.3761273 0.21544163 1.7680001
0.38226813 0.21032423 1.7680001
0.084436737 0.22669986 1.7680001
0.092112802 0.22260594 1.7680001
0.13663399 0.22260594 1.7680001
-0.80291659 0.23795807 1.7680001
-0.79063487 0.23795807 1.7680001
-0.92573369 0.24256371 1.7680001
-0.84897298 0.2410285 1.7680001
-0.8151983 0.24102852 1.7680001
-0.80752224 0.2410285 1.7680001
-0.78654099 0.24307546 1.7680001
-0.77528274 0.24409893 1.7680001
0.97056484 0.17744826 1.7770001
-0.71133608 0.18979248 1.7770001
0.56937748 0.18979248 1.7770001
0.7175082 0.18979248 1.7770001
0.72573769 0.18979248 1.7770002
0.73602456 0.18979248 1.7770001
0.90678638 0.18464908 1.7770002
0.91347277 0.18670644 1.7770001
0.92273098 0.18670644 1.7770001
0.93353218 0.18670644 1.7770001
0.94896245 0.18053432 1.7770001
0.95513457 0.18053432 1.7770001
0.97519398 0.18207735 1.7770001
-0.71380496 0.19658183 1.7770001
-0.68510461 0.19750763 1.7770001
-0.65475839 0.19802198 1.7770002
-0.64564723 0.19772808 1.7770002
-0.63418472 0.19905066 1.7770002
0.39501527 0.19750762 1.7770001
0.4243328 0.19905066 1.7770001
0.45827943 0.19905066 1.7770001
0.46445155 0.19905066 1.7770002
0.47216666 0.19905066 1.7770001
0.48759699 0.19905066 1.7770001
0.49531209 0.19905066 1.7770001
0.50457031 0.19905066 1.7770001
0.51228541 0.19905066 1.7770001
0.52617264 0.19905066 1.7770002
0.53851688 0.19905066 1.7770001
0.55394721 0.19905066 1.7770002
0.56629145 0.19493592 1.7770002
0.61875439 0.19287854 1.7770001
0.64961493 0.19287854 1.7770001
0.6573301 0.19287854 1.7770001
0.66504526 0.19287854 1.7770001
0.67738944 0.19287854 1.7770001
0.68201852 0.19287854 1.7770001
0.70207793 0.19287854 1.7770001
-0.72368032 0.20654537 1.7770002
-0.71647954 0.2031654 1.7770002
-0.68047559 0.20522277 1.7770002
-0.67430347 0.20522279 1.7770002
-0.66555965 0.20573711 1.7770002
-0.65617281 0.20483702 1.7770002
-0.64591163 0.20522277 1.7770003
-0.63624209 0.2031654 1.7770002
0.37804195 0.20830883 1.7770001
0.38421407 0.20599429 1.7770001
0.39038619 0.20213671 1.7770001
0.43822008 0.20522277 1.7770001
0.44747823 0.20522277 1.7770001
0.45519337 0.2041941 1.7770002
-0.74373972 0.21448094 1.7770001
-0.73499584 0.21396661 1.7770002
-0.72625202 0.21345226 1.7770002
-0.68047553 0.21139489 1.7770001
-0.67430341 0.21139489 1.7770002
-0.66813129 0.21139489 1.7770001
-0.6573301 0.21139489 1.7770001
0.11572713 0.217567 1.7770001
0.14041558 0.217567 1.7770001
0.15584587 0.21756701 1.7770002
0.2067658 0.217567 1.7770001
0.21293792 0.21448095 1.7770001
0.23608334 0.21448095 1.7770001
0.28546026 0.21653831 1.7770002
0.2931754 0.21448095 1.7770001
0.32557899 0.21756701 1.7770002
0.3348372 0.21756701 1.7770002
0.3425523 0.217567 1.7770001
0.35952562 0.217567 1.7770001
0.36878377 0.21448095 1.7770001
0.37495589 0.21396661 1.7770002
0.38112801 0.21139489 1.7770001
-0.76174176 0.22631082 1.7770002
-0.74373972 0.22065306 1.7770001
-0.73911059 0.22065306 1.7770001
0.086409591 0.22373912 1.7770001
0.094124734 0.22065306 1.7770002
0.11881319 0.22065306 1.7770001
0.12807135 0.22373912 1.7770001
0.13424347 0.22271043 1.7770002
0.17281918 0.22065306 1.7770001
0.18362038 0.22065306 1.7770002
0.19750763 0.22065306 1.7770001
0.27620208 0.22065306 1.7770001
-0.9314748 0.23814073 1.7770002
-0.92736006 0.23762637 1.7770001
-0.81163293 0.2391694 1.7770001
-0.80391777 0.23762637 1.7770001
-0.77305722 0.2391694 1.7770001
-0.94587642 0.24842757 1.7770001
-0.93661821 0.24431282 1.7770002
-0.84712261 0.24225545 1.7770001
-0.78540152 0.24431282 1.7770002
-0.7776863 0.24225545 1.7770001
0.96462458 0.17834699 1.7860001
0.97237879 0.17834699 1.7860001
0.91499758 0.18299951 1.7860001
0.92585349 0.18455037 1.7860001
0.93515861 0.18455037 1.7860001
0.94446361 0.18455037 1.7860001
0.95376867 0.18299952 1.7860001
0.98168385 0.18144867 1.7860001
-0.72114217 0.19695711 1.7860001
-0.71804047 0.19230458 1.7860001
-0.69012529 0.19385542 1.7860001
-0.68547279 0.19695711 1.7860001
-0.67461687 0.19695711 1.7860001
-0.66221011 0.19695711 1.7860001
-0.65497291 0.19488931 1.7860001
-0.64204919 0.19695711 1.7860001
0.38926169 0.19385543 1.7860001
0.39443117 0.19437239 1.7860001
0.4637022 0.19695711 1.7860001
0.52573591 0.19695711 1.7860001
0.53504097 0.19695711 1.7860001
0.54744774 0.19695711 1.7860001
0.56683326 0.19385542 1.7860001
0.58776963 0.19385542 1.7860001
0.59087133 0.19385542 1.7860001
0.61568487 0.19385543 1.7860001
0.64670169 0.19488931 1.7860001
0.65755761 0.19230458 1.7860001
0.66531181 0.19075374 1.7860001
0.67461693 0.19075374 1.7860001
0.68237108 0.19075374 1.7860001
0.69477785 0.19385542 1.7860001
0.70563376 0.19230458 1.7860001
0.73665059 0.19075374 1.7860001
0.742854 0.19075374 1.7860001
-0.75215906 0.20936386 1.7860001
-0.74595565 0.20936386 1.7860001
-0.73509973 0.20626214 1.7860001
-0.72579467 0.20160964 1.7860001
-0.68237108 0.2000588 1.7860001
-0.67461693 0.2000588 1.7860001
-0.66655254 0.20191982 1.7860001
-0.65600675 0.20936386 1.7860001
-0.64359999 0.20316048 1.7860001
-0.61723566 0.20160964 1.7860001
-0.60560429 0.20238507 1.7860001
0.2822535 0.20936386 1.7860001
0.29310939 0.20936386 1.7860001
0.30551615 0.20936386 1.7860001
0.36754987 0.20936386 1.7860001
0.37547642 0.20660679 1.7860001
0.38512611 0.20212659 1.7860001
0.43578699 0.20316048 1.7860001
0.44509205 0.20316049 1.7860001
0.45517251 0.20238505 1.7860001
0.5102275 0.2000588 1.7860001
0.52263421 0.2000588 1.7860001
-0.76404881 0.21660113 1.7860001
-0.75526077 0.21556723 1.7860001
-0.74518025 0.21556723 1.7860001
-0.73975229 0.21866892 1.7860001
-0.65600675 0.21246554 1.7860001
0.094601452 0.21866892 1.7860001
0.10390651 0.21763504 1.7860001
0.11631325 0.21866892 1.7860001
0.13802506 0.21866892 1.7860001
0.14267759 0.21556723 1.7860001
0.15353349 0.21556723 1.7860001
0.16594025 0.21866892 1.7860001
0.17524531 0.21866892 1.7860001
0.19385543 0.21866892 1.7860001
0.20440117 0.21680792 1.7860001
0.21866892 0.21556723 1.7860001
0.22332144 0.21556723 1.7860001
0.2326265 0.21556723 1.7860001
0.24193156 0.21556723 1.7860001
0.26829591 0.21556723 1.7860001
0.27605012 0.21866892 1.7860001
0.28442469 0.2149469 1.7860001
0.29155856 0.21246554 1.7860001
0.30629155 0.21324097 1.7860001
0.31171951 0.21556723 1.7860001
0.33498216 0.21556723 1.7860001
0.34583807 0.21556723 1.7860001
0.35514313 0.21556723 1.7860001
0.36496514 0.21505028 1.7860001
0.3722024 0.21246554 1.7860001
-0.77076924 0.22487229 1.7860001
-0.76456583 0.22332145 1.7860001
-0.75588107 0.22301129 1.7860001
-0.74905735 0.22487229 1.7860001
0.077542171 0.22797398 1.7860001
0.084520966 0.22409686 1.7860001
0.12716916 0.2217706 1.7860001
0.13337253 0.2217706 1.7860001
0.14733012 0.2217706 1.7860001
-0.93826026 0.23727904 1.7860001
-0.81264192 0.23727904 1.7860001
-0.78007424 0.23417735 1.7860001
-0.77232003 0.23107566 1.7860001
-0.94446361 0.24503325 1.7860001
-0.86226892 0.24038072 1.7860001
-0.85606551 0.24193156 1.7860001
-0.84831131 0.24348241 1.7860001
-0.82039613 0.24038072 1.7860001
-0.78317595 0.24141461 1.7860001
0.93363637 0.17924571 1.7950001
0.94922298 0.17924571 1.7950001
0.95857489 0.17924571 1.7950001
0.96325088 0.17924571 1.7950001
0.98663074 0.17924571 1.7950001
-0.58449692 0.18859766 1.7950001
-0.57826227 0.187039 1.7950001
0.57670361 0.18859766 1.7950001
0.66554713 0.18859766 1.7950001
0.67178178 0.18859766 1.7950001
0.68269235 0.18859766 1.7950001
0.72477615 0.18859766 1.7950001
0.73568678 0.18859766 1.7950001
0.74192137 0.18859766 1.7950001
0.9242844 0.18236303 1.7950001
0.93519503 0.18236303 1.7950001
0.94610566 0.18236303 1.7950001
0.95389891 0.18236303 1.7950001
-0.73724544 0.19794962 1.7950001
-0.72633481 0.19639096 1.7950001
-0.69048566 0.1948323 1.7950001
-0.68425101 0.19794962 1.7950001
-0.6748991 0.19794962 1.7950001
-0.66554713 0.19639096 1.7950001
-0.65307784 0.1948323 1.7950001
-0.64684325 0.1948323 1.7950001
-0.61255276 0.19794962 1.7950001
-0.60475945 0.19794962 1.7950001
-0.5907315 0.19327363 1.7950001
-0.58449692 0.19572298 1.7950002
-0.57826227 0.19794962 1.7950001
0.37875399 0.19794962 1.7950001
0.38602769 0.19587141 1.7950001
0.40369251 0.1948323 1.7950001
0.41772044 0.19794962 1.7950001
0.45824558 0.19794962 1.7950001
0.46448019 0.1948323 1.7950001
0.47539079 0.19794962 1.7950001
0.48162544 0.19794962 1.7950001
0.50656396 0.19794962 1.7950001
0.51591593 0.19794962 1.7950001
0.52838516 0.1948323 1.7950001
0.53384048 0.19561163 1.7950001
0.54553044 0.19794962 1.7950001
0.55799973 0.19794962 1.7950001
0.56579298 0.1948323 1.7950001
0.59384882 0.19327363 1.7950001
0.60320079 0.1948323 1.7950001
0.61255276 0.1948323 1.7950001
0.65619516 0.19275409 1.7950001
0.70918953 0.19171499 1.7950001
-0.76218396 0.20730156 1.7950001
-0.75532585 0.20605464 1.7950001
-0.74503869 0.20418426 1.7950001
-0.73412818 0.20106694 1.7950001
-0.62606114 0.20314515 1.7950001
-0.61567008 0.20418423 1.7950001
-0.60475945 0.2026256 1.7950001
-0.59423852 0.2037946 1.7950001
-0.58494228 0.20329361 1.7950002
-0.57826227 0.20262559 1.7950001
0.27899984 0.20730156 1.7950001
0.36706406 0.20652223 1.7950001
0.3750132 0.20231386 1.7950001
0.38187131 0.20106693 1.7950001
0.43330702 0.20106693 1.7950001
0.44421765 0.20210604 1.7950001
0.45356959 0.20106694 1.7950001
-0.77340627 0.21603005 1.7950001
-0.76530129 0.21119821 1.7950001
-0.75906664 0.21041888 1.7950001
0.079491578 0.21977083 1.7950001
0.086349666 0.2185239 1.7950001
0.095078163 0.21769261 1.7950001
0.10287145 0.21665351 1.7950001
0.11066475 0.21665351 1.7950001
0.12625133 0.21977083 1.7950001
0.13404462 0.21977083 1.7950001
0.14651388 0.21977083 1.7950001
0.15326808 0.21769261 1.7950001
0.16521779 0.21665351 1.7950001
0.17456974 0.21665351 1.7950001
0.18548036 0.21977083 1.7950001
0.1948323 0.21665351 1.7950001
0.20106693 0.21665351 1.7950001
0.21197754 0.2135362 1.7950001
0.22912279 0.21665351 1.7950001
0.2322401 0.2135362 1.7950001
0.24782668 0.2135362 1.7950001
0.27632785 0.21442688 1.7950002
0.28419539 0.2135362 1.7950001
0.29562554 0.211458 1.7950001
0.30082107 0.2135362 1.7950001
0.32575959 0.21665351 1.7950001
0.33511156 0.2135362 1.7950001
0.34446353 0.21197757 1.7950001
0.3538155 0.21197757 1.7950001
0.36254394 0.21166582 1.7950001
-0.78348559 0.22652501 1.7950001
-0.77777052 0.22600548 1.7950001
0.075854711 0.22496635 1.7950001
0.082608894 0.22288814 1.7950001
-0.82141298 0.23847473 1.7950001
-0.8158018 0.23348704 1.7950001
-0.79023981 0.23847473 1.7950001
-0.78400522 0.23535743 1.7950002
-0.77673143 0.23639652 1.7950001
-0.97572017 0.24470937 1.7950001
-0.94766432 0.24782668 1.7950001
-0.79460406 0.24221551 1.7950001
-0.59212697 0.18954328 1.8040001
-0.58533889 0.18745467 1.8040003
-0.57646221 0.18954328 1.8040001
0.57489574 0.18954328 1.8040001
0.67515004 0.18954328 1.8040001
0.68141592 0.18954328 1.8040001
0.69081473 0.18954328 1.8040001
0.73310953 0.18954328 1.8040001
0.9195199 0.18014444 1.8040001
0.92578578 0.18171091 1.8040001
0.93361813 0.18014444 1.8040001
0.94458342 0.18014446 1.8040003
0.95398229 0.18014444 1.8040001
0.96024817 0.18014444 1.8040001
0.98844469 0.18014444 1.8040001
-0.75504017 0.19894212 1.8040001
-0.74564135 0.19737564 1.8040001
-0.73467606 0.19789782 1.8040003
-0.72841012 0.19267623 1.8040001
-0.69081473 0.19580917 1.8040001
-0.68454885 0.19580917 1.8040003
-0.67515004 0.19580917 1.8040001
-0.66888416 0.19580917 1.8040001
-0.6532194 0.19580917 1.8040001
-0.64173198 0.19789782 1.8040003
-0.63520491 0.19815889 1.8040001
-0.62580609 0.19815889 1.8040001
-0.61562407 0.19789782 1.8040003
-0.60544193 0.19659242 1.8040001
-0.59630424 0.1968535 1.8040001
-0.58220595 0.19372055 1.8040003
-0.5752874 0.19620079 1.804
-0.56758553 0.19789782 1.8040003
0.37517038 0.19815889 1.8040001
0.38300273 0.1942427 1.8040001
0.44957787 0.19894212 1.8040001
0.45584378 0.19789782 1.8040003
0.46524259 0.19372055 1.8040003
0.47385818 0.19502594 1.8040001
0.48404026 0.19737566 1.8040001
0.49813855 0.19894212 1.8040001
0.50283796 0.19894212 1.8040001
0.51380324 0.19894212 1.8040001
0.52476859 0.19894212 1.8040003
0.53730035 0.19267623 1.8040001
0.54461062 0.19476485 1.8040003
0.55923098 0.19580917 1.8040001
0.56549686 0.19476485 1.8040003
0.59839284 0.19267623 1.8040001
0.60622519 0.19580917 1.8040001
0.61249107 0.19580917 1.8040001
0.62815583 0.19267623 1.8040001
0.65635234 0.19267623 1.8040001
0.6955142 0.19267623 1.8040001
0.70491302 0.19267623 1.8040001
-0.77462107 0.20755772 1.8040001
-0.76600552 0.20468587 1.8040001
-0.75504017 0.20207506 1.8040001
-0.63442171 0.20207506 1.8040003
-0.61249107 0.20520802 1.8040001
-0.57802868 0.20207506 1.8040001
-0.56862986 0.20207506 1.8040001
-0.53103447 0.20364153 1.8040001
-0.52790153 0.20520802 1.8040001
0.27569932 0.20834096 1.8040001
0.34932357 0.20834096 1.8040001
0.35872242 0.20834096 1.8040001
0.36577153 0.205208 1.8040001
0.37125421 0.20207506 1.8040001
0.44174549 0.20207506 1.8040001
-0.78167027 0.21460685 1.8040003
-0.7769708 0.21147391 1.8040001
0.079890139 0.21773981 1.8040001
0.086156033 0.21565118 1.8040003
0.095554881 0.21565115 1.8040003
0.10338724 0.21460685 1.8040001
0.12375139 0.21773981 1.8040003
0.1347167 0.21773981 1.8040001
0.15664734 0.21460685 1.8040001
0.16291323 0.21460685 1.8040001
0.17544502 0.21460685 1.8040001
0.18484387 0.21773981 1.8040001
0.20677449 0.21460685 1.8040001
0.22713864 0.21460685 1.8040001
0.23967043 0.21460685 1.8040001
0.24593632 0.21460685 1.8040001
0.27569932 0.21147391 1.8040001
0.32582647 0.21460685 1.8040001
0.33574748 0.21251822 1.8040003
-0.79106903 0.2240057 1.8040003
-0.78480315 0.22243923 1.8040001
0.066314034 0.22191708 1.8040003
0.072997652 0.22212593 1.8040001
-0.82657576 0.2365375 1.8040003
-0.80281764 0.23888719 1.8040001
-0.79545522 0.23528431 1.8040001
-0.98374528 0.24280338 1.8040001
-0.9774794 0.24436985 1.8040001
-0.96526092 0.24781609 1.8040001
-0.95554876 0.2475028 1.8040001
-0.86312681 0.24280338 1.8040001
-0.856861 0.24280338 1.8040003
-0.8349303 0.24280338 1.8040003
-0.65369004 -0.21264617 1.8140001
-0.63163787 -0.17169209 1.8140001
0.93721825 0.1779927 1.8140001
0.94194371 0.1779927 1.8140001
0.9939239 0.1779927 1.8140001
-0.59488428 0.18639354 1.8140001
-0.57493222 0.18744366 1.8140001
0.74819946 0.18744364 1.8140001
0.92146665 0.18114302 1.8140001
0.93249273 0.18114302 1.8140001
-0.7718268 0.19689459 1.8140001
-0.75450009 0.19426934 1.8140001
-0.7456792 0.19437435 1.8140001
-0.73769844 0.19479439 1.8140001
-0.69464409 0.19374427 1.8140001
-0.67574227 0.19531943 1.8140001
-0.6505397 0.19689459 1.8140001
-0.64738941 0.19689459 1.8140001
-0.63321304 0.19531943 1.8140001
-0.62533724 0.19610702 1.8140001
-0.61588627 0.19689459 1.8140001
-0.60328507 0.19374427 1.8140001
-0.57335705 0.19216913 1.8140001
-0.56784403 0.19453186 1.8140001
0.37646246 0.1958445 1.8140001
0.3859134 0.19374427 1.8140001
0.41111591 0.19689459 1.8140001
0.4583706 0.19689459 1.8140001
0.46624637 0.19216911 1.8140001
0.47412217 0.19216911 1.8140001
0.48357314 0.19479439 1.8140001
0.51822656 0.19689459 1.8140001
0.52295202 0.19689459 1.8140001
0.53397816 0.19479439 1.8140001
0.5497297 0.19689459 1.8140001
0.5576055 0.19689459 1.8140001
0.56548131 0.19374427 1.8140001
0.57493222 0.19059396 1.8140001
0.60801053 0.19374427 1.8140001
0.61273599 0.19374427 1.8140001
0.62533724 0.19374427 1.8140001
0.63478816 0.19374427 1.8140001
0.64108878 0.19374427 1.8140001
0.6662913 0.19059396 1.8140001
0.69779444 0.19059396 1.8140001
0.70251989 0.19059396 1.8140001
0.71827149 0.19059396 1.8140001
0.72614729 0.19059396 1.8140001
0.75450009 0.19059396 1.8140001
-0.7923038 0.20949584 1.8140001
-0.78600323 0.20555796 1.8140001
-0.77565223 0.20229512 1.8140002
-0.76710135 0.2000449 1.8140001
-0.56548125 0.2000449 1.8140001
-0.5497297 0.2000449 1.8140001
-0.53397816 0.2021451 1.8140001
0.25044993 0.20949584 1.8140001
0.34495935 0.20949584 1.8140001
0.35441026 0.20844576 1.8140001
0.36596143 0.20319521 1.8140001
0.37016183 0.2000449 1.8140001
0.42686746 0.2000449 1.8140001
0.43474326 0.2000449 1.8140001
0.44734448 0.2000449 1.8140001
0.49459922 0.2000449 1.8140001
0.50877559 0.2000449 1.8140001
0.55918062 0.2000449 1.8140001
-0.79356396 0.21642654 1.8140001
-0.78915352 0.21579647 1.8140001
0.07718268 0.21894678 1.8140001
0.081908152 0.21579647 1.8140001
0.096084557 0.21579647 1.8140001
0.10868581 0.21579647 1.8140001
0.11498644 0.21789669 1.8140001
0.13703863 0.21579647 1.8140001
0.14491442 0.21737163 1.8140001
0.15594052 0.21369627 1.8140001
0.16617905 0.21343374 1.8140001
0.17169209 0.21579647 1.8140001
0.19531943 0.21579647 1.8140001
0.20162006 0.21579647 1.8140001
0.23469836 0.21579647 1.8140001
0.24572444 0.21422131 1.8140001
0.25044993 0.21264616 1.8140001
0.33550838 0.21264616 1.8140001
-0.79860443 0.22524743 1.8140001
-0.97187167 0.23784867 1.8140001
-0.8122558 0.23574845 1.8140001
-0.80490512 0.23469837 1.8140001
-0.99077356 0.24099898 1.8140001
-0.98447293 0.2420491 1.8140001
-0.97502208 0.24414933 1.8140002
-0.96557111 0.2462495 1.8140001
-0.95612013 0.24099898 1.8140001
-0.86318588 0.24099898 1.8140001
-0.84270883 0.24099898 1.8140001
-0.83798337 0.24099898 1.8140001
-0.96872139 0.25044993 1.8140001
-0.663629 -0.21223456 1.8240001
-0.63511986 -0.17580624 1.8240001
-0.68263507 0.052266721 1.8240001
-0.67946738 0.052266721 1.8240001
0.93604946 0.17897394 1.8240001
0.94555253 0.17580625 1.8240001
0.95505553 0.17897393 1.8240001
0.9645586 0.17897394 1.8240001
0.97247779 0.17897393 1.8240001
-0.57176626 0.18847696 1.8240001
0.4783197 0.18847696 1.8240001
0.48307121 0.18847696 1.8240001
0.63353598 0.18847696 1.8240001
0.6683805 0.18847696 1.8240001
0.67471588 0.18847696 1.8240001
0.68580282 0.18847696 1.8240001
0.69530576 0.18847696 1.8240001
0.70322502 0.18847696 1.8240001
0.74757254 0.18847696 1.8240001
0.75549167 0.18847696 1.8240001
-0.76341093 0.19164464 1.8240001
-0.75865936 0.19164464 1.8240001
-0.74757254 0.19322848 1.8240001
-0.70322502 0.19481233 1.8240001
-0.69372189 0.19481233 1.8240001
-0.68738663 0.19481233 1.8240001
-0.67946738 0.19481233 1.8240001
-0.66679668 0.19481233 1.8240001
-0.64145523 0.19798 1.8240001
-0.63828754 0.19481233 1.8240001
-0.62244916 0.19481233 1.8240001
-0.61611384 0.19481234 1.8240001
-0.6050269 0.19164464 1.8240001
-0.56543088 0.19692412 1.8240001
-0.55671978 0.19718808 1.8240001
-0.54008943 0.19798 1.8240001
-0.5369218 0.19798 1.8240001
0.36903474 0.19798 1.8240001
0.37537009 0.19639617 1.8240001
0.44822672 0.19798 1.8240001
0.45456213 0.19798002 1.8240001
0.46564898 0.19322848 1.8240001
0.4783197 0.19164464 1.8240001
0.4862389 0.19270055 1.8240001
0.49495 0.19718808 1.8240001
0.50630087 0.19692412 1.8240001
0.51633185 0.19798 1.8240001
0.52425104 0.19481233 1.8240001
0.5321703 0.19639617 1.8240001
0.54959249 0.19481233 1.8240001
0.55592787 0.19481234 1.8240001
0.56543088 0.19322848 1.8240001
0.57335007 0.19164464 1.8240001
0.60819459 0.19164464 1.8240001
0.61690569 0.19243658 1.8240001
0.62482488 0.19243658 1.8240001
0.63511986 0.19164464 1.8240001
0.64462292 0.19481233 1.8240001
0.65412593 0.19481234 1.8240001
0.66046131 0.19481233 1.8240001
0.71431184 0.19164464 1.8240001
-0.7950877 0.20589921 1.8240001
-0.78558469 0.20114769 1.8240001
-0.56384706 0.20114769 1.8240001
-0.55592793 0.20220357 1.8240001
-0.54404902 0.20273152 1.8240001
-0.53137839 0.20352344 1.8240001
-0.52470362 0.20341031 1.8240004
0.34527713 0.20748305 1.8240001
0.35583609 0.20589921 1.8240002
0.36396644 0.20368183 1.8240002
0.44505906 0.20114769 1.8240001
-0.7998392 0.21223456 1.8240001
0.087111205 0.21223456 1.8240001
0.091334783 0.21276252 1.8240001
0.12512337 0.2169861 1.8240001
0.13304257 0.21698609 1.8240001
0.14412944 0.21698609 1.8240001
0.1504648 0.21698609 1.8240001
0.17422241 0.2138184 1.8240001
0.18530929 0.2169861 1.8240001
0.19164464 0.21698609 1.8240001
0.24391136 0.2138184 1.8240001
0.33260641 0.2138184 1.8240001
0.3405256 0.21065073 1.8240001
-0.80617458 0.22807297 1.8240001
0.072856642 0.22015376 1.8240001
-0.99465156 0.23915985 1.8240001
-0.98419821 0.2385263 1.8240002
-0.97564542 0.23757601 1.8240001
-0.95822322 0.23915985 1.8240001
-0.84260291 0.23915985 1.8240001
-0.83785141 0.23915985 1.8240001
-0.81250995 0.23282449 1.8240001
-0.80934227 0.23282449 1.8240001
-0.98514855 0.24232753 1.8240001
-0.97247779 0.24391136 1.8240001
-0.96614242 0.2454952 1.8240001
-0.88378274 0.24232753 1.8240001
-0.87586355 0.24232754 1.8240001
-0.86160898 0.24232753 1.8240001
-0.85210598 0.24232753 1.8240001
-0.67167842 -0.21169013 1.8330001
-0.66212845 -0.21169013 1.8330001
-0.65417022 -0.21169013 1.8330001
-0.67220896 -0.2063846 1.8330001
-0.66435683 -0.20723347 1.8330001
-0.65417022 -0.20850681 1.8330001
-0.6478036 -0.20691516 1.8330001
-0.63825369 -0.18304034 1.8330001
-0.64143699 -0.17189875 1.8330001
-0.63825369 -0.17985702 1.8330001
-0.68600333 -0.0079582753 1.8330001
-0.68600333 0.055707928 1.8330001
0.9343015 0.17985702 1.8330001
0.94385147 0.17667371 1.8330001
0.959768 0.17985702 1.8330001
0.98205119 0.17985702 1.8330001
1.005926 0.17826536 1.8330001
-0.61278719 0.18940695 1.8330001
-0.60642064 0.18834585 1.8330001
-0.56291538 0.18834585 1.8330001
-0.55548763 0.18940696 1.8330001
0.4743132 0.18940695 1.8330001
0.56822085 0.18940695 1.8330001
0.57777077 0.18940695 1.8330001
0.58095407 0.18940695 1.8330001
0.61703163 0.18834585 1.8330001
0.62552047 0.18940696 1.8330001
0.63347876 0.18781529 1.8330001
0.6446203 0.18940695 1.8330001
0.65098691 0.18940695 1.8330001
0.68282002 0.18940695 1.8330001
0.71465313 0.18940696 1.8330001
0.72261143 0.18940695 1.8330001
0.76240277 0.18940695 1.8330001
-0.77354431 0.19895688 1.8330001
-0.76876938 0.19736522 1.8330001
-0.74807787 0.19259027 1.8330001
-0.70191985 0.19259027 1.8330001
-0.69555324 0.19259028 1.8330001
-0.68494225 0.19365136 1.8330001
-0.67327011 0.19471249 1.8330001
-0.66372013 0.19577357 1.8330001
-0.65417022 0.19577357 1.8330001
-0.64621198 0.19577357 1.8330001
-0.63507038 0.19577357 1.8330001
-0.62552047 0.19365136 1.8330001
-0.61597049 0.19259028 1.8330001
-0.57140416 0.19259027 1.8330001
-0.56567425 0.19386362 1.8330001
-0.55503291 0.19486408 1.8330002
-0.54530096 0.19641022 1.8330001
-0.53479606 0.19816104 1.8330001
-0.52524614 0.19895688 1.8330001
0.36608067 0.19895688 1.8330001
0.37563059 0.19577357 1.8330001
0.38199723 0.19259027 1.8330001
0.41860527 0.19895688 1.8330001
0.42497191 0.19895689 1.8330001
0.43452185 0.19895689 1.8330001
0.44407177 0.19895689 1.8330001
0.49500471 0.19418192 1.8330001
0.50455463 0.19683468 1.8330001
0.5141046 0.19577357 1.8330001
0.52365458 0.19471249 1.8330001
0.5332045 0.19386362 1.8330001
0.54593766 0.19259028 1.8330001
0.55548763 0.19259028 1.8330001
0.56503761 0.19259028 1.8330001
0.60642058 0.19259027 1.8330001
0.64621198 0.19259027 1.8330001
0.65417027 0.19259028 1.8330001
0.66531181 0.19259027 1.8330001
-0.55230433 0.2021402 1.8330001
-0.54912096 0.20373185 1.8330001
-0.52285874 0.20611933 1.8330001
0.34538919 0.2063846 1.8330001
0.35493907 0.20320129 1.8330001
0.36130568 0.2021402 1.8330001
-0.81015241 0.21646509 1.8330001
-0.80696911 0.21487343 1.8330001
0.031833101 0.21805674 1.8330001
0.077991098 0.21805674 1.8330001
0.084357716 0.21328178 1.8330001
0.09709096 0.21487343 1.8330001
0.10027426 0.21487343 1.8330001
0.11778247 0.21805674 1.8330001
0.12574075 0.21407761 1.8330001
0.13529068 0.21487343 1.8330001
0.1448406 0.21646509 1.8330001
0.15439054 0.21487343 1.8330001
