# .PCD v0.7 - Point Cloud Data file format
VERSION 0.7
FIELDS x y z
SIZE 4 4 4
TYPE F F F
COUNT 1 1 1
WIDTH 1504
HEIGHT 1
VIEWPOINT 0 0 0 1 0 0 0
POINTS 1504
DATA ascii
-0.22344318 0.11488624 1.1750002
-0.2963995 0.12833793 1.1730001
-0.22371946 0.1246109 1.1746669
-0.29843661 0.13546781 1.1730001
-0.22255278 0.13420932 1.173889
-0.21868137 0.13671736 1.1750001
-0.21325807 0.14423493 1.1742309
-0.20766205 0.14753717 1.1764287
-0.20333695 0.15437399 1.1746473
-0.19613102 0.15648334 1.1760589
-0.18805322 0.15841439 1.177
-0.17374483 0.15330425 1.177
-0.20235597 0.16310687 1.174
-0.19381642 0.1638933 1.174778
-0.18525375 0.16490206 1.177
-0.17451134 0.16505757 1.177
-0.16488726 0.16590928 1.177
-0.15631652 0.16612451 1.1766001
-0.14751278 0.16113982 1.177
-0.19250691 0.17009869 1.1730001
-0.18425468 0.17374308 1.1756002
-0.17520486 0.17374483 1.177
-0.16438934 0.17240833 1.177
-0.15658545 0.17205593 1.1764287
-0.18215697 0.18215927 1.1763334
-0.2809175 0.20676668 1.1730002
-0.27806553 0.20574811 1.1730001
-0.28320077 0.21517622 1.1744119
-0.27652597 0.21588781 1.173667
-0.2810578 0.22178015 1.177
-0.27446717 0.22544314 1.1762002
-0.26602277 0.22484675 1.1738001
0.62266266 0.22542965 1.1747144
0.63059151 0.22178015 1.177
0.50418472 0.23936044 1.1730002
0.5121882 0.23874652 1.1750001
0.14361626 0.24954598 1.1730001
0.222045 0.24954598 1.1730001
0.23460719 0.24954598 1.1730001
0.24686284 0.24930735 1.1738001
0.25533807 0.24751984 1.1746669
0.26380575 0.24750887 1.1730001
0.27704698 0.24750887 1.1730001
0.28701317 0.24662144 1.1746
0.2948643 0.24854131 1.1750002
0.30403969 0.24798906 1.1736668
0.31544667 0.24670886 1.1756668
0.32528722 0.24880877 1.1743335
0.33614939 0.24930738 1.1738001
0.34330022 0.24812971 1.1743335
0.35791922 0.24710886 1.1743335
0.36587337 0.24680421 1.1745001
0.37493703 0.24582951 1.1747144
0.38477677 0.24597402 1.1754001
0.39553079 0.24554962 1.1750001
0.40278658 0.24371138 1.1743335
0.41658902 0.24547176 1.1730001
0.42507854 0.24654885 1.1762002
0.43580872 0.24393272 1.1754001
0.44490084 0.24254027 1.1746
0.45597312 0.24581128 1.1730002
0.4636021 0.24541795 1.1741431
0.47606525 0.24262536 1.1756668
0.48540336 0.2428277 1.1750001
0.49433219 0.24129812 1.1750001
-0.27297276 0.25973153 1.1730001
-0.21389656 0.25973153 1.1730001
-0.094943278 0.25828028 1.1756668
-0.085418247 0.25828028 1.1756668
-0.074354522 0.25769445 1.1730002
-0.063677743 0.25865307 1.1747144
-0.056505751 0.25886077 1.1746
-0.044641193 0.25746137 1.1738001
-0.035868406 0.25793219 1.1740911
-0.02805889 0.25711176 1.1750001
-0.016011778 0.25652915 1.177
-0.0048420439 0.25602007 1.1735002
0.0046912576 0.25571308 1.1742003
0.013934146 0.25322831 1.1743335
0.024257587 0.25256953 1.1738001
0.035675131 0.25338435 1.1738001
0.044857234 0.25383642 1.174
0.054092478 0.25413916 1.1754001
0.063201644 0.25383642 1.174
0.074486509 0.25303063 1.1750001
0.081762269 0.25244102 1.177
0.097092703 0.25244102 1.177
0.10499887 0.25281614 1.174
0.11651123 0.25244102 1.177
0.1250882 0.25273582 1.1760001
0.13765892 0.25186908 1.1743335
0.16542706 0.25120449 1.1760001
0.17453344 0.25209787 1.1754001
0.18448143 0.2517547 1.1738001
0.19454402 0.2515831 1.1730002
0.20542769 0.25244102 1.177
0.2108409 0.2515831 1.1730001
0.22822796 0.2506935 1.1760001
0.23404449 0.25039694 1.177
0.24119869 0.25039694 1.177
0.33420327 0.25039694 1.177
-0.63459748 0.26954255 1.1743335
-0.52408248 0.26678044 1.1758573
-0.51487148 0.2652269 1.1741431
-0.5050444 0.26459509 1.1750002
-0.49626178 0.26342428 1.1743335
-0.48992497 0.26380575 1.1730001
-0.47566521 0.26787996 1.1730001
-0.46530113 0.26498184 1.1746
-0.43464601 0.26425555 1.1750001
-0.42369124 0.26347876 1.1741431
-0.41457096 0.26337656 1.1745001
-0.40512469 0.26309872 1.173889
-0.39451337 0.26301035 1.174
-0.38939279 0.26266128 1.177
-0.37686536 0.26278719 1.1730001
-0.36793023 0.26266128 1.177
-0.35480338 0.26425558 1.1750001
-0.34456801 0.26489496 1.1763334
-0.33556309 0.2625331 1.1746
-0.32513928 0.26235458 1.1738001
-0.31473351 0.26380575 1.1730002
-0.30512124 0.26297155 1.1743336
-0.29712373 0.26273224 1.1747144
-0.28245816 0.26342428 1.1743335
-0.27547818 0.26153362 1.1750001
-0.26489493 0.26217183 1.1763334
-0.25455341 0.26271644 1.1752224
-0.24514499 0.26285201 1.1763334
-0.23711058 0.26266128 1.177
-0.22513765 0.26448131 1.1747144
-0.21546951 0.26171035 1.1747779
-0.11331432 0.26236373 1.1756668
-0.10765024 0.26330039 1.1762002
-0.64285582 0.27083752 1.177
-0.63570166 0.27083752 1.177
-0.21797077 0.27195418 1.1730001
-0.30629098 -0.14128682 1.1876668
-0.28653958 -0.1412075 1.187
-0.32098204 -0.13023871 1.1810001
-0.31503412 -0.13208461 1.1810001
-0.30616194 -0.13431783 1.1857271
-0.29218289 -0.13112095 1.189
-0.28496611 -0.13476633 1.1847335
-0.27175796 -0.13844272 1.1810001
-0.26753002 -0.13839713 1.1850001
-0.32239008 -0.12483309 1.1867145
-0.31430015 -0.12493319 1.1821764
-0.30532566 -0.12647557 1.1828668
-0.2971487 -0.12805919 1.1874
-0.23849557 -0.12286136 1.189
-0.32212389 -0.11460176 1.189
-0.31481183 -0.11555555 1.1839999
-0.32109144 -0.10840708 1.189
-0.31462988 -0.10449784 1.1836668
-0.31381169 -0.097079836 1.1818002
-0.22321755 0.11930003 1.1810001
-0.22188175 0.1284048 1.1830001
-0.22220781 0.13086174 1.1820002
-0.21476403 0.13584478 1.1834003
-0.20521787 0.13646816 1.1816667
-0.19567761 0.13695639 1.1823335
-0.18461476 0.13756007 1.186667
-0.17603245 0.13808995 1.189
-0.16312686 0.13938053 1.189
-0.15486726 0.13938053 1.189
-0.21227884 0.14151925 1.1810002
-0.20458758 0.14382663 1.181
-0.19587082 0.14459573 1.1809999
-0.18529718 0.1444741 1.1818888
-0.17512971 0.14498208 1.1834999
-0.16520643 0.1450424 1.1846799
-0.1554421 0.14547798 1.1868331
-0.14570002 0.14597876 1.1877271
-0.13648014 0.14773627 1.1882728
-0.12595871 0.14970501 1.189
-0.11666667 0.14970502 1.189
-0.20202383 0.15074874 1.1810001
-0.19464023 0.15218444 1.1810001
-0.18534829 0.15449408 1.181
-0.17544995 0.15493995 1.181
-0.16510577 0.15485075 1.1809999
-0.15503706 0.15503706 1.1824398
-0.14488654 0.15516323 1.1833999
-0.13488451 0.15547845 1.1857997
-0.12472369 0.15564378 1.1870798
-0.11515924 0.15562361 1.1876665
-0.10634219 0.15672567 1.189
-0.096017703 0.1579646 1.189
-0.089823008 0.1579646 1.189
-0.1825393 0.16100377 1.1810001
-0.17581658 0.16419421 1.1810001
-0.16422677 0.16158977 1.1810002
-0.15348342 0.16401191 1.1810001
-0.1441296 0.1655719 1.181
-0.13472211 0.16557357 1.1843598
-0.12442082 0.16555063 1.1841999
-0.11404314 0.16528796 1.1855924
-0.10446982 0.16473475 1.187857
-0.095433027 0.16498691 1.1881664
-0.089233048 0.16474925 1.189
-0.17480144 0.17666598 1.181
-0.16510577 0.17761689 1.1810001
-0.15408266 0.17563604 1.1818573
-0.14476611 0.1745449 1.1824
-0.13463511 0.17472138 1.1835998
-0.12441915 0.17481115 1.1841999
-0.11433085 0.17510535 1.1861999
-0.10415311 0.17530973 1.1875999
-0.095045991 0.17472668 1.1889999
-0.088790566 0.17138642 1.189
-0.1758115 0.18405074 1.1850001
-0.16545466 0.18240336 1.1867778
-0.15514946 0.18148717 1.1867778
-0.14519466 0.18130085 1.1880001
-0.13448545 0.18092132 1.1883334
-0.12469681 0.18159617 1.189
-0.11511799 0.18171091 1.189
-0.10456657 0.18133444 1.1855716
-0.097209796 0.18103944 1.1855714
0.63693553 0.21917169 1.1850001
-0.29070845 0.22188175 1.1830001
-0.28594041 0.22434457 1.1822307
-0.27927828 0.22595221 1.1810001
0.62603152 0.22302464 1.1858001
0.63364285 0.22163983 1.1850001
0.51551652 0.23975118 1.1850001
0.15690175 0.24919692 1.1810001
0.2137168 0.24882005 1.189
0.22714648 0.24872945 1.1836668
0.23421034 0.24858993 1.1830002
0.24723518 0.24846856 1.1834002
0.25483662 0.24603669 1.1827143
0.26637167 0.24882005 1.189
0.27712077 0.24838069 1.182
0.28401709 0.24564603 1.1836668
0.29531324 0.24643606 1.1850001
0.30411667 0.24697301 1.1845556
0.31467411 0.24666727 1.1866001
0.32449967 0.24736038 1.1845001
0.3359279 0.2477265 1.1853077
0.34459326 0.24588802 1.1840773
0.35396323 0.24653892 1.1850002
0.36459863 0.24569406 1.1850001
0.37480915 0.24496004 1.1836668
0.38559848 0.2449813 1.183286
0.39503917 0.24438718 1.1839091
0.40347022 0.24338573 1.1843334
0.41467693 0.24489605 1.1850001
0.4248628 0.24571924 1.1856668
0.43485865 0.24376188 1.1853335
0.44463161 0.24278404 1.186
0.45574263 0.24408779 1.184273
0.46517316 0.24354623 1.1850002
0.47395286 0.24237245 1.184
0.48534539 0.24215698 1.1867144
0.49455652 0.24087055 1.1850001
0.51415932 0.24056047 1.189
-0.27153391 0.25914454 1.189
-0.24159291 0.25914454 1.189
-0.23333333 0.25914454 1.189
-0.2281711 0.25914454 1.189
-0.21125335 0.25945193 1.1810001
-0.11150442 0.25914454 1.189
-0.10447303 0.25801051 1.1878573
-0.096081957 0.25793189 1.1861429
-0.081563421 0.25914454 1.189
-0.074314356 0.25739115 1.1845
-0.064825438 0.25635734 1.1850002
-0.054947741 0.25711787 1.1857274
-0.044766929 0.25672314 1.1832857
-0.034757432 0.2564275 1.186
-0.025264425 0.25602692 1.1856155
-0.015140634 0.2568008 1.1850001
-0.0034880952 0.25528291 1.1826001
0.0048469128 0.25449774 1.1838573
0.011318726 0.25415683 1.1850001
0.025637543 0.25329891 1.1810001
0.035685401 0.25302777 1.1838573
0.04390062 0.25346851 1.1850002
0.054192685 0.25381267 1.1850002
0.064778887 0.25398526 1.1842002
0.073836118 0.25278616 1.1810001
0.087903559 0.2534261 1.1840001
0.094858848 0.25280645 1.1855716
0.10572458 0.25260988 1.1850001
0.11477803 0.25297439 1.1855
0.12480097 0.25209689 1.1850001
0.13393088 0.25264847 1.1854445
0.14393929 0.25085545 1.1840001
0.15280235 0.25088495 1.189
0.16600335 0.25072461 1.1850002
0.1746061 0.25126576 1.1838573
0.18514848 0.25098205 1.1846002
0.19530693 0.25081322 1.1838001
0.20560735 0.25142449 1.1872222
0.21549062 0.25157705 1.1874001
0.22191563 0.25072461 1.1850002
0.23975118 0.25004092 1.1850001
0.24283811 0.25004092 1.1850001
0.27164942 0.25004092 1.1850001
0.3344169 0.25004092 1.1850001
-0.64379543 0.26924616 1.1850002
-0.63441509 0.26866013 1.1854445
-0.62669623 0.26637167 1.189
-0.53468031 0.26528135 1.1856667
-0.52546978 0.26545513 1.1855716
-0.51448232 0.2636714 1.1850002
-0.50608206 0.26331317 1.1830002
-0.49721897 0.26511607 1.188
-0.4829905 0.26718208 1.1867144
-0.47486383 0.26611394 1.1846924
-0.4661257 0.26444659 1.1850002
-0.43422052 0.26341414 1.1850001
-0.42604467 0.26339418 1.1855716
-0.41502514 0.26209211 1.186
-0.40250421 0.26370722 1.1840001
-0.3944543 0.26297128 1.1830001
-0.37488917 0.26558912 1.1850001
-0.36452106 0.26431808 1.1844287
-0.35385823 0.2640402 1.1855
-0.34594703 0.2634297 1.1845556
-0.33488145 0.26194578 1.1830001
-0.32380846 0.26229733 1.1846002
-0.31553835 0.26277557 1.1836668
-0.30501387 0.26125163 1.1838573
-0.2936216 0.26288846 1.1852859
-0.28575307 0.2629154 1.1846001
-0.2748605 0.26111192 1.187
-0.26502874 0.26114461 1.1845556
-0.25497076 0.26114461 1.1845556
-0.24481097 0.26126835 1.1846
-0.23471385 0.26214048 1.184667
-0.22601169 0.26182193 1.1840001
-0.21760462 0.26091653 1.1876668
-0.11249415 0.26097533 1.1842002
-0.10532835 0.26098195 1.1827779
-0.099810578 0.26033068 1.1850001
-0.64625967 0.27107716 1.187
-0.63253486 0.27163291 1.1855714
-0.6266458 0.27164942 1.1850001
-0.30184469 -0.14147043 1.1962
-0.2962276 -0.14150622 1.197
-0.3025915 -0.13706052 1.1947778
-0.2952325 -0.13507624 1.1935334
-0.26416004 -0.13570574 1.1930001
-0.24113965 -0.13720015 1.197
-0.22139114 -0.13616076 1.197
-0.33156702 -0.1257668 1.197
-0.32859239 -0.12521483 1.1950002
-0.24213366 -0.12613064 1.1955
-0.23536785 -0.12277383 1.1962001
-0.2286669 -0.12160922 1.197
-0.33156702 -0.11641224 1.197
-0.32643768 -0.11618117 1.1934444
-0.23204646 -0.119131 1.1930001
-0.22790277 -0.119131 1.1930001
-0.32088608 -0.10523202 1.194
-0.18439406 0.1336339 1.193
-0.1737351 0.13600323 1.1938001
-0.16463715 0.13657206 1.1936153
-0.15442519 0.13585442 1.1943336
-0.14636932 0.13806455 1.1955001
-0.14278415 0.14130229 1.1952858
-0.13514724 0.14469647 1.1954
-0.12540102 0.14617071 1.1960002
-0.1158487 0.1463168 1.1962003
-0.10575844 0.14785394 1.197
-0.094584949 0.14863349 1.197
-0.084883928 0.14828703 1.197
-0.13156205 0.15020865 1.1930001
-0.12465592 0.15020865 1.1930001
-0.11136159 0.15176253 1.1930001
-0.10416137 0.15370309 1.1936002
-0.094340719 0.15390177 1.1939093
-0.084197216 0.15439215 1.1946671
-0.075599268 0.15613589 1.1967503
-0.066313408 0.15778019 1.1970001
-0.058206119 0.15902744 1.197
-0.084171019 0.16492768 1.1938002
-0.075392134 0.16473098 1.1950872
-0.06547258 0.16524173 1.1968403
-0.055087939 0.16526382 1.1970003
-0.048158638 0.16699615 1.197
-0.090718694 0.17781079 1.194
-0.083972089 0.17511287 1.1954001
-0.074605472 0.17519581 1.1970003
-0.066247761 0.17478248 1.1970003
-0.055318911 0.1742719 1.1970003
-0.047465708 0.17473386 1.1970001
-0.17438015 0.18819246 1.1930001
-0.16440974 0.18742038 1.1938
-0.15440407 0.18652879 1.1933999
-0.14554276 0.1859694 1.1938
-0.13606623 0.18566781 1.1935714
-0.12576476 0.18652567 1.1951821
-0.11450452 0.18471971 1.1941429
-0.10877178 0.18128629 1.1930001
-0.092297755 0.18217954 1.1943334
-0.073797047 0.18293354 1.197
-0.067263715 0.18367594 1.197
-0.030142456 0.1881305 1.197
-0.024936363 0.18701252 1.1965001
-0.019033577 0.18653509 1.1956668
-0.17461836 0.19020928 1.197
-0.16412993 0.19304402 1.1970001
-0.15605776 0.19139716 1.197
-0.14447591 0.19020928 1.197
-0.13512135 0.19020928 1.197
0.63780159 0.21882378 1.1943334
0.64123553 0.21857947 1.1930001
0.62776852 0.22272317 1.1930001
0.63544446 0.22079931 1.1938
0.47292474 0.23802146 1.197
0.48584726 0.238262 1.1930001
0.49529478 0.23904262 1.1938001
0.51899678 0.23929791 1.1930001
0.18765901 0.2493467 1.194
0.19369565 0.24903628 1.1950001
0.20766941 0.24833031 1.1946
0.2147205 0.24700554 1.1952224
0.22379558 0.24808131 1.1954001
0.23243374 0.24800035 1.1950001
0.24344161 0.24965712 1.1930001
0.25172898 0.24758528 1.1930001
0.26712453 0.24841541 1.197
0.27553344 0.2494088 1.1938
0.28073478 0.24758528 1.1930001
0.29548168 0.24571924 1.194
0.30559269 0.24545068 1.1941429
0.31441599 0.24654472 1.1963334
0.32565892 0.24640754 1.1956668
0.33436435 0.24649617 1.194
0.34507915 0.24425784 1.197
0.35449854 0.24467638 1.1956669
0.36352515 0.24488562 1.1950002
0.37293181 0.24551344 1.1930001
0.38510525 0.2450949 1.1943333
0.39630753 0.2435156 1.1954001
0.40378007 0.24268405 1.1954001
0.41557956 0.24488564 1.1950001
0.4262341 0.24396484 1.1955715
0.43492302 0.24164605 1.1954001
0.4433476 0.24127772 1.1946
0.45448741 0.24281031 1.1950001
0.46467429 0.24115354 1.1945001
0.47432128 0.2409403 1.1952858
0.48536253 0.24151367 1.1949999
0.49163386 0.24010025 1.197
0.5038774 0.24105236 1.194
0.51355273 0.24145702 1.1960001
-0.53660744 0.25794449 1.1930001
-0.26088816 0.25880936 1.197
-0.23490328 0.25880936 1.197
-0.21099719 0.25049421 1.197
-0.20891841 0.25257298 1.197
-0.11338814 0.257541 1.1943334
-0.10512652 0.25695485 1.1952858
-0.094151519 0.25725183 1.1952858
-0.084190995 0.25880936 1.197
-0.074410096 0.25713754 1.1956668
-0.065397136 0.25472578 1.1954001
-0.056031816 0.25630164 1.1950001
-0.046616476 0.25794449 1.1930001
-0.034251411 0.25514016 1.1954001
-0.025984876 0.25465178 1.197
-0.015558275 0.25621587 1.1946001
-0.00621553 0.25587267 1.1930001
0.024902064 0.2542263 1.1950001
0.034278505 0.25323436 1.1962001
0.045414921 0.25303343 1.1955001
0.054563116 0.25372544 1.1946
0.063264161 0.25408447 1.1943334
0.073630333 0.25408447 1.1943334
0.086077601 0.25408447 1.1943334
0.096208446 0.25159875 1.1956668
0.10418351 0.25119981 1.1947144
0.11514292 0.25206658 1.1946001
0.12633534 0.2511116 1.1950001
0.13530581 0.25119981 1.1947143
0.14215747 0.2511116 1.1950001
0.15460415 0.25215098 1.1950001
0.1673426 0.25049421 1.197
0.17645198 0.25172898 1.1930001
0.18293352 0.25049421 1.197
0.19852445 0.25049421 1.197
0.20268202 0.25049421 1.197
0.27336088 0.25049421 1.197
-0.65170068 0.26920331 1.197
-0.64334822 0.26875353 1.1950001
-0.63462275 0.26483944 1.1941999
-0.62880445 0.26208818 1.1930001
-0.54178703 0.26416004 1.1930001
-0.53593922 0.26338458 1.1945385
-0.52626473 0.26510584 1.1954001
-0.5107094 0.26416004 1.1930001
-0.50514597 0.26504573 1.197
-0.4934057 0.26771414 1.1950001
-0.48614034 0.26615766 1.1949999
-0.47585797 0.26475054 1.1956668
-0.44233856 0.26416004 1.1930001
-0.42511258 0.26504573 1.197
-0.41056103 0.26504573 1.197
-0.40326065 0.26349798 1.1952224
-0.3945379 0.26350707 1.1938
-0.38432693 0.26416004 1.1930001
-0.37446511 0.26409855 1.1946001
-0.36578605 0.26347825 1.1952858
-0.3547284 0.26301932 1.1956668
-0.34573302 0.26267403 1.1956668
-0.33535296 0.26267403 1.1956668
-0.32581949 0.26148817 1.1950001
-0.31388429 0.26208818 1.1930001
-0.30559689 0.26208818 1.1930001
-0.29676509 0.26148817 1.1950001
-0.28847075 0.26252756 1.1950001
-0.27543968 0.26088816 1.197
-0.26416004 0.26001635 1.1930001
-0.25547495 0.26067021 1.1960001
-0.24696442 0.26045227 1.1950001
-0.23929791 0.26001635 1.1930001
-0.22762752 0.26088816 1.197
-0.21375588 0.26045227 1.1950001
-0.11602323 0.26001635 1.1930001
-0.090125188 0.26001635 1.1930001
-0.085981511 0.26001638 1.1930001
-0.65377945 0.27128211 1.197
-0.64745104 0.27037555 1.1930001
-0.63916367 0.27037555 1.1930001
-0.26491046 -0.14390567 1.2029231
-0.23362429 -0.14240107 1.202889
-0.22788253 -0.14160028 1.202
-0.26510912 -0.13881698 1.202
-0.24345464 -0.13354413 1.2023636
-0.23493533 -0.13469662 1.2024797
-0.22664 -0.13494024 1.202
-0.33643112 -0.12559631 1.2020001
-0.24527812 -0.12837961 1.202
-0.23419844 -0.1264527 1.2019999
-0.22862522 -0.12712921 1.2050002
-0.33503947 -0.11585477 1.202
-0.1617792 0.13151082 1.202
-0.15708238 0.13151082 1.202
-0.14489956 0.13562034 1.2024446
-0.13486606 0.13800074 1.204
-0.12333095 0.13719113 1.2027273
-0.11558872 0.13712095 1.2036002
-0.10646332 0.13837804 1.2050002
-0.094688967 0.13677418 1.2035998
-0.086511619 0.13774328 1.204
-0.051313292 0.13927893 1.2060001
-0.049218871 0.13927893 1.2060001
-0.13385922 0.14168724 1.202
-0.12498745 0.14168724 1.202
-0.11446313 0.14229609 1.202
-0.10516916 0.14365105 1.2034118
-0.095107153 0.14422496 1.2035998
-0.08439514 0.14399536 1.2030525
-0.07544747 0.14740942 1.204
-0.064696044 0.14770702 1.2050003
-0.05620265 0.14527445 1.2045263
0.040841192 0.14975104 1.2060001
-0.073687814 0.15217681 1.202
-0.065198764 0.15356846 1.202
-0.055076268 0.15524162 1.2026955
-0.045145132 0.15624681 1.2039999
-0.034397405 0.15607902 1.2035651
-0.026139107 0.15675782 1.2041539
0.040841192 0.15393987 1.2060001
-0.043967415 0.16451901 1.2019999
-0.034461204 0.1649936 1.2025999
-0.024869787 0.16463469 1.2022352
-0.018355776 0.16483384 1.2049093
0.0010472101 0.16860081 1.2060001
-0.062972113 0.17778316 1.202
-0.053230572 0.17847897 1.202
-0.042644106 0.17415494 1.202
-0.0345282 0.1747454 1.2050397
-0.025120014 0.17479916 1.2053999
-0.017104428 0.17453499 1.206
-0.0027925603 0.17348778 1.2060002
0.0040392391 0.17219125 1.2060002
-0.091848828 0.18474139 1.202
-0.084148586 0.18316425 1.2032309
-0.077758387 0.18213205 1.202
-0.063369736 0.18205751 1.2020001
-0.054949675 0.18314509 1.2019999
-0.045126271 0.18314509 1.2019999
-0.034432229 0.18470983 1.2050476
-0.025092518 0.18295553 1.2040001
-0.017774785 0.18299006 1.2042223
-0.17314431 0.194251 1.202
-0.16751973 0.19570063 1.202
-0.15546623 0.19497637 1.2030909
-0.14483163 0.19430695 1.2037779
-0.13568577 0.19309129 1.202
0.43668658 0.23981109 1.2060001
0.44192261 0.23981109 1.2060001
0.46758303 0.23954597 1.2046667
0.47459179 0.23865516 1.2044001
0.48485824 0.23981109 1.2060001
0.49566203 0.23921454 1.2030001
0.50643194 0.23961225 1.205
0.51585573 0.23939221 1.2060002
0.52389067 0.23790707 1.2060003
0.097067513 0.24945307 1.202
0.13464203 0.24945307 1.202
0.14137335 0.24818878 1.2060001
0.18474141 0.24945307 1.202
0.1962225 0.24945307 1.202
0.20457239 0.2489312 1.202
0.21431509 0.24568623 1.204
0.22582398 0.24777719 1.204
0.23692822 0.24945307 1.202
0.24818878 0.24818878 1.2060001
0.25509375 0.24777719 1.204
0.26389691 0.24818878 1.2060001
0.27507371 0.24866289 1.2045
0.28356034 0.24850485 1.205
0.29512534 0.24660563 1.2044002
0.30511904 0.24527812 1.202
0.31625745 0.24609436 1.2060001
0.3254649 0.24593113 1.2052001
0.33557439 0.24506509 1.2026668
0.34082258 0.24463904 1.204
0.36499283 0.24451123 1.2044001
0.37546504 0.24520114 1.2033335
0.38598832 0.24473134 1.2037143
0.39526638 0.24393187 1.2036002
0.40472984 0.24200206 1.2044001
0.4157511 0.2446402 1.2040002
0.42382833 0.24335252 1.2028002
0.43454239 0.24110317 1.202
0.44820589 0.24190551 1.2060001
0.45522031 0.24276227 1.2033334
0.46262109 0.24202621 1.2040001
0.47072524 0.24110317 1.202
0.48353228 0.24202621 1.204
0.50725603 0.24110317 1.202
0.51456219 0.24110317 1.202
-0.5375244 0.2588467 1.202
-0.32565802 0.2594806 1.2033334
-0.28911507 0.25989044 1.202
-0.26532707 0.25958306 1.2030001
-0.25585732 0.25968552 1.2026668
-0.24388647 0.25989044 1.202
-0.21315965 0.25634593 1.2033334
-0.20979108 0.25571549 1.202
-0.1138935 0.25669497 1.2033334
-0.10562789 0.25622609 1.2044001
-0.094688982 0.25542685 1.2036
-0.08742322 0.25704175 1.2033334
-0.07636182 0.25767678 1.2046667
-0.065755412 0.25571549 1.202
-0.05654934 0.25761366 1.2060001
-0.033973541 0.25509375 1.204
-0.024061516 0.25488651 1.2046667
-0.015213781 0.25516284 1.2037778
-0.0062754452 0.25635374 1.2050002
0.017383687 0.25614759 1.2060002
0.02513304 0.25447205 1.2060001
0.031362467 0.25405002 1.204
0.045961753 0.25174981 1.2030001
0.055429887 0.25371554 1.2044001
0.064502701 0.25488651 1.2046667
0.074875511 0.25499564 1.2060001
0.085039862 0.2545301 1.2048573
0.093915813 0.25204143 1.2044001
0.10762182 0.25112146 1.2033334
0.11500555 0.25195909 1.204
0.12445684 0.25078616 1.2044001
0.13583545 0.25053471 1.2052001
0.14548174 0.25119093 1.2053335
0.15498708 0.25237763 1.2060001
0.16375205 0.25164476 1.2050002
0.17449504 0.25112146 1.2033334
0.18056644 0.25154054 1.202
0.23981109 0.25028321 1.2060001
0.24504715 0.25028321 1.2060001
0.25133044 0.25028321 1.2060001
0.26913297 0.25028321 1.2060001
0.28798276 0.25028321 1.2060001
-0.65450633 0.2687141 1.2060002
-0.64541352 0.26650906 1.2046667
-0.63564265 0.26173338 1.2028002
-0.53500479 0.26324618 1.2037144
-0.52483112 0.26450476 1.2040001
-0.51449853 0.26386279 1.2026668
-0.50725603 0.26406538 1.202
-0.49522465 0.26635879 1.204286
-0.48578912 0.26476836 1.2052001
-0.47333896 0.26703855 1.2060001
-0.43106326 0.26406538 1.202
-0.42480084 0.26406538 1.202
-0.41366619 0.26428509 1.2030001
-0.40388879 0.26263174 1.205
-0.39453492 0.26434952 1.2052001
-0.38473767 0.26450476 1.204
-0.37720692 0.26435831 1.2033334
-0.3627758 0.26345754 1.204
-0.35290977 0.26284975 1.2060001
-0.34468284 0.26316163 1.2036
-0.33559695 0.26136661 1.204
-0.32402653 0.2624751 1.2042859
-0.31551093 0.26170301 1.2048573
-0.30510455 0.26226851 1.2033334
-0.29431117 0.26226851 1.2033334
-0.28494012 0.26197791 1.202
-0.27960509 0.26284972 1.2060001
-0.25091189 0.26136661 1.204
-0.24609436 0.2607553 1.2060001
-0.23143342 0.2607553 1.2060001
-0.22373129 0.2624138 1.2040001
-0.21745673 0.26136661 1.204
-0.65442288 0.27032781 1.202
-0.26582289 -0.14394362 1.21
-0.23086032 -0.11384892 1.2140001
-0.22488679 -0.11349755 1.2140002
-0.2143167 -0.11265683 1.2141428
-0.20724832 -0.11154118 1.2156668
-0.23047999 -0.10734858 1.2120001
-0.22497967 -0.1066887 1.2147858
-0.21434115 -0.10770112 1.216
-0.20852418 -0.10796683 1.2190001
-0.35459694 0.13866329 1.2190001
-0.33416766 0.13809453 1.2140001
-0.32889688 0.13809453 1.2140001
-0.11356585 0.13459776 1.2110001
-0.104011 0.1352351 1.2120001
-0.098036572 0.13176958 1.2140001
-0.080902621 0.13974088 1.21
-0.077716991 0.13785431 1.2150002
-0.047280751 0.13974088 1.21
-0.35459694 0.14289729 1.2190001
-0.34357205 0.1428251 1.218375
-0.33570784 0.14462982 1.2157502
-0.32769951 0.1444003 1.2149376
-0.073818922 0.14289908 1.2123126
-0.066856958 0.1440776 1.211143
-0.052008826 0.14657032 1.21
-0.04500556 0.14463979 1.2127826
-0.035038836 0.14484021 1.2127273
-0.024222046 0.14466016 1.2129567
-0.015082951 0.14618157 1.2161429
-0.007174267 0.14760174 1.219
0.03794964 0.14863609 1.2140001
-0.051483486 0.15024772 1.21
-0.044654042 0.1512984 1.21
-0.03497275 0.15084812 1.21
-0.023482341 0.15229873 1.2110001
-0.015434513 0.15514575 1.2133044
-0.0052782511 0.15523735 1.2162001
0.004810567 0.15602079 1.2185454
0.014809571 0.1572549 1.2181667
0.025192261 0.15940987 1.2190001
0.035303183 0.15578489 1.2138501
0.045397557 0.15677057 1.21575
0.05186642 0.15665776 1.2190001
-0.013667567 0.16462138 1.2108572
-0.0052618925 0.16523668 1.2120802
0.0054424251 0.16518769 1.2130002
0.015208423 0.16549399 1.2118636
0.024614874 0.1652413 1.2141306
0.034787174 0.16550258 1.2140003
0.044825397 0.16646078 1.216619
0.05774625 0.16731463 1.2180002
0.063113682 0.16844876 1.2155001
-0.012157908 0.17636472 1.21
-0.0060276045 0.17590651 1.2099999
0.0055006361 0.1763294 1.21
0.015854936 0.17514943 1.2103475
0.025216401 0.17546409 1.2099999
0.034566037 0.17562364 1.2123334
0.045328736 0.17499004 1.2140002
0.054708425 0.17434266 1.2153158
0.064292274 0.17496103 1.2138003
-0.086440854 0.18869404 1.2140001
-0.034672551 0.18386959 1.21
-0.012257973 0.18246868 1.21
-0.0047754329 0.18392144 1.2124616
0.0054792254 0.1855102 1.2154762
0.014784727 0.18528897 1.2162224
0.024232231 0.18545838 1.2135001
0.034945622 0.18505032 1.2124765
0.045342635 0.1845396 1.2144002
0.054850668 0.18459404 1.2147502
0.063777506 0.18461874 1.2149093
-0.15024772 0.19647779 1.21
0.013760479 0.19158821 1.2190001
0.025827833 0.19227096 1.2175716
0.035242517 0.1941921 1.2176111
0.04549503 0.19468467 1.2185
0.054973803 0.19451433 1.2174375
0.060658813 0.19465932 1.217
0.036650952 0.2047587 1.2176111
0.045402549 0.20483723 1.2160003
0.054097172 0.20604697 1.2178462
0.028579457 0.21910916 1.2190001
0.035977468 0.214661 1.2186428
0.045385614 0.21531713 1.2155
0.055006456 0.2151987 1.2181666
0.060334407 0.21910916 1.2190001
0.048690923 0.22122616 1.2190001
0.056100413 0.22411297 1.219
0.06228856 0.22546013 1.219
0.6367141 0.22379556 1.21
0.64674252 0.22263747 1.2190001
0.652035 0.22122616 1.2190001
0.66367847 0.22334315 1.2190001
0.46727103 0.23889935 1.2120001
0.47569388 0.23679277 1.2120001
0.48280376 0.23929358 1.2140001
0.49802393 0.23850513 1.21
0.50546771 0.23821211 1.2143637
0.51535487 0.23683605 1.2129999
0.52345526 0.23466189 1.2105001
0.017994473 0.24874711 1.2190001
0.023816215 0.24874711 1.2190001
0.066685401 0.24874711 1.2190001
0.095928267 0.24983513 1.2140001
0.12755297 0.24983513 1.2140001
0.13497026 0.24885984 1.2144001
0.14439307 0.24789374 1.2138
0.15256819 0.24875695 1.2173334
0.16602129 0.24956076 1.2126669
0.17593592 0.24947247 1.2156669
0.18485732 0.24929111 1.2165
0.19423303 0.24937943 1.2135001
0.20544323 0.2489578 1.2148751
0.21169966 0.24663012 1.2190001
0.22440165 0.24768862 1.2190001
0.23383263 0.24962935 1.2130002
0.24521531 0.24872954 1.2143334
0.25556821 0.24733503 1.2151999
0.26491594 0.24641755 1.2133335
0.27436095 0.24715225 1.2143
0.28471032 0.24696732 1.2148889
0.29479259 0.24626358 1.214889
0.30487934 0.24438351 1.2126364
0.31619698 0.24392875 1.2141819
0.32547101 0.24423598 1.215
0.33440265 0.24475002 1.2118
0.34567484 0.24480924 1.21
0.35415325 0.24534875 1.2126669
0.36497119 0.24446909 1.2142859
0.3744936 0.24420998 1.214875
0.38488927 0.24422085 1.2144002
0.39506274 0.2428714 1.2143334
0.40423331 0.24186194 1.2142001
0.41574201 0.2433244 1.2151999
0.42393553 0.2431175 1.2160001
0.43376201 0.24080534 1.2110001
0.44750774 0.24064165 1.2155001
0.45516151 0.24146295 1.2143333
0.46266046 0.24134284 1.2137144
0.48684174 0.24052465 1.21225
0.49361309 0.24027912 1.2190001
-0.34189498 0.25933209 1.2190001
-0.33733016 0.25826839 1.2140001
-0.32536161 0.2595188 1.21
-0.29419136 0.2595188 1.21
-0.27207026 0.25939435 1.2160001
-0.26467711 0.25895628 1.2130002
-0.2557565 0.25904095 1.2154444
-0.24663012 0.25933209 1.2190001
-0.22292992 0.25635141 1.2167273
-0.21691084 0.2565074 1.2106668
-0.11701139 0.25826839 1.2140001
-0.10191628 0.25531605 1.21
-0.095257036 0.25493243 1.2162001
-0.084180273 0.25751492 1.2131819
-0.075434282 0.25715911 1.215
-0.064706475 0.25601825 1.2150002
-0.054834273 0.25781697 1.2143751
-0.045311313 0.25816393 1.2135333
-0.035514351 0.25468054 1.2147778
-0.02446972 0.25398344 1.2147001
-0.015810439 0.25451392 1.2142001
-0.0048894272 0.25548473 1.2144545
0.0055361679 0.2559697 1.214375
0.015393872 0.25397515 1.2143334
0.024558639 0.25192115 1.2146429
0.03425438 0.25244945 1.2139168
0.04449036 0.25141746 1.2127501
0.055864856 0.25211135 1.2139091
0.06500414 0.25250247 1.2148125
0.074060097 0.2533946 1.2159286
0.084677778 0.25262457 1.2139168
0.093231 0.25125855 1.21325
0.10546039 0.25098875 1.2145
0.11498798 0.251187 1.2148889
0.12233254 0.25098872 1.2145001
0.14814636 0.25111333 1.21
0.15567513 0.25101987 1.2133751
0.16431299 0.25103027 1.2130001
0.17686503 0.25111336 1.21
0.18176822 0.25111333 1.21
0.24027912 0.25086412 1.2190001
-0.66189182 0.26614505 1.2134001
-0.65503138 0.26604798 1.2119092
-0.64618415 0.26310328 1.2120001
-0.54195118 0.2614491 1.2190001
-0.53543693 0.26349995 1.2148001
-0.52268744 0.2635259 1.2118573
-0.51337171 0.26780009 1.2190001
-0.50389796 0.265513 1.2147274
-0.49448976 0.26407969 1.2151818
-0.48495406 0.26551288 1.2150002
-0.47468841 0.26680326 1.2166923
-0.46603107 0.26799235 1.217
-0.45464206 0.26767078 1.2165
-0.44617054 0.26706633 1.2156668
-0.43566728 0.2660459 1.2158334
-0.4258658 0.26554736 1.217
-0.41402155 0.26442596 1.21325
-0.39526403 0.26386178 1.2155001
-0.38488719 0.26383367 1.2144001
-0.37441653 0.26413298 1.2135001
-0.36380041 0.26425713 1.2144002
-0.35565543 0.26356611 1.2190001
-0.3444337 0.26324007 1.2175
-0.3345924 0.26255465 1.2134545
-0.32134181 0.26150614 1.2160001
-0.31355301 0.26112014 1.2158334
-0.30504599 0.26128277 1.2127777
-0.29591644 0.26120567 1.2113335
-0.28509754 0.26133189 1.214
-0.27549136 0.26179272 1.21325
-0.25194344 0.26037669 1.2140001
-0.24472861 0.26055545 1.2148335
-0.23400925 0.26148331 1.2172002
-0.22494493 0.26124069 1.2136667
-0.21959282 0.26162016 1.21
-0.46125001 0.27002561 1.21
-0.45914862 0.27002561 1.21
-0.20305541 -0.11162859 1.2243335
-0.20435236 -0.10931467 1.2270001
-0.36225131 0.13957331 1.2270001
-0.35788447 0.1391183 1.223
-0.075399987 0.13699435 1.223
-0.36174044 0.14533304 1.2256668
-0.35452107 0.14554611 1.2234704
-0.34662756 0.1469769 1.2229999
0.016991548 0.14973801 1.223
0.020177463 0.14973801 1.223
-0.38888744 0.15875131 1.2270001
-0.36434349 0.15375343 1.2256669
-0.35483035 0.15264675 1.2242001
-0.34726477 0.15186195 1.223
0.0088497642 0.15256993 1.223
0.014867604 0.1534549 1.223
0.024343556 0.15450905 1.2239523
0.032921124 0.15271154 1.223
0.054160558 0.15823378 1.223
0.024425348 0.16035773 1.223
0.048850697 0.16248167 1.223
0.05403465 0.16437812 1.2235713
0.0084957741 0.19221687 1.223
0.016321775 0.1940566 1.2256668
0.023761075 0.19683844 1.2253335
0.031859152 0.19858871 1.223
0.066114388 0.19550382 1.2240666
0.073472776 0.19583072 1.2262728
0.026923344 0.20548332 1.225154
0.031618841 0.20432906 1.224
0.056284502 0.20257112 1.223
0.064868905 0.20522785 1.2245996
0.074142434 0.20613228 1.227
0.026573954 0.21408986 1.2241999
0.033133518 0.21621743 1.2229999
0.058408443 0.21133237 1.223
0.064957261 0.21540326 1.2229998
0.075365424 0.2152389 1.2256665
0.082039267 0.21202356 1.2270001
0.66590315 0.21841623 1.2270001
0.035544842 0.22305891 1.223889
0.045270558 0.22401161 1.2238001
0.053297929 0.22671577 1.2241429
0.067376204 0.224784 1.223
0.074961431 0.22432169 1.2267894
0.6450308 0.22323723 1.2254002
0.65652204 0.22210526 1.2262002
0.66427827 0.22301991 1.2245002
0.67227018 0.22493915 1.2254002
0.056190562 0.23395593 1.2251819
0.065207116 0.23560242 1.2257825
0.074871734 0.2368194 1.2270002
0.44855237 0.23972513 1.2270001
0.45464841 0.23956883 1.2262002
0.46630979 0.23972514 1.2270001
0.47360551 0.23946463 1.2256669
0.48495871 0.23875433 1.2256669
0.49396443 0.23952976 1.2260001
0.50502098 0.23812696 1.2270001
0.51360196 0.23627853 1.2246002
0.52419895 0.23546335 1.2270001
0.017021071 0.24890602 1.2250001
0.024487868 0.24851163 1.2262001
0.03079718 0.24956335 1.223
0.058135092 0.2468069 1.2262001
0.064653412 0.24535207 1.2260907
0.075441413 0.24664469 1.2253999
0.084698275 0.2483484 1.2254
0.090267591 0.24956335 1.223
0.10956196 0.24890602 1.2250001
0.11594422 0.24890602 1.2250001
0.12445388 0.248906 1.2250001
0.13522053 0.24808684 1.2262002
0.14761406 0.24743941 1.223
0.15636165 0.24890602 1.2250001
0.1643402 0.24934423 1.2236668
0.17657733 0.24890602 1.2250001
0.18503229 0.2482487 1.2270001
0.19646476 0.24956335 1.223
0.20454326 0.24827749 1.2241429
0.21794155 0.24770916 1.2243335
0.22669551 0.24797893 1.2256669
0.23498362 0.24907036 1.2245002
0.24500518 0.24819803 1.2250001
0.25496829 0.24644819 1.2260001
0.26512566 0.24595736 1.2262002
0.27275395 0.2461178 1.2270001
0.28502727 0.24633807 1.2263335
0.29544455 0.24491754 1.2250001
0.30556259 0.24339038 1.2240001
0.31485248 0.24358922 1.2250001
0.32814926 0.24319153 1.223
0.33453193 0.2446512 1.2250001
0.34586996 0.24522775 1.2243335
0.35506445 0.24486361 1.2250003
0.36385563 0.24413927 1.2247145
0.37427515 0.24372178 1.2256669
0.38462567 0.24398692 1.2270001
0.39561561 0.2428164 1.2254002
0.40372118 0.2423012 1.2256668
0.4112618 0.24185602 1.2270001
0.42611119 0.24212313 1.2262002
0.43236181 0.24223255 1.2246002
0.44462836 0.2414618 1.2250001
0.45558584 0.24106757 1.223
0.46301967 0.24106757 1.223
0.49700275 0.24106757 1.223
-0.49556261 0.25815943 1.2260002
-0.45657927 0.25862181 1.2256668
-0.35124171 0.25819287 1.2270001
-0.3473351 0.25890315 1.2270001
-0.26336896 0.25805911 1.223
-0.25454628 0.25827014 1.2240001
-0.2482487 0.25890315 1.2270001
-0.23189016 0.25848114 1.2250001
-0.2276336 0.25635198 1.2250001
-0.12039529 0.25890315 1.2270001
-0.11613351 0.25890315 1.2270001
-0.10520675 0.25737837 1.2238001
-0.090562828 0.25464135 1.2270001
-0.085268229 0.25550026 1.2252859
-0.07560005 0.25660485 1.2262001
-0.064298786 0.25614446 1.2240001
-0.054691631 0.25686222 1.2254002
-0.045257632 0.25536016 1.2247778
-0.035045065 0.25381124 1.223
-0.023768311 0.25294405 1.2256669
-0.014897563 0.25326461 1.2255001
-0.0044060475 0.25355819 1.2247145
0.0053174994 0.25265306 1.2246001
0.0127645 0.25209713 1.2250001
0.036162611 0.25156614 1.2250001
0.046372764 0.25168729 1.223
0.054280967 0.25081548 1.2256669
0.077523932 0.25168729 1.223
0.083895765 0.25168729 1.223
0.094765566 0.25064114 1.2262001
0.10449194 0.25090265 1.2254002
0.11381333 0.25103343 1.2250001
0.17260209 0.25037959 1.2270001
0.19710733 0.25037959 1.2270001
-0.66373229 0.26443094 1.223
-0.65577364 0.26486164 1.2250001
-0.54018062 0.26316494 1.2270001
-0.53398335 0.26486337 1.2250001
-0.52397662 0.26464716 1.2240001
-0.51433629 0.26538265 1.2252223
-0.50427622 0.26294583 1.2243335
-0.49482721 0.26164749 1.2243334
-0.48505491 0.262945 1.2238572
-0.47480536 0.26236373 1.2232667
-0.46508104 0.26428324 1.2246469
-0.45615098 0.26468408 1.2250001
-0.44426626 0.26677284 1.2240001
-0.43333176 0.26377377 1.2270001
-0.425632 0.26298988 1.2242001
-0.41484338 0.26450825 1.2250001
-0.40412807 0.26409751 1.2254002
-0.39578548 0.26307496 1.2246002
-0.38597998 0.26323295 1.2256669
-0.37457329 0.2640101 1.2243335
-0.3646954 0.26429725 1.2256668
-0.35415933 0.2626144 1.2258574
-0.34783089 0.26220149 1.2250001
-0.32282984 0.26103404 1.2270001
-0.31787342 0.26046675 1.2243335
-0.30299425 0.26046675 1.2243335
-0.28021204 0.26103404 1.2270001
-0.27808115 0.26103404 1.2270001
-0.26867884 0.26018307 1.223
-0.24518044 0.26060855 1.2250001
-0.23516047 0.26069364 1.2254002
-0.13201098 -0.16420878 1.2360001
-0.12857656 -0.16592601 1.2360001
-0.20058501 -0.1128625 1.2320001
-0.19452915 -0.11320866 1.2322669
-0.18612713 -0.11230436 1.2335386
-0.17865437 -0.11125782 1.2320001
-0.21143223 -0.10625274 1.2360001
-0.2054859 -0.10619591 1.2330911
-0.1950708 -0.10610715 1.2343335
-0.18533729 -0.10562509 1.2345884
-0.17791456 -0.10640418 1.2328001
-0.15132967 -0.10195971 1.2360001
-0.1539055 -0.098525278 1.2360001
-0.14703661 -0.097666666 1.2360001
-0.38100731 0.14810988 1.2360001
-0.37418371 0.14584628 1.2337145
-0.36800668 0.14442122 1.2320002
-0.40032598 0.15991575 1.2360001
-0.3938925 0.15648267 1.2343335
-0.38532153 0.154063 1.2336473
-0.37549511 0.15416814 1.2320002
-0.3690764 0.15083992 1.2320001
-0.40139925 0.16206226 1.2360001
-0.39518082 0.16171262 1.2333335
0.078347981 0.1985531 1.2360001
0.08121001 0.19783759 1.2360001
0.077780098 0.20372431 1.2326669
0.084448308 0.20478112 1.2336669
0.093275212 0.20905994 1.2346668
0.085782215 0.21521358 1.2324213
0.092836998 0.21357875 1.2360001
0.036372744 0.22786456 1.2320001
0.042791471 0.22786456 1.2320001
0.07809443 0.22786456 1.2320001
0.085004635 0.22493322 1.2322224
0.091584861 0.22359584 1.2360001
0.6465078 0.22287224 1.2320001
0.6543448 0.22168551 1.2333335
0.66487676 0.22108896 1.233
0.67553407 0.22223929 1.233778
0.047145292 0.23037753 1.2340001
0.052834034 0.23525351 1.2333335
0.075241663 0.2335701 1.2320002
0.084536217 0.234345 1.2323202
0.091942608 0.23146641 1.2360001
0.40247253 0.23933698 1.2360001
0.45524564 0.23887224 1.2336
0.46289983 0.23894972 1.2340001
0.47545421 0.23933698 1.2360001
0.48189375 0.23933698 1.2360001
0.494131 0.23902717 1.2344002
0.5028137 0.2390788 1.2346668
0.51567888 0.2369346 1.2346668
0.5221138 0.23479038 1.2346668
-0.020391941 0.24792306 1.2360001
-0.018245421 0.24792306 1.2360001
0.015638337 0.2482975 1.2336
0.025012633 0.24801221 1.2346668
0.032093599 0.24926031 1.2320001
0.055449683 0.24599676 1.2328002
0.073280394 0.24284159 1.2320001
0.084941596 0.24348414 1.2327061
0.091743469 0.24881457 1.2333335
0.10697867 0.24926031 1.2320001
0.11514057 0.2471533 1.2335001
0.12420502 0.24733329 1.2352002
0.13201098 0.24792306 1.2360001
0.15639576 0.24830513 1.2348573
0.16520563 0.24849617 1.234286
0.17366205 0.24926031 1.2320001
0.18591192 0.24859169 1.2340001
0.19547155 0.24899285 1.2328001
0.20515186 0.24725446 1.2326669
0.21269825 0.24698527 1.2340001
0.23616286 0.24750082 1.2354287
0.24479592 0.24801221 1.2346668
0.25480375 0.24622461 1.2346668
0.26359475 0.24537885 1.2340001
0.27493522 0.24583697 1.2320002
0.28656042 0.24577655 1.2360001
0.2925224 0.24537885 1.2340001
0.3048892 0.24355477 1.2320001
0.3148739 0.24426797 1.2320001
0.3380526 0.24498115 1.2320001
0.34555966 0.24453078 1.2333335
0.35489681 0.24256618 1.2337145
0.36526617 0.24363002 1.2360001
0.376459 0.2425203 1.2340002
0.38489252 0.24225956 1.2337146
0.39410758 0.24238889 1.2333335
0.40356871 0.24085832 1.2328001
0.41480979 0.24202673 1.2344002
0.42256576 0.24284159 1.2320001
0.43359703 0.24148351 1.2360001
0.44414732 0.24269918 1.2340001
0.466427 0.240702 1.2320001
0.50172997 0.240702 1.2320001
-0.49103209 0.25995818 1.2320001
-0.46321765 0.25995818 1.2320001
-0.32200581 0.25995818 1.2320001
-0.28012088 0.25865567 1.2360001
-0.26437971 0.25865567 1.2360001
-0.25758243 0.25865567 1.2360001
-0.24712072 0.25995818 1.2320001
-0.23359717 0.25585753 1.2344617
-0.22823447 0.25287777 1.2340001
-0.12186307 0.25694564 1.2346668
-0.11465301 0.2575925 1.2340002
-0.10654312 0.25703293 1.2344002
-0.094294056 0.25555745 1.2340001
-0.083982892 0.25408667 1.2346667
-0.075006634 0.2550208 1.2340001
-0.064646266 0.25573635 1.2340001
-0.054303091 0.25530291 1.2331431
-0.045039583 0.25415683 1.2350001
-0.035352979 0.2538687 1.2336
-0.023731802 0.25155866 1.2342858
-0.014850982 0.25094637 1.234286
-0.0066455291 0.25202057 1.2340001
0.0048831208 0.25066084 1.2342224
0.011767654 0.25139987 1.2320001
0.036430061 0.25180799 1.2340001
0.044719171 0.2522161 1.2360001
0.051431384 0.25180799 1.2340001
0.09659341 0.25006959 1.2360001
0.10286798 0.25073475 1.2340001
0.17279486 0.25006959 1.2360001
-0.67075628 0.26423731 1.2320001
-0.66219682 0.26594967 1.2333335
-0.54209441 0.26273423 1.2350001
-0.53984982 0.26509523 1.2360001
-0.52354366 0.26373601 1.2346668
-0.51575816 0.26359302 1.2340002
-0.50468403 0.26144996 1.2340001
-0.49397227 0.26144996 1.2340001
-0.46514767 0.2623814 1.2333335
-0.45414051 0.26402241 1.2335001
-0.44642165 0.26619828 1.2354287
-0.43968233 0.2653071 1.2320001
-0.42373395 0.2638101 1.2333335
-0.41517335 0.26452327 1.2333335
-0.40555722 0.26223591 1.2337779
-0.39475131 0.26209775 1.2320002
-0.38543671 0.26231048 1.233
-0.37571788 0.26343194 1.2345002
-0.36544234 0.26325783 1.2331431
-0.35789055 0.26252323 1.2340001
-0.33342609 0.26266509 1.2346668
-0.32563126 0.26132041 1.2344002
-0.31339192 0.26294872 1.2360001
-0.30061007 0.26209775 1.2320001
-0.29486519 0.26166588 1.2333335
-0.28486663 0.26166588 1.2333335
-0.27511233 0.26080221 1.2360001
-0.26938826 0.26080218 1.2360001
-0.24363002 0.26080221 1.2360001
-0.23933698 0.26080218 1.2360001
-0.12560442 -0.1678358 1.247
-0.1052012 -0.16658662 1.2490002
-0.0986939 -0.16810499 1.2490001
-0.11315455 -0.15653649 1.2490001
-0.10953938 -0.15725951 1.2490001
-0.16043328 -0.11090354 1.24
-0.15436091 -0.11199275 1.243125
-0.14545123 -0.11207075 1.2482001
-0.13990673 -0.11170848 1.2490001
-0.16177918 -0.10605823 1.2399999
-0.15506746 -0.10525743 1.2411112
-0.14638536 -0.1048007 1.2442001
-0.1388222 -0.10086299 1.2490001
-0.14320554 -0.097982734 1.24
-0.13773766 -0.0986939 1.2490001
-0.30367357 -0.081341125 1.2490001
-0.3047581 -0.07917203 1.2490001
-0.39369106 0.13990673 1.2490001
-0.40420288 0.14557977 1.2490003
-0.39443016 0.14529766 1.2481337
-0.38566676 0.14547274 1.2441112
-0.37822866 0.14214908 1.2433333
-0.41469699 0.15577538 1.2490003
-0.40476519 0.15407716 1.2437779
-0.39712796 0.15273839 1.2416666
-0.42405844 0.16810499 1.2490001
-0.41576478 0.16465999 1.2490003
-0.4066608 0.16266635 1.2433333
-0.42622751 0.17027409 1.2490001
0.096249789 0.21728928 1.2414286
0.10053997 0.21837716 1.245
0.65188825 0.21837716 1.245
0.67970747 0.21901757 1.2425001
0.68255794 0.21779081 1.24475
0.095398568 0.22525263 1.2399999
0.64927024 0.22180706 1.24
0.65605974 0.22125745 1.2447144
0.66290891 0.22073035 1.24
0.67529571 0.22102702 1.2416668
0.68001181 0.22016332 1.2490001
0.045339257 0.23512915 1.2465556
0.05079012 0.2377449 1.2445
0.093915038 0.23496825 1.2431667
0.35247821 0.23968519 1.2490001
0.40551037 0.23875912 1.247
0.41429746 0.23968519 1.2490001
0.44791847 0.23968519 1.2490001
0.45493808 0.2385505 1.2445002
0.46532249 0.23859775 1.2433333
0.47527984 0.23848976 1.2460001
0.48419958 0.23762511 1.2454544
0.49674258 0.23917346 1.2463334
0.50614041 0.23901354 1.2455001
0.51489997 0.2374364 1.24575
0.52452004 0.23546138 1.2467501
-0.0226114 0.24872541 1.24
-0.01513505 0.24972834 1.245
0.009729675 0.24972834 1.245
0.014080025 0.24904495 1.247
0.023860063 0.24836157 1.2490001
0.035290282 0.24918163 1.2466
0.045860451 0.24881718 1.2476667
0.052714784 0.24533834 1.2446667
0.094446562 0.24621841 1.2457693
0.10518773 0.24922687 1.2425001
0.11369176 0.24796388 1.247
0.1248919 0.246859 1.2445714
0.13533555 0.24797674 1.2446667
0.14480588 0.2485435 1.2445002
0.15489005 0.24734476 1.2452501
0.16575767 0.2451364 1.2444003
0.17509744 0.24635778 1.2456112
0.18491974 0.24713852 1.2453847
0.19506955 0.24788836 1.2442223
0.20498709 0.24827528 1.2464001
0.21694702 0.24788633 1.243
0.22538008 0.24867517 1.2445556
0.23461349 0.24650064 1.2451003
0.24500851 0.24608654 1.243
0.25379229 0.2458615 1.2455
0.26482794 0.24500966 1.2448334
0.27468616 0.24654309 1.2464001
0.28458121 0.24644546 1.243
0.2939215 0.24628735 1.2467501
0.30541715 0.24568 1.2464001
0.31783605 0.24540403 1.245
0.32465661 0.2446399 1.24525
0.33539984 0.2445166 1.2460001
0.34573147 0.24309199 1.2442501
0.35411796 0.24147484 1.2433333
0.36420995 0.2426244 1.244625
0.37510732 0.24264935 1.2442001
0.38619763 0.24173301 1.2446668
0.39541513 0.241134 1.2424999
0.40521067 0.24011156 1.24
0.41554528 0.24112315 1.243
0.42508546 0.24199639 1.2435555
0.43462536 0.24169937 1.2482001
0.44525439 0.24207988 1.2446002
0.45097977 0.24059564 1.2425001
0.46837902 0.24011154 1.24
0.4753778 0.24011154 1.24
-0.52378082 0.25783637 1.245
-0.51407593 0.25920707 1.2490001
-0.50810528 0.25837693 1.245
-0.46407208 0.25949275 1.24
-0.41104382 0.25920707 1.2490001
-0.40509328 0.25932136 1.2454001
-0.39946806 0.25949275 1.24
-0.33078724 0.25920707 1.2490001
-0.32861817 0.25920707 1.2490001
-0.31777269 0.25920707 1.2490001
-0.30909628 0.25920707 1.2490001
-0.2939482 0.25949275 1.24
-0.28551149 0.25909817 1.2464001
-0.27340215 0.25934991 1.2445
-0.26370329 0.25865364 1.2463334
-0.25269976 0.25920707 1.2490001
-0.24243224 0.25816596 1.2440001
-0.23809136 0.25374264 1.2435
-0.12284949 0.25542316 1.2446668
-0.11591556 0.25527373 1.2417499
-0.10381307 0.25662342 1.2428
-0.094233446 0.25540721 1.2474
-0.085039482 0.2526412 1.2441429
-0.074863367 0.25293264 1.2462728
-0.065922454 0.25505391 1.244625
-0.055410415 0.2548857 1.2451251
-0.044699632 0.25379315 1.2455001
-0.033887431 0.25343162 1.2455
-0.027050754 0.25176242 1.2461667
-0.014040516 0.25070477 1.2445
-0.0054110191 0.25070477 1.2445
0.011844067 0.25087887 1.24
0.037769374 0.25144225 1.2428
0.044583615 0.2513006 1.2456667
0.050606467 0.25087887 1.24
0.10181933 0.25076282 1.243
-0.67350453 0.26788345 1.2490001
-0.66594619 0.26564142 1.2446001
-0.54166341 0.26356319 1.2456666
-0.53497356 0.26401016 1.2453573
-0.52425098 0.2616834 1.2439091
-0.51538646 0.2625604 1.2464001
-0.50596255 0.26109535 1.2456
-0.49276835 0.26259571 1.2445
-0.4841679 0.26320764 1.2474
-0.47268599 0.26164621 1.24
-0.46659046 0.26144367 1.2467501
-0.4541589 0.26289922 1.2436666
-0.44469091 0.26423037 1.24
-0.4355692 0.26402995 1.2472
-0.42480257 0.26360363 1.2480001
-0.41585147 0.26269603 1.245
-0.40315655 0.26102513 1.24475
-0.3952761 0.26180869 1.2446251
-0.38477376 0.26191273 1.2435555
-0.37543014 0.26198363 1.2460001
-0.3652527 0.26151121 1.2445
-0.35876888 0.26151118 1.2445
-0.34284505 0.26272398 1.2468334
-0.33606043 0.26223436 1.2462221
-0.32485479 0.26103896 1.2456667
-0.31541026 0.26177907 1.2463334
-0.30524302 0.2615504 1.2441111
-0.29475269 0.26140347 1.2447143
-0.2869885 0.26109263 1.2424999
-0.27641517 0.26126274 1.2464001
-0.26486337 0.26053908 1.245
-0.25394532 0.26130635 1.2466
-0.24648511 0.26053908 1.245
-0.12086679 -0.17095573 1.2540001
-0.11760013 -0.17095573 1.2540001
-0.12391826 -0.16397534 1.2542777
-0.11542236 -0.16442239 1.2539999
-0.10564926 -0.16257754 1.2543333
-0.094625272 -0.16410623 1.2589999
-0.085502505 -0.16281174 1.2583749
-0.12159272 -0.15716313 1.2540001
-0.11651123 -0.1565824 1.2540001
-0.10780011 -0.15788905 1.2540001
-0.090558052 -0.15711494 1.2565
-0.086252421 -0.15721554 1.2573335
-0.13316743 -0.11224338 1.2550001
-0.12475499 -0.11372317 1.2557648
-0.11770462 -0.11551815 1.2590001
-0.14182793 -0.10589457 1.2540001
-0.13484778 -0.105827 1.2550524
-0.12706323 -0.10508461 1.2568573
-0.11916225 -0.10495024 1.2590001
-0.13284458 -0.099088997 1.2540001
-0.12740014 -0.099088997 1.2540001
-0.32372761 -0.08350724 1.2562222
-0.31424749 -0.082647845 1.2547145
-0.30815586 -0.081666753 1.2540001
-0.32368585 -0.075073764 1.2585002
-0.3136003 -0.075133421 1.2539999
-0.30622005 -0.073681563 1.2540001
-0.32031688 -0.065593898 1.2590001
-0.31416222 -0.066885196 1.2545
-0.30742997 -0.067874148 1.2540001
-0.4246833 0.14785729 1.2551112
-0.41595599 0.14700015 1.2539999
-0.40572044 0.14656459 1.2540001
-0.39526707 0.14373347 1.2540001
-0.43291974 0.1585186 1.2590001
-0.42511243 0.15448564 1.2546666
-0.41922265 0.1524446 1.2540001
-0.44275883 0.16835767 1.2590001
-0.4344261 0.16542426 1.258706
-0.42575604 0.16333351 1.2539999
-0.41595599 0.16877796 1.2540001
-0.44166559 0.17163737 1.2590001
-0.43424225 0.17129655 1.2565
0.66468489 0.21973957 1.2590001
0.67515272 0.21886571 1.257125
0.68429607 0.21755756 1.255875
0.66640073 0.22104467 1.2540001
0.67499423 0.22165652 1.255
0.6805563 0.22104467 1.2540001
0.038212456 0.23692015 1.2573335
0.040873539 0.23707129 1.2552501
0.097297624 0.23941775 1.2590001
0.40504918 0.2391008 1.2573334
0.4372927 0.23941775 1.2590001
0.44494531 0.23941775 1.2590001
0.45478439 0.23941775 1.2590001
0.46479627 0.23894234 1.2565001
0.47465822 0.23805651 1.2556667
0.48514357 0.23535493 1.2567778
0.49702182 0.23879027 1.2580001
0.50461674 0.23839572 1.2565
0.51386464 0.23764461 1.2573334
0.52365798 0.2372313 1.2590001
0.53606617 0.238372 1.2573334
0.54552263 0.23941775 1.2590001
-0.088200092 0.24935582 1.2540001
-0.075133413 0.24935582 1.2540001
-0.033755589 0.24935582 1.2540001
-0.026496325 0.24935584 1.2540001
