# .PCD v0.7 - Point Cloud Data file format
VERSION 0.7
FIELDS x y z
SIZE 4 4 4
TYPE F F F
COUNT 1 1 1
WIDTH 1402
HEIGHT 1
VIEWPOINT 0 0 0 1 0 0 0
POINTS 1402
DATA ascii
0.21544455 0.26580009 0.89458823
0.22480689 0.26613054 0.89459991
0.23389904 0.26580232 0.89610004
0.24566977 0.26536804 0.89533341
0.25546014 0.26363313 0.8959375
0.26456916 0.26281807 0.89581251
0.27442145 0.26256114 0.8943637
0.28537449 0.26371905 0.89435285
0.29366028 0.26289359 0.89535725
0.30558172 0.26256901 0.89410013
0.31438634 0.26151261 0.89544457
0.32587683 0.26200029 0.89711118
0.33551645 0.26139575 0.89539999
0.34494776 0.26145607 0.89500004
0.35493216 0.26109573 0.89414287
0.36458647 0.26106727 0.89525008
0.37550959 0.26044503 0.89533341
0.38392434 0.26087403 0.89528579
-0.48618224 0.27926582 0.89585721
-0.47370178 0.27918467 0.89460009
-0.46603006 0.27850851 0.89342862
-0.45268843 0.27720112 0.89422214
-0.44538316 0.27732468 0.89366663
-0.43569767 0.2766313 0.89392304
-0.42358088 0.27507955 0.89506668
-0.41583854 0.27582732 0.89429998
-0.40546903 0.27647948 0.89490002
-0.3950091 0.27519718 0.8939411
-0.38499582 0.27644262 0.89571434
-0.37490842 0.27430823 0.8949092
-0.36456454 0.27381885 0.89428574
-0.35511816 0.27477682 0.89391685
-0.34519517 0.27518028 0.89450008
-0.33442748 0.27457631 0.89423072
-0.32506362 0.27439669 0.89486659
-0.31518123 0.27395916 0.89377773
-0.30484891 0.27337256 0.8938334
-0.29576957 0.27324885 0.89435726
-0.28523648 0.27408391 0.89418179
-0.27487278 0.27413979 0.89317644
-0.26483378 0.27287424 0.89345455
-0.25515607 0.27424809 0.89725006
-0.24392258 0.27523065 0.8969
-0.23422055 0.27644598 0.89613336
-0.22415638 0.27547836 0.89556241
-0.21531916 0.27399644 0.89389992
-0.20461676 0.27336261 0.89338458
-0.19514592 0.27340332 0.89472729
-0.18457119 0.27454996 0.89599997
-0.17548594 0.27449888 0.89553344
-0.16395697 0.27533808 0.89700001
-0.15675537 0.27273208 0.89280003
-0.14399965 0.27523887 0.89638466
-0.13553257 0.27322775 0.89533329
-0.12546329 0.2726346 0.89520001
-0.11459852 0.27024335 0.89175004
-0.10416614 0.27089784 0.89428574
-0.095026493 0.27191356 0.89190006
-0.085880548 0.27159092 0.89313334
-0.075257763 0.27168337 0.89480001
-0.065495312 0.27240106 0.89510524
-0.054841001 0.27353382 0.89587498
-0.046238277 0.27196789 0.89418179
-0.031077433 0.27192748 0.89475006
-0.024909517 0.27347243 0.89641678
-0.015584095 0.27222526 0.89420003
-0.0046596942 0.27130404 0.89525008
0.0043734694 0.27110606 0.89524996
0.015041271 0.27056155 0.89280003
0.025594126 0.27062219 0.89300007
0.074448436 0.27041277 0.89316678
-0.48411238 0.28123087 0.8963334
-0.47645497 0.28075317 0.89316672
-0.18172829 -0.37054044 0.90600008
-0.17570534 -0.37111303 0.90740007
-0.20185104 -0.36067182 0.90100002
-0.19409443 -0.36406967 0.90100044
-0.18518342 -0.36505294 0.90614033
-0.17653324 -0.36686423 0.90800017
-0.21045709 -0.35284814 0.90100002
-0.20400256 -0.35421726 0.9010002
-0.19522224 -0.35515711 0.9032203
-0.18498917 -0.35506329 0.90697402
-0.1789774 -0.3532241 0.90800005
-0.20419818 -0.34497556 0.90100038
-0.19536589 -0.34502017 0.90527105
-0.18570065 -0.34651202 0.90683377
-0.1789774 -0.34849343 0.90800005
-0.21259829 -0.33481246 0.90099996
-0.20492364 -0.33478498 0.90121669
-0.19520432 -0.33471778 0.90617573
-0.18843876 -0.33561549 0.90800011
-0.2111277 -0.32647115 0.90100008
-0.20455734 -0.32553703 0.90276772
-0.19472611 -0.32497808 0.90753901
-0.18843876 -0.32562849 0.90800011
-0.21163064 -0.31359935 0.90100002
-0.20459686 -0.31514302 0.90219188
-0.19490513 -0.31491429 0.90666711
-0.22141024 -0.30434129 0.90100002
-0.2145687 -0.30481353 0.9011116
-0.20487227 -0.3051677 0.90414906
-0.19573554 -0.30575749 0.90791714
-0.18843876 -0.30670577 0.90800005
-0.21306497 -0.29593804 0.90100026
-0.20515199 -0.29499167 0.90315002
-0.1951241 -0.29445827 0.90751326
-0.18654647 -0.29335481 0.90800011
-0.21258067 -0.28634682 0.90100008
-0.20476598 -0.28505501 0.90192336
-0.19553183 -0.28512567 0.90584654
-0.18675105 -0.28519288 0.9069289
-0.2037769 -0.27569455 0.90100026
-0.19459395 -0.27527767 0.90458345
-0.1860121 -0.27368793 0.90786988
-0.2026334 -0.26478821 0.90100002
-0.1948545 -0.26511899 0.9033727
-0.18598698 -0.26490289 0.90744478
-0.20250759 -0.25438249 0.90174997
-0.19538432 -0.25493363 0.90382969
-0.18637009 -0.25514665 0.90690041
-0.22141024 -0.24018708 0.90100002
-0.21397775 -0.24243642 0.90100002
-0.20439082 -0.24405515 0.90113831
-0.19519709 -0.24471976 0.90362221
-0.18684167 -0.24562167 0.90740043
-0.20376158 -0.23417576 0.90138102
-0.19526632 -0.23508817 0.90594256
-0.18717757 -0.2347599 0.90762502
-0.21251081 -0.22395296 0.90100002
-0.20465243 -0.22484007 0.90302134
-0.19470137 -0.22540578 0.90711653
-0.18641132 -0.22575855 0.90800023
-0.2224534 -0.21150026 0.90100002
-0.21459244 -0.21474151 0.90100056
-0.20457229 -0.21476714 0.90266675
-0.19437695 -0.21533625 0.90708745
-0.1869745 -0.21716076 0.90800011
-0.22374471 -0.20517059 0.90108705
-0.2151164 -0.20488095 0.90217805
-0.20518412 -0.2054223 0.90506548
-0.19804078 -0.20654629 0.9072001
-0.23410159 -0.1923711 0.90109545
-0.22494362 -0.1947981 0.90221763
-0.2149632 -0.19495763 0.90548164
-0.20709866 -0.19632322 0.90800011
-0.25317439 -0.1819789 0.90100002
-0.24535075 -0.18385656 0.90100038
-0.23452276 -0.18445842 0.90288144
-0.22531328 -0.18503971 0.90580022
-0.21668422 -0.18565685 0.9078933
-0.26170221 -0.17172986 0.90100002
-0.2541692 -0.17418778 0.90173185
-0.24478413 -0.17495488 0.90354347
-0.23580757 -0.17602687 0.9065004
-0.22659962 -0.17740051 0.90800011
-0.29260576 -0.16195025 0.90100002
-0.28483084 -0.16275491 0.90169579
-0.27527317 -0.16307138 0.90377164
-0.26469862 -0.16498035 0.90479195
-0.25492585 -0.1647341 0.90563428
-0.24574485 -0.16604845 0.90681857
-0.23837373 -0.16899042 0.90800011
-0.38257813 -0.15099709 0.90100002
-0.37944865 -0.15099709 0.90100002
-0.34220794 -0.15131004 0.90100002
-0.3346639 -0.15172303 0.90200001
-0.325553 -0.15201958 0.9020769
-0.3143084 -0.15278701 0.90267897
-0.30519897 -0.15460761 0.90426689
-0.29534554 -0.15580933 0.90410554
-0.28536761 -0.15767005 0.90534794
-0.27592117 -0.15798917 0.90714288
-0.26728344 -0.15847778 0.90800005
-0.25703362 -0.15847778 0.90800005
-0.39370164 -0.14637545 0.90206248
-0.38567394 -0.14707585 0.90255582
-0.37472564 -0.14784557 0.90408361
-0.36463565 -0.1464944 0.9036501
-0.35480481 -0.14530672 0.90360022
-0.34522751 -0.14565627 0.90374368
-0.33502164 -0.14678824 0.9054414
-0.32481271 -0.14723222 0.90488476
-0.31620333 -0.14814574 0.90573692
-0.30749422 -0.14901643 0.90800005
-0.12205433 0.18734904 0.90684623
-0.11498322 0.18578856 0.90608597
-0.10813102 0.18700081 0.90692312
-0.092248261 0.18765032 0.90800005
-0.12458584 0.19523615 0.90548289
-0.11508244 0.19493215 0.90157181
-0.10487954 0.19539116 0.9046523
-0.09324418 0.19524427 0.90800017
-0.088898234 0.19537038 0.90600008
-0.13009372 0.20736149 0.90800011
-0.12494449 0.20508884 0.90493959
-0.11504611 0.20504557 0.90128618
-0.10429183 0.20501105 0.90278602
-0.097518481 0.20528512 0.90778577
-0.089094475 0.2010539 0.90800005
-0.12517479 0.21535043 0.90587115
-0.11511369 0.21534514 0.90181667
-0.1043968 0.2152285 0.90314925
-0.12483314 0.22513893 0.90518761
-0.11544821 0.22537097 0.90100038
-0.10426933 0.22511618 0.90175039
-0.098108478 0.22598483 0.90680009
-0.087554663 0.22508669 0.90510005
-0.12484062 0.23489323 0.9057588
-0.11491593 0.23484258 0.90150034
-0.10470559 0.23498487 0.90347391
-0.098489664 0.23180838 0.90740007
-0.12252462 0.24173775 0.90800011
-0.11493189 0.24537656 0.90734416
-0.10778939 0.2449273 0.90764707
0.32854 0.25953877 0.90300006
0.33643994 0.25951082 0.9040001
0.34483966 0.25819752 0.90380001
0.35367912 0.25866187 0.90542865
0.36525339 0.25874147 0.9050588
0.3740553 0.25837508 0.90484625
0.38525999 0.25946885 0.90550005
0.39597294 0.258277 0.90500003
0.40412369 0.25861105 0.90580004
0.41078073 0.25939897 0.90800005
-0.10405499 0.26991707 0.90100002
-0.087332189 0.26982373 0.90200001
-0.053658165 0.26894704 0.90300006
-0.047248047 0.26913866 0.90188897
-0.014930992 0.26954371 0.90500003
-0.00078627584 0.26890415 0.90550005
0.0053668795 0.26926035 0.90450013
0.014000718 0.2676729 0.90400004
0.026567915 0.2666482 0.90288895
0.035313781 0.26830634 0.90369236
0.045952749 0.26943049 0.90462506
0.055203952 0.26822001 0.90539145
0.064227223 0.2677809 0.90391672
0.073875457 0.2672132 0.90510005
0.085449859 0.2669116 0.90275002
0.09541478 0.26630649 0.90278566
0.10521922 0.26718098 0.90461922
0.11411238 0.26730028 0.90380007
0.1245435 0.26591355 0.90450007
0.13470007 0.26572812 0.90450001
0.14457768 0.26670137 0.90463156
0.15408011 0.26501632 0.90350002
0.16057611 0.26526761 0.90650004
0.17627558 0.26519683 0.90425003
0.18506259 0.2650587 0.90481824
0.19448316 0.2656745 0.90545458
0.20622632 0.26487169 0.90515387
0.21437623 0.2646088 0.90394115
0.22567372 0.26437125 0.90421426
0.23497888 0.26467571 0.9050526
0.24491926 0.2640309 0.90508008
0.25441766 0.26324555 0.9053846
0.26509231 0.26156619 0.90233338
0.27644676 0.26284155 0.90628576
0.28525853 0.26223245 0.90500003
0.29476848 0.26235691 0.90311116
0.30503213 0.26328355 0.90471435
0.31634343 0.26165485 0.90400004
0.32441223 0.26198494 0.90550005
0.33372188 0.26067626 0.90259999
0.34815392 0.26052865 0.90100002
0.35802341 0.26039529 0.90380001
0.36536604 0.26052865 0.90100002
0.37866628 0.26052865 0.90100002
0.38506493 0.26058084 0.90389997
0.39979023 0.26052865 0.90100002
0.40497434 0.26056123 0.90383339
0.41144761 0.26144883 0.90600008
-0.49175283 0.27939323 0.90466678
-0.46488291 0.27951381 0.90457153
-0.45513901 0.27688497 0.90388894
-0.44453114 0.27657437 0.90463638
-0.43436274 0.27577096 0.90266669
-0.42542014 0.27415732 0.90259999
-0.4142541 0.27605969 0.90428573
-0.40573207 0.27632838 0.9037779
-0.39478019 0.27560583 0.90530008
-0.38577196 0.27519247 0.90359998
-0.37570983 0.27442265 0.90425003
-0.36350709 0.27384439 0.90260011
-0.35461172 0.27369672 0.90250003
-0.34538141 0.27473882 0.90400004
-0.335237 0.27436945 0.90329999
-0.32571077 0.2743943 0.90545458
-0.31521282 0.27365264 0.90300006
-0.30395877 0.27410722 0.90450001
-0.29327226 0.27311701 0.90271443
-0.2868326 0.27442971 0.90500003
-0.27455792 0.27483082 0.90516675
-0.26570654 0.27449211 0.90800011
-0.25425184 0.27386853 0.90372223
-0.24476205 0.27477121 0.90452629
-0.23470622 0.27486151 0.90364701
-0.22545835 0.27384204 0.90323079
-0.21534359 0.27363119 0.90481824
-0.20482813 0.2741048 0.90450001
-0.19433734 0.27375564 0.90557146
-0.18447085 0.27306652 0.90453339
-0.17433748 0.27414984 0.90464705
-0.1651457 0.27512032 0.90541178
-0.15270726 0.27569565 0.90650004
-0.14497182 0.2732079 0.90400004
-0.13415369 0.27184042 0.90349996
-0.12523451 0.27226397 0.90425003
-0.11537604 0.27359101 0.90800011
-0.10577603 0.27135968 0.90233338
-0.094161496 0.27202338 0.90366673
-0.083727747 0.27126214 0.90549999
-0.074352905 0.27135256 0.90542859
-0.064659163 0.27133638 0.90482354
-0.055647086 0.27165639 0.9025625
-0.043725092 0.27130151 0.90372741
-0.034479849 0.2711986 0.90407699
-0.024493165 0.27162668 0.90410006
-0.014913364 0.27086043 0.90390015
-0.0049064094 0.27097088 0.90387499
0.0035317289 0.27049649 0.90425009
-0.48648214 0.28109762 0.90362501
-0.47385645 0.28147545 0.90800005
-0.17146979 -0.37138617 0.91000003
-0.16500957 -0.37163606 0.91100007
-0.15480486 -0.37245828 0.91607696
-0.18095198 -0.36190397 0.91000003
-0.17417897 -0.36389825 0.90999997
-0.16515285 -0.36488909 0.91187495
-0.15626802 -0.36545753 0.91643745
-0.17462079 -0.35524213 0.91106653
-0.16475843 -0.35526252 0.91488022
-0.15822858 -0.35570148 0.917
-0.18327446 -0.3422322 0.91074997
-0.17511111 -0.34477723 0.91304177
-0.16568144 -0.34532967 0.91611129
-0.18489081 -0.33490959 0.91018742
-0.17479613 -0.33467641 0.9121843
-0.16697216 -0.33460456 0.91586959
-0.19122437 -0.32081443 0.91000003
-0.184369 -0.32455188 0.90999997
-0.17506808 -0.32490489 0.91230601
-0.16763775 -0.32572535 0.91654545
-0.19043419 -0.31054205 0.91000003
-0.18493606 -0.31454998 0.91016662
-0.17544286 -0.31516844 0.9142558
-0.16920559 -0.31571779 0.91699994
-0.19254136 -0.30343044 0.90999997
-0.18484877 -0.3049053 0.91118419
-0.17571859 -0.30521289 0.91569382
-0.16880748 -0.30430469 0.91699994
-0.19240965 -0.2990844 0.91000003
-0.18284136 -0.29573959 0.91274095
-0.17504193 -0.29440224 0.91542143
-0.16759215 -0.29373676 0.91699994
-0.18288366 -0.28416714 0.91044438
-0.17523889 -0.28480402 0.91391212
-0.16472489 -0.28497088 0.91645002
-0.15845607 -0.28638881 0.91700006
-0.18264523 -0.27645132 0.90999997
-0.17481324 -0.27531028 0.91190898
-0.16502289 -0.27539286 0.91617072
-0.18195766 -0.26514247 0.90999997
-0.17492455 -0.26516277 0.91155535
-0.16499034 -0.26504856 0.91623819
-0.15785888 -0.26296544 0.91699994
-0.18168138 -0.25522923 0.90999997
-0.17527418 -0.25537029 0.9124316
-0.16469979 -0.25476694 0.91553354
-0.15785888 -0.25540093 0.91699994
-0.18221629 -0.24448274 0.90999997
-0.17519377 -0.2453275 0.91235691
-0.16490385 -0.24472512 0.91511124
-0.15750057 -0.24445236 0.917
-0.18339439 -0.23590565 0.90999997
-0.17524837 -0.23516372 0.91268873
-0.16450135 -0.23488165 0.91614914
-0.15661208 -0.23556772 0.91699994
-0.18226896 -0.22476326 0.90999997
-0.17527853 -0.22502574 0.91393626
-0.1656708 -0.22515337 0.9160558
-0.15845607 -0.22773084 0.91700006
-0.19517529 -0.21097896 0.91000003
-0.18379664 -0.21407646 0.90999991
-0.17575736 -0.21484475 0.91480005
-0.16724959 -0.21481751 0.91699994
-0.20228693 -0.20149675 0.91000003
-0.1935841 -0.20480698 0.9102
-0.18514536 -0.2051571 0.91302204
-0.17538714 -0.20532387 0.91587198
-0.16818815 -0.2078243 0.91699994
-0.20373563 -0.19387293 0.91011989
-0.19507669 -0.19525066 0.91307229
-0.18509604 -0.19568682 0.91610539
-0.17651291 -0.19768146 0.91688222
-0.21286048 -0.18284512 0.91195238
-0.20500161 -0.18501164 0.91342241
-0.19615343 -0.18567532 0.91588247
-0.18775852 -0.18744002 0.917
-0.23336749 -0.17199658 0.91000003
-0.2240493 -0.17389086 0.91041368
-0.21570091 -0.17540707 0.91481817
-0.20514788 -0.17580265 0.91666663
-0.19826916 -0.17646387 0.91699994
-0.2710329 -0.16040722 0.91000003
-0.26234087 -0.16040722 0.91000003
-0.25259531 -0.16040722 0.91000003
-0.24343811 -0.16211517 0.91122216
-0.23509422 -0.16472597 0.91361225
-0.22525425 -0.16647501 0.9141463
-0.21724674 -0.16748038 0.91699994
-0.29400438 -0.15201451 0.91099995
-0.28464484 -0.15310095 0.91120833
-0.27439722 -0.15358689 0.9118858
-0.26491982 -0.1544463 0.91345453
-0.25535041 -0.15574688 0.91448581
-0.24609438 -0.15805051 0.91563153
-0.23967476 -0.15845607 0.91700006
-0.39198506 -0.14391381 0.91566676
-0.38458672 -0.14512083 0.91383332
-0.37495658 -0.14317724 0.91468191
-0.36509779 -0.14224765 0.91265005
-0.35578743 -0.14100392 0.91181821
-0.34375036 -0.1412978 0.91162497
-0.3347576 -0.14171483 0.911125
-0.32472792 -0.14262234 0.91270375
-0.31488684 -0.14438383 0.91343999
-0.30496079 -0.14607027 0.91351527
-0.29534733 -0.14701793 0.91425824
-0.28577989 -0.14832845 0.91405886
-0.27667412 -0.14883077 0.9156
-0.2683402 -0.14890094 0.91700006
-0.37384486 -0.13854954 0.91700006
-0.36436972 -0.13858722 0.91619998
-0.35496375 -0.13795906 0.91685706
-0.34525391 -0.13788113 0.91587496
-0.33464256 -0.13844039 0.91507697
-0.32738811 -0.13884738 0.91671431
-0.12182804 0.1791589 0.91700006
-0.11433004 0.17908733 0.9139334
-0.10816742 0.17900573 0.91460007
-0.13123991 0.1877111 0.91600007
-0.1257446 0.18424837 0.91321439
-0.11485855 0.18126298 0.91042864
-0.10419513 0.18431951 0.91150004
-0.096742041 0.18663323 0.91188234
-0.13267456 0.19593699 0.91390914
-0.12848382 0.19233064 0.91000003
-0.10098543 0.19169848 0.91000003
-0.096439987 0.19510004 0.90999997
-0.13447398 0.20510368 0.91296554
-0.093845896 0.20447154 0.90999991
-0.089290716 0.20307712 0.91000003
-0.13396955 0.21459532 0.91216671
-0.095672943 0.21531503 0.91163337
-0.13281502 0.22477032 0.91062957
-0.094015464 0.22438696 0.91078782
-0.088597789 0.22439092 0.91100001
-0.13310011 0.23471659 0.91236371
-0.12879989 0.23942555 0.91000003
-0.10035329 0.23942555 0.91000003
-0.095310271 0.2351891 0.91195458
-0.089290716 0.23152372 0.91000003
-0.13324268 0.24492733 0.91594738
-0.12578171 0.24581043 0.91291678
-0.11931769 0.24890776 0.91000003
-0.10321293 0.24580255 0.91224998
-0.097377889 0.24361923 0.91600001
-0.12527771 0.25285715 0.91647357
-0.11536677 0.25048813 0.91000003
-0.10449165 0.25189972 0.91512501
0.32469615 0.25934577 0.91457146
0.33423412 0.25929156 0.91429996
0.34344196 0.25919008 0.91344452
0.35794502 0.25889859 0.91249996
0.36412689 0.25834584 0.91320002
0.37469926 0.25768119 0.9122858
0.38566059 0.25928837 0.91387498
0.3946445 0.2580736 0.91361541
0.40561447 0.25713068 0.91330773
0.41522744 0.25841278 0.91370589
0.42076308 0.25770658 0.91600001
0.49848428 0.25758362 0.91500008
0.50187421 0.2566289 0.91500008
-0.19349159 0.26993272 0.91700006
-0.13512136 0.26945251 0.91000003
-0.072183251 0.2696926 0.91350007
-0.064513408 0.26927584 0.91477776
-0.056235768 0.26948541 0.91212499
-0.044037607 0.26877967 0.913091
-0.036398362 0.26911476 0.91624999
-0.024722785 0.26887983 0.91384614
-0.015661508 0.26895896 0.91485715
-0.0059587206 0.26951829 0.91425002
0.0043621813 0.26926073 0.91337502
0.015236124 0.26803592 0.91379994
0.02496825 0.26741448 0.91444439
0.035441592 0.26721361 0.91411763
0.044938333 0.26780853 0.91415399
0.054195508 0.26571915 0.91449994
0.064838283 0.26710057 0.91060001
0.075315326 0.26740646 0.9149
0.085081793 0.2685307 0.91571426
0.095626734 0.26624531 0.91391671
0.1049547 0.26538116 0.91340005
0.11470637 0.2664617 0.91392314
0.1251568 0.26552463 0.91416669
0.1355546 0.26577187 0.9152143
0.14502926 0.26545173 0.91423082
0.15496117 0.26503056 0.91446161
0.16543619 0.26608178 0.91595453
0.17481886 0.2652843 0.91450012
0.18626393 0.26425552 0.91280001
0.19504431 0.26512015 0.91414291
0.20463273 0.26414984 0.91387498
0.21538031 0.26331347 0.91393334
0.2241209 0.26370686 0.91394114
0.23529366 0.26319122 0.91341662
0.24521439 0.262422 0.91441667
0.25539416 0.26272008 0.91407698
0.26527441 0.26289201 0.91466677
0.27349627 0.26221737 0.91355556
0.286677 0.26208666 0.91325009
0.29590318 0.26193714 0.91393334
0.30516645 0.26196751 0.91449994
0.31479248 0.26167807 0.91444451
0.32647038 0.26140478 0.91133332
0.33376393 0.26082736 0.91300005
0.34327736 0.26082736 0.91300005
0.38703656 0.26118904 0.91150004
0.41553009 0.26158541 0.91150004
-0.49617636 0.27930465 0.9134286
-0.47343242 0.27954894 0.91633338
-0.46493074 0.27881628 0.91422218
-0.45424515 0.27727833 0.91354549
-0.44570738 0.27720228 0.91537499
-0.43640012 0.2760267 0.91433334
-0.42351645 0.2755475 0.91450012
-0.41486251 0.27540007 0.91372228
-0.40450779 0.27543208 0.91306674
-0.39625874 0.27482915 0.91400009
-0.38371173 0.27628502 0.91300005
-0.37462509 0.27639788 0.91600007
-0.3653478 0.27553523 0.91533345
-0.35494772 0.2754527 0.91550004
-0.34565222 0.27449882 0.91478568
-0.33479109 0.27415609 0.91227275
-0.32548511 0.27497381 0.91470003
-0.31335589 0.27601996 0.91474998
-0.30746108 0.27563953 0.91612494
-0.29143134 0.27435687 0.9145
-0.2850008 0.27498055 0.91400009
-0.27492934 0.27418166 0.91399997
-0.2656284 0.2733596 0.91349995
-0.25539136 0.27212158 0.912
-0.24473616 0.27287731 0.912875
-0.23624799 0.27332255 0.91337496
-0.22654122 0.27466714 0.91333342
-0.21359515 0.27464977 0.91444439
-0.20489472 0.27389073 0.91427279
-0.19446401 0.27240747 0.91362494
-0.18575713 0.27189913 0.91291666
-0.1756089 0.27321088 0.912
-0.16512297 0.27278745 0.91227275
-0.15509108 0.27390429 0.91280967
-0.14568934 0.27155501 0.91328573
-0.13525327 0.27143747 0.91358328
-0.12466019 0.27300772 0.91441667
-0.11569901 0.27341026 0.91307688
-0.10380502 0.27372333 0.91437495
-0.095119104 0.27274796 0.91500002
-0.084506325 0.27166939 0.91442859
-0.076273218 0.27082244 0.91262507
-0.063355342 0.27057153 0.91200006
-0.041983269 0.27051383 0.91225004
-0.035182785 0.27085456 0.91260004
-0.027100859 0.27085456 0.91260004
-0.014745863 0.27034083 0.91300005
-0.0061825332 0.27059767 0.91280001
0.044396147 0.27034083 0.91300005
-0.4918021 0.28103065 0.91425002
-0.48463678 0.28272927 0.91546661
-0.47602621 0.28179917 0.91588891
-0.14455386 -0.37400025 0.92217654
-0.1353889 -0.37508035 0.92647058
-0.12741129 -0.37705928 0.92700011
-0.15246943 -0.3632561 0.92000008
-0.14506173 -0.36478445 0.92237496
-0.13746648 -0.36676937 0.92657155
-0.15386942 -0.35479653 0.92178386
-0.14510588 -0.3551462 0.92629576
-0.13818225 -0.35363919 0.92700005
-0.16190365 -0.34364581 0.92000002
-0.15448831 -0.34500924 0.92186677
-0.14497752 -0.34456724 0.92682868
-0.13845056 -0.34612635 0.92700005
-0.16216993 -0.33552399 0.91999996
-0.15475683 -0.33483714 0.92346936
-0.14581005 -0.33479968 0.92700011
-0.16320953 -0.32436496 0.92007148
-0.15477386 -0.32479525 0.92356402
-0.14647351 -0.32513905 0.92683339
-0.16433157 -0.31456557 0.92000002
-0.15454632 -0.31500924 0.9224419
-0.14721024 -0.31624871 0.92700005
-0.17015861 -0.30916139 0.92000002
-0.16384946 -0.30532089 0.92046684
-0.15479712 -0.30516765 0.92306668
-0.14592706 -0.30437812 0.92683995
-0.16307302 -0.29631013 0.92000002
-0.15450251 -0.29515311 0.92194748
-0.14487432 -0.29512131 0.925946
-0.13925549 -0.29219508 0.92700005
-0.1605722 -0.28679314 0.92000002
-0.15444554 -0.28500721 0.92090219
-0.14511262 -0.28518334 0.92540997
-0.13698702 -0.28458467 0.92700005
-0.1605722 -0.27454388 0.92000002
-0.15460952 -0.27511349 0.92115003
-0.14483365 -0.2750527 0.92484981
-0.13716264 -0.27577421 0.92700005
-0.1605722 -0.26762038 0.92000002
-0.15402149 -0.26530236 0.92090333
-0.14538403 -0.26499695 0.92432547
-0.13685936 -0.26494336 0.92663646
-0.15426917 -0.25429422 0.92053342
-0.1448905 -0.25462696 0.92260492
-0.13553277 -0.25498798 0.92602772
-0.1543943 -0.24477278 0.92000008
-0.14528458 -0.24482383 0.92442536
-0.13555858 -0.24487953 0.92688578
-0.1528891 -0.2341895 0.9204762
-0.145253 -0.23488732 0.92574996
-0.13646916 -0.23522972 0.92700011
-0.16177051 -0.22288381 0.92000002
-0.15480375 -0.22497931 0.9201715
-0.14541258 -0.22491556 0.92453498
-0.13925549 -0.22578709 0.92700005
-0.1623878 -0.21511304 0.92000002
-0.15480909 -0.21488714 0.92252177
-0.1457843 -0.21544133 0.92597377
-0.17055805 -0.20171383 0.92000002
-0.16444531 -0.20446481 0.92064726
-0.15485823 -0.20488444 0.92430264
-0.14864652 -0.20526098 0.92700005
-0.18373933 -0.19146173 0.92000002
-0.1739352 -0.19383729 0.9203549
-0.16476388 -0.19458604 0.92322236
-0.15631102 -0.19657503 0.92610341
-0.14891483 -0.19801648 0.92700005
-0.19252689 -0.18323097 0.92000002
-0.1847993 -0.18401854 0.92069238
-0.17538324 -0.18517415 0.92284775
-0.16557464 -0.1856657 0.92654288
-0.15857416 -0.18835713 0.92700005
-0.21106057 -0.1714368 0.92000002
-0.20469424 -0.17138766 0.92000002
-0.19397171 -0.1744979 0.92161113
-0.18515734 -0.17527039 0.92494875
-0.17642576 -0.17663604 0.92665219
-0.23167133 -0.1605722 0.92000002
-0.22448152 -0.1614437 0.92000002
-0.21394233 -0.16392712 0.92138457
-0.20498323 -0.16503464 0.92467517
-0.19619153 -0.16789035 0.92600012
-0.18545936 -0.16919945 0.92700005
-0.17950274 -0.16984341 0.92700005
-0.25328517 -0.15171932 0.92100012
-0.24445651 -0.15318114 0.92250019
-0.23506355 -0.15468034 0.92257166
-0.22564578 -0.15607111 0.92365736
-0.216664 -0.15820397 0.92543757
-0.39283004 -0.14218859 0.92514294
-0.38541996 -0.14191744 0.92114288
-0.31468701 -0.14111708 0.92114288
-0.30479449 -0.14141266 0.92183334
-0.29482153 -0.14307086 0.9244287
-0.28467298 -0.1447538 0.92407417
-0.27493101 -0.14454351 0.92369449
-0.26530349 -0.1458097 0.92321032
-0.25593993 -0.14782143 0.92500001
-0.24435833 -0.14868484 0.92700011
-0.39120328 -0.13845055 0.92700005
-0.38378409 -0.1376404 0.92193341
-0.3764326 -0.13745058 0.92066675
-0.36454952 -0.13740507 0.92000002
-0.35454354 -0.13523281 0.92054552
-0.34493411 -0.13509004 0.92238891
-0.33475751 -0.13539705 0.92327785
-0.32469401 -0.13712707 0.92311549
-0.31490859 -0.1378212 0.92569244
-0.30590597 -0.1385092 0.92615396
-0.28092581 -0.13925549 0.92700005
-0.27931592 -0.13925549 0.92700005
-0.13298932 0.17883703 0.92633343
-0.12476626 0.17781568 0.92400008
-0.11574692 0.17710809 0.92292863
-0.10907077 0.17680424 0.92133331
-0.14086539 0.18916208 0.92700005
-0.13499372 0.18454252 0.92338711
-0.12795761 0.18073925 0.921
-0.16179395 0.1947967 0.92700005
-0.14130795 0.19595145 0.92550009
-0.13746791 0.19394268 0.92220014
-0.14257622 0.20462129 0.92523086
-0.13948213 0.20498919 0.92000002
-0.14170679 0.21055868 0.92200005
-0.091070801 0.21888947 0.92000002
-0.088674203 0.21968834 0.92000002
-0.090271935 0.22128607 0.92000002
-0.087875336 0.22128607 0.92000002
-0.14111589 0.23720349 0.92600006
-0.13802187 0.23786518 0.92233342
-0.0921662 0.23803709 0.92300004
-0.087560132 0.23692213 0.92700005
-0.14071342 0.24122214 0.92600006
-0.13753651 0.24328238 0.92087501
-0.092886619 0.24527816 0.9225201
-0.087498747 0.244056 0.92536849
-0.13255775 0.25504392 0.92073339
-0.12706642 0.25732857 0.92033339
-0.10143918 0.2557548 0.92381829
-0.095070161 0.25472653 0.92417634
-0.088362902 0.25346893 0.92299998
0.19801648 0.25999725 0.92700005
0.30780333 0.25927365 0.92633343
0.31469947 0.25934958 0.92533344
0.32456306 0.2592153 0.92350006
0.3365227 0.25897321 0.92450011
0.34544387 0.25950953 0.92400008
0.35378674 0.25983477 0.92388898
0.36326075 0.25901559 0.92350006
0.37625173 0.25864479 0.92390007
0.38480625 0.25814244 0.92325008
0.39435554 0.25809512 0.92308342
0.40108868 0.25801572 0.92566675
0.41571003 0.25828689 0.92500007
0.4212265 0.25674736 0.92400014
0.50566018 0.25442937 0.92287505
-0.19280706 0.26960826 0.92133331
-0.18853253 0.26921809 0.92000002
-0.14622995 0.26975444 0.92366672
-0.13344572 0.26616713 0.92690009
-0.12841365 0.26471403 0.9266001
-0.10182554 0.26925412 0.92700005
-0.077061981 0.26972997 0.92449999
-0.06457296 0.26911104 0.92375004
-0.058997758 0.26936424 0.92233342
-0.042570047 0.2690748 0.92500007
-0.033692058 0.26953545 0.92383337
-0.025682406 0.2682986 0.92111111
-0.013489848 0.26822266 0.92300004
-0.0064928434 0.26896667 0.92463642
0.0072347363 0.26969326 0.92575002
0.013481261 0.26878071 0.92522228
0.026343714 0.26733446 0.92408341
0.034280837 0.26667675 0.92288899
0.045174111 0.26519579 0.92269242
0.053723264 0.2663632 0.9234001
0.065263495 0.26728189 0.92405564
0.074993446 0.26612625 0.92369998
0.085053287 0.26638448 0.92404163
0.093943588 0.26615748 0.92346168
0.10439639 0.2658141 0.92483348
0.11546985 0.26553023 0.92416668
0.12480237 0.26550019 0.9248668
0.13458757 0.26515728 0.92509097
0.14561218 0.26452848 0.92456257
0.15336396 0.26421058 0.92391676
0.1662928 0.26335734 0.9251765
0.1736123 0.26351354 0.92445463
0.18634252 0.26431698 0.92318189
0.19517559 0.26284361 0.9230001
0.2043522 0.26317954 0.92386675
0.2142541 0.26295108 0.92325008
0.22760558 0.26403317 0.92342865
0.23458697 0.26266465 0.92385721
0.24473542 0.26252583 0.92354554
0.25502935 0.2622495 0.92360002
0.26490721 0.26261738 0.92328584
0.27520168 0.26289812 0.92400008
0.28549042 0.26301754 0.92428589
0.29435125 0.2614668 0.92366672
0.30442432 0.26068529 0.92259997
0.31421441 0.26049134 0.92142856
0.32069373 0.26071274 0.921
0.33865523 0.26019609 0.92200005
0.34105703 0.26019609 0.92200005
0.35786971 0.26019609 0.92200005
-0.50088942 0.27880448 0.92000002
-0.49429134 0.27879074 0.92420012
-0.48435324 0.27804521 0.92312503
-0.47510174 0.2777687 0.92238098
-0.46404752 0.27764821 0.92414296
-0.4543196 0.27475566 0.92315984
-0.44545999 0.27463612 0.92311102
-0.43513986 0.27542317 0.92475015
-0.42543319 0.27493852 0.92312509
-0.41558042 0.27471614 0.92453343
-0.40557787 0.27410221 0.92238474
-0.39550334 0.27535403 0.92335719
-0.38468072 0.27660367 0.92333347
-0.37515467 0.2748656 0.92333353
-0.36535895 0.27512681 0.92347378
-0.35617498 0.27399126 0.92331254
-0.34575927 0.27493498 0.92175001
-0.33509067 0.27416518 0.92321444
-0.32427782 0.27519563 0.92315394
-0.31585041 0.27519402 0.92335296
-0.30495954 0.27513 0.92377281
-0.29636234 0.2743327 0.92243755
-0.28502113 0.27438435 0.92272735
-0.27440864 0.27200994 0.92080003
-0.26701325 0.27261862 0.92250001
-0.2445904 0.2734499 0.92350006
-0.23301986 0.2753197 0.92500007
-0.22581062 0.27528611 0.9246251
-0.215468 0.2744574 0.92342871
-0.20442314 0.27372208 0.92322224
-0.19559962 0.27154523 0.92066669
-0.18499149 0.27286336 0.9222858
-0.17624216 0.27520263 0.92400014
-0.16435198 0.27269691 0.92490917
-0.15532741 0.27196062 0.92208338
-0.14401327 0.27104679 0.92200005
-0.13467565 0.27175808 0.92530781
-0.12513505 0.27192399 0.92377782
-0.11482963 0.27290013 0.92478955
-0.10484745 0.27273428 0.92394739
-0.096122153 0.27203017 0.92250007
-0.084711924 0.27176195 0.92272735
-0.074845128 0.27082101 0.92244458
-0.068685174 0.27072608 0.92333341
-0.05363493 0.27139363 0.92500007
-0.04775117 0.27086115 0.92425001
-0.0311558 0.27081582 0.92000002
-0.0024036914 0.27094418 0.92316669
0.0043387148 0.27091533 0.92580003
0.16696315 0.27081582 0.92000002
-0.50200522 0.28031972 0.92500007
-0.49297768 0.28103289 0.92057151
-0.48592281 0.28132302 0.92039996
-0.47852114 0.28040221 0.92000002
-0.12194006 -0.38035607 0.93000007
-0.11441716 -0.38101527 0.93320006
-0.1063204 -0.38146576 0.93470013
-0.13082311 -0.37228057 0.93000019
-0.1238135 -0.37432846 0.93196875
-0.11614641 -0.37570667 0.93575013
-0.10719836 -0.37667385 0.93654555
-0.13357562 -0.36473602 0.93060613
-0.12497182 -0.36523199 0.93397486
-0.11822605 -0.36511797 0.9368335
-0.14616655 -0.35451445 0.93000007
-0.1336216 -0.35557225 0.93045169
-0.12504917 -0.3553513 0.93578964
-0.11888014 -0.35428995 0.93700016
-0.14132126 -0.34159365 0.93000007
-0.13398427 -0.34506667 0.93065733
-0.12531947 -0.34535977 0.93652648
-0.11895247 -0.34709388 0.9370001
-0.14212881 -0.33497176 0.93000025
-0.13505363 -0.3352412 0.93159187
-0.12535283 -0.33522239 0.93659478
-0.14157553 -0.32428831 0.931059
-0.13482538 -0.3250981 0.9318918
-0.12660894 -0.32540435 0.93666691
-0.14329194 -0.31502435 0.93095666
-0.13466519 -0.31518602 0.93275607
-0.12594822 -0.31528264 0.93580002
-0.14237638 -0.30744338 0.93018204
-0.1351712 -0.30510375 0.93269765
-0.12536573 -0.30521914 0.93650013
-0.1347461 -0.29535225 0.93052948
-0.12502679 -0.29480189 0.93482852
-0.11960337 -0.29127896 0.93700004
-0.13199392 -0.28551283 0.93008721
-0.12479631 -0.28471839 0.93327767
-0.11865415 -0.28409192 0.93700022
-0.13250977 -0.2743282 0.93026114
-0.12484687 -0.27498057 0.93220562
-0.11643403 -0.27451947 0.93619245
-0.13189986 -0.26568395 0.93000019
-0.12451313 -0.26526639 0.93242085
-0.11596001 -0.26544142 0.93587881
-0.13066161 -0.25518578 0.93000025
-0.12458533 -0.25511557 0.93117142
-0.11605042 -0.25470147 0.93593341
-0.13041933 -0.24529332 0.93000019
-0.12451702 -0.24499407 0.93117493
-0.11521488 -0.24481776 0.93575013
-0.13221797 -0.23404269 0.93000025
-0.12476 -0.23489311 0.93218905
-0.11563379 -0.23447774 0.93642116
-0.10983983 -0.23676586 0.93700004
-0.13442902 -0.22438593 0.93037522
-0.12499133 -0.22482777 0.9347381
-0.11712711 -0.22516282 0.93700022
-0.14201343 -0.21284714 0.93000019
-0.13504383 -0.21468377 0.93204451
-0.1251265 -0.21450502 0.93572235
-0.11797611 -0.21479788 0.93700016
-0.14460525 -0.20495619 0.93000031
-0.13533404 -0.20509565 0.93302488
-0.1252466 -0.20494832 0.93661129
-0.11919656 -0.20788205 0.93700004
-0.15307157 -0.19305548 0.93025023
-0.14493407 -0.19441642 0.93102336
-0.13528761 -0.19545177 0.93400002
-0.12731144 -0.19617006 0.93700016
-0.17039305 -0.18008366 0.93000007
-0.16348915 -0.18150987 0.93030792
-0.15526459 -0.18476634 0.93155247
-0.1453231 -0.18510951 0.935
-0.13597764 -0.18794815 0.93700022
-0.1293669 -0.1895754 0.93700004
-0.17348868 -0.17328677 0.93000025
-0.16455337 -0.1746154 0.93417794
-0.15520293 -0.17571428 0.93661118
-0.14711881 -0.17803669 0.93700022
-0.20471394 -0.16070245 0.93000007
-0.19436847 -0.16343653 0.93046445
-0.18491088 -0.16423281 0.9330976
-0.17511368 -0.16497351 0.93364996
-0.16729504 -0.16779532 0.9356156
-0.2309593 -0.15101185 0.93000007
-0.2234083 -0.15215297 0.93106687
-0.21404077 -0.15354075 0.93128127
-0.2051001 -0.15462419 0.93258142
-0.19568066 -0.15579791 0.9338975
-0.18621242 -0.15724726 0.93700027
-0.4021259 -0.14107569 0.93480009
-0.39867136 -0.14267004 0.93128574
-0.2939482 -0.14132126 0.93000007
-0.28668025 -0.14132126 0.93000013
-0.27537456 -0.14132126 0.93000007
-0.26370776 -0.14127672 0.93200028
-0.2548897 -0.14315219 0.93289649
-0.24501956 -0.14406458 0.93333346
-0.23510762 -0.14594643 0.93341047
-0.22502354 -0.14716625 0.93399996
-0.21512355 -0.14755668 0.93590504
-0.20747523 -0.14889398 0.93700004
-0.40069067 -0.13816833 0.93600005
-0.39453098 -0.13778085 0.93200004
-0.34397087 -0.1345031 0.93500012
-0.33457416 -0.13288617 0.93430012
-0.32453546 -0.1337952 0.93326336
-0.31555557 -0.13388908 0.93365395
-0.30507594 -0.13539296 0.93321753
-0.29521334 -0.13669175 0.93284851
-0.28493279 -0.13660055 0.93310004
-0.27500427 -0.137179 0.93285722
-0.26646981 -0.13864636 0.93466681
-0.25547931 -0.13913046 0.93700016
-0.2497839 -0.13913044 0.93700004
-0.31731504 -0.1293669 0.93700004
-0.14119999 0.17914152 0.93633336
-0.13465086 0.17664129 0.9338423
-0.12546164 0.17511892 0.93368763
-0.1164772 0.17577995 0.93445468
-0.16266662 0.18856379 0.93200004
-0.14325425 0.18538506 0.9331581
-0.13916779 0.18169877 0.93000007
-0.16318716 0.19260328 0.93066692
-0.15879525 0.19448549 0.93400013
-0.14615622 0.19498377 0.93285728
-0.14694686 0.20320988 0.93237507
-0.14293635 0.23984236 0.93000007
-0.091253154 0.23822726 0.93000007
-0.089638054 0.23661216 0.93000007
-0.14293635 0.24145746 0.93000007
0.21317062 0.25954744 0.93700004
0.27826089 0.25954744 0.93700004
0.28415972 0.25893721 0.93700016
0.29518244 0.25914297 0.93554562
0.30540013 0.25891551 0.93375015
0.31650949 0.25948927 0.93428582
0.325589 0.25907493 0.93413359
0.3343294 0.25955373 0.93377793
0.3481563 0.25940961 0.93400013
0.35536137 0.25803781 0.93323821
0.36461207 0.2582199 0.93450016
0.37484026 0.2590529 0.93309104
0.38401175 0.25816828 0.93300009
0.39664114 0.25814173 0.93412507
0.40464643 0.25717458 0.93368429
0.41437086 0.25768998 0.9338696
0.42356631 0.25667673 0.93463647
0.50904131 0.25492531 0.93200004
0.51325119 0.25337729 0.93525004
-0.31095451 0.26873615 0.93500006
-0.30528754 0.26810116 0.93400013
-0.14054613 0.26787388 0.93200004
-0.13721009 0.2664181 0.93000025
-0.12673832 0.26739067 0.9326669
-0.10407072 0.26676553 0.93289489
-0.095102474 0.26575842 0.93362492
-0.082907602 0.26923925 0.93300009
-0.074726671 0.26932043 0.93375015
-0.065041386 0.2690655 0.93390018
-0.05441324 0.26937148 0.93533343
-0.045875292 0.26933691 0.93628585
-0.034624968 0.26934728 0.93600005
-0.024654735 0.26934123 0.93616676
-0.014866252 0.26862684 0.93400002
-0.0042855353 0.26802889 0.93335736
0.0049118553 0.26838806 0.93347079
0.014695022 0.26783103 0.9336251
0.024186991 0.26832277 0.93470019
0.035046659 0.26724577 0.93500006
0.04433151 0.26624918 0.9357779
0.055052768 0.26697704 0.93510008
0.06523034 0.26622909 0.93453866
0.073511906 0.26528746 0.93287516
0.085337199 0.26577252 0.93600005
0.095837519 0.26561061 0.93421441
0.1051655 0.26490045 0.93380016
0.11527872 0.26476476 0.93360007
0.1247553 0.263475 0.9332943
0.13483191 0.26397973 0.93426692
0.14340065 0.26409942 0.93368763
0.15592821 0.26435411 0.93309104
0.16219522 0.26412368 0.93162513
0.17775019 0.26401415 0.93471438
0.184669 0.2647182 0.93392879
0.19328639 0.26304421 0.93400002
0.20560734 0.2623212 0.93312514
0.21463269 0.26304778 0.93482363
0.22476462 0.26389921 0.93292326
0.23459336 0.26228851 0.93384629
0.24492976 0.26276627 0.93372744
0.25552222 0.26215854 0.93240017
0.26480809 0.26179683 0.93342882
0.2752125 0.26223099 0.93425018
0.28495559 0.26222429 0.93494755
0.29466429 0.26119667 0.9339093
0.30223906 0.26095185 0.93233341
0.34667775 0.26061723 0.93500006
0.35451445 0.26083866 0.93000007
0.36555776 0.26101875 0.93180007
0.37147301 0.26083866 0.93000007
-0.50495875 0.2789593 0.93428582
-0.49624655 0.2787194 0.93400013
-0.48393449 0.27644917 0.93442869
-0.47433466 0.27559945 0.9333216
-0.46564844 0.27454358 0.93218201
-0.45526454 0.27218583 0.93291682
-0.44323069 0.2736229 0.9325456
-0.43433735 0.27353609 0.93291682
-0.42592439 0.27402917 0.93328595
-0.41468221 0.27362204 0.93275017
-0.40465423 0.2735737 0.93361557
-0.39467204 0.27472827 0.93330783
-0.38557386 0.27435818 0.93378961
-0.37469062 0.27235383 0.93350017
-0.36543176 0.27243158 0.93210024
-0.35438094 0.27445388 0.93420023
-0.34501234 0.27471051 0.93416679
-0.33545807 0.27345049 0.9338237
-0.32535756 0.27374762 0.93300009
-0.31527275 0.27251098 0.93265009
-0.30498555 0.27189657 0.9316501
-0.29594517 0.27340165 0.93291682
-0.28553027 0.27450141 0.93400019
-0.27445206 0.27305895 0.93471438
-0.26478288 0.27314815 0.93343991
-0.25482115 0.27475309 0.93370605
-0.24485466 0.27434316 0.93538487
-0.23459609 0.27331388 0.93290013
-0.22498165 0.27311423 0.93300021
-0.21474865 0.274427 0.9332729
-0.20506896 0.27403134 0.93437505
-0.19688083 0.2725288 0.93528587
-0.18340525 0.27363658 0.93200022
-0.17481847 0.27322933 0.93328011
-0.16565606 0.27188051 0.93385732
-0.15641384 0.27242735 0.93430012
-0.14553145 0.27239949 0.93420011
-0.12363563 0.27077684 0.9333334
-0.11474951 0.27152359 0.93342882
-0.10772717 0.2711753 0.93000013
-0.094198637 0.27170968 0.93344468
-0.086423203 0.27197158 0.93450016
-0.074779131 0.27052927 0.93000013
-0.069010794 0.27035993 0.93500006
-0.054441798 0.2705833 0.93266678
-0.045978796 0.27042347 0.93312502
-0.035576198 0.27048063 0.9335556
-0.023544857 0.27035996 0.93500006
-0.00080755004 0.27052927 0.93000007
0.0024226501 0.27052927 0.93000007
0.018613594 0.27111104 0.93200004
0.020188751 0.27052927 0.93000007
-0.51177222 0.28070179 0.93700004
-0.50666851 0.28043747 0.93180007
-0.10097646 -0.38267598 0.94033337
-0.094790533 -0.38293707 0.94271988
-0.088117115 -0.38431087 0.9471429
-0.11291228 -0.3726559 0.94000012
-0.10326206 -0.37418053 0.94151735
-0.095986143 -0.3755531 0.94616657
-0.089726619 -0.37948599 0.94800007
-0.11367413 -0.36540055 0.94000047
-0.10487191 -0.36510316 0.94302547
-0.097849444 -0.36588424 0.94783336
-0.11391708 -0.35533196 0.94026327
-0.10497877 -0.3544127 0.94284594
-0.098781608 -0.35676622 0.94800007
-0.11482956 -0.34478405 0.94217074
-0.10563438 -0.34561899 0.94649988
-0.099604785 -0.34902835 0.94800007
-0.12161877 -0.33057451 0.94000006
-0.11545738 -0.334941 0.9413749
-0.10602252 -0.33519593 0.94743747
-0.099604785 -0.3300952 0.94800007
-0.12297915 -0.32554111 0.94000024
-0.11518233 -0.32513148 0.94078594
-0.10615177 -0.32504109 0.94717234
-0.099604785 -0.32762563 0.94800007
-0.12161877 -0.3150661 0.94000006
-0.11503259 -0.31513801 0.94135559
-0.10562848 -0.31454685 0.94745451
-0.099604785 -0.31033885 0.94800007
-0.12161877 -0.30608749 0.94000006
-0.11521096 -0.30478486 0.94102353
-0.10519682 -0.30484405 0.94671422
-0.099193193 -0.30498821 0.94800001
-0.11504261 -0.29532266 0.94171816
-0.10529657 -0.29514891 0.94536352
-0.098987401 -0.29366949 0.94800001
-0.11378617 -0.2857559 0.94074094
-0.10489228 -0.2851842 0.94374985
-0.096915185 -0.28452405 0.94760871
-0.11151786 -0.27619296 0.9400003
-0.10468426 -0.2748076 0.94188893
-0.095384814 -0.27492505 0.94700009
-0.089726619 -0.27247259 0.94800007
-0.11157282 -0.2631411 0.9400003
-0.1045316 -0.26474169 0.94207913
-0.095549144 -0.2650826 0.94751358
-0.11073566 -0.25548103 0.94000012
-0.10473948 -0.25474733 0.94177139
-0.095471367 -0.2551415 0.94783348
-0.088903442 -0.25683218 0.94800007
-0.11019151 -0.24487004 0.94000006
-0.10479656 -0.24523662 0.94185704
-0.095194742 -0.24529947 0.94702935
-0.089726619 -0.24777719 0.94800007
-0.11019151 -0.23262653 0.94000006
-0.104587 -0.23532574 0.94099998
-0.095179759 -0.23522976 0.94499999
-0.089726619 -0.23542951 0.94800007
-0.11210201 -0.22416534 0.94038123
-0.10469528 -0.22493349 0.94197631
-0.095719062 -0.22563331 0.94624996
-0.089726619 -0.22719769 0.94800007
-0.11279928 -0.21513551 0.94009125
-0.10494084 -0.21481198 0.94422227
-0.097571053 -0.21669006 0.94800007
-0.11451492 -0.20527355 0.9401027
-0.10481378 -0.20476036 0.94463158
-0.097431578 -0.20484012 0.94800001
-0.12347656 -0.19361725 0.94016695
-0.11512443 -0.19531758 0.94279587
-0.10569435 -0.19551493 0.94747061
-0.098616973 -0.19739857 0.94800007
-0.14202461 -0.18038757 0.94000006
-0.13461173 -0.18319657 0.94035745
-0.12471833 -0.18474402 0.94202399
-0.1161352 -0.18573201 0.94717234
-0.10783659 -0.18686187 0.94800013
-0.15240245 -0.17175883 0.94000012
-0.14462009 -0.17403452 0.94096678
-0.13515374 -0.17512712 0.94534785
-0.12630939 -0.17661214 0.94712496
-0.11853792 -0.17863007 0.94800007
-0.17249732 -0.16134213 0.94000006
-0.16420405 -0.16347352 0.94238907
-0.15492678 -0.16523017 0.94404775
-0.14543185 -0.16696118 0.94624132
-0.13669044 -0.16832614 0.9476667
-0.19242704 -0.15181437 0.94115406
-0.18426386 -0.15327579 0.94230008
-0.17504682 -0.15584828 0.9445405
-0.16553393 -0.15702443 0.9472174
-0.15821521 -0.15755665 0.94800007
-0.23350045 -0.14131443 0.94071442
-0.22505794 -0.14242332 0.94331998
-0.21498053 -0.14249822 0.94316667
-0.20485988 -0.14485529 0.94327915
-0.1956428 -0.14727834 0.94537508
-0.18724631 -0.14822266 0.94757146
-0.40496838 -0.13864307 0.94000012
-0.34422341 -0.13229883 0.94050002
-0.3332594 -0.13096146 0.94066679
-0.32579261 -0.13118751 0.94033337
-0.31261736 -0.13182168 0.94000006
-0.30449259 -0.13151732 0.94075024
-0.29494429 -0.13157016 0.941778
-0.28538036 -0.13203444 0.94170606
-0.27474695 -0.13266262 0.94262499
-0.26446152 -0.13376413 0.94229746
-0.25539601 -0.13545194 0.94386214
-0.24468826 -0.13782912 0.94331825
-0.23578382 -0.13809673 0.94463652
-0.22555134 -0.13911742 0.94800007
-0.21814272 -0.13911742 0.94800013
-0.33373177 -0.12842129 0.94200003
-0.32301375 -0.12891069 0.94080013
-0.31446239 -0.12767211 0.94086373
-0.30606553 -0.12816267 0.94357145
-0.29497921 -0.12787426 0.94333345
-0.2840957 -0.12857926 0.9453637
-0.27669197 -0.12841758 0.9471429
-0.2647844 -0.12910295 0.94700015
-0.25765535 -0.12923926 0.94800007
-0.13047142 0.16985904 0.94500005
-0.12225005 0.16884655 0.94700003
-0.11771094 0.16635993 0.94592309
-0.14409636 0.17647643 0.94484222
-0.13527007 0.17263778 0.94309109
-0.12492712 0.17207901 0.94280005
-0.11770986 0.17288376 0.94137508
-0.1511395 0.18630049 0.94725001
-0.14743038 0.18415503 0.94181824
-0.47003579 0.1975632 0.94800007
-0.46390137 0.1958205 0.94780004
-0.45851126 0.19509366 0.94800007
-0.16134328 0.19344731 0.94800007
-0.15463096 0.19433641 0.94340008
-0.1493707 0.19099861 0.94000006
-0.47236004 0.20506868 0.94800007
-0.46454796 0.2025023 0.94800007
-0.15100317 0.20160964 0.94000006
-0.47352037 0.22698669 0.94728571
-0.46410885 0.22769161 0.94800007
-0.48156032 0.23625267 0.94800007
-0.47362676 0.23341431 0.9465
-0.46578756 0.23199037 0.94740003
-0.47555593 0.24274127 0.94800007
0.26671034 0.25930172 0.94800007
0.2860364 0.2585215 0.94116676
0.29497275 0.25892127 0.94362503
0.30319494 0.25896826 0.94320011
0.31573319 0.25912371 0.94354546
0.32485923 0.2576122 0.94316685
0.33529812 0.2568894 0.94447988
0.34576771 0.25728661 0.94549996
0.3536092 0.25693768 0.94235724
0.36564517 0.25624979 0.94133353
0.3748928 0.25774854 0.94266671
0.38558531 0.25835025 0.94493347
0.39532363 0.25735128 0.94400001
0.40445209 0.25614187 0.94409096
0.41599417 0.25536069 0.9438234
0.42552504 0.25426045 0.94290918
0.4303838 0.25479984 0.94050002
0.51581144 0.25421867 0.94380009
-0.34217978 0.2699692 0.94500005
-0.3141005 0.26911214 0.94200003
-0.30346689 0.26911214 0.94200003
-0.20596433 0.2699692 0.94500005
-0.14295894 0.2686311 0.94800013
-0.12343609 0.2688345 0.94422227
-0.10721471 0.26789171 0.94250005
-0.090601906 0.26609206 0.94000006
-0.087726854 0.2680974 0.94419998
-0.075515822 0.26912567 0.94320005
-0.0657285 0.26920736 0.9423334
-0.053614974 0.26849231 0.94631243
-0.044571403 0.26833642 0.94472218
-0.035323799 0.2697061 0.9460001
-0.024175161 0.26916543 0.94362503
-0.015571147 0.26888829 0.94377786
-0.0051853973 0.26792571 0.94166678
0.0053909612 0.26734838 0.94040006
0.014421801 0.26710841 0.94360012
0.023306502 0.2682974 0.94490004
0.035253786 0.26707485 0.94427288
0.044842329 0.26590699 0.94466662
0.05560755 0.26667941 0.94460011
0.063396908 0.26651463 0.9451251
0.076665938 0.26660484 0.94530004
0.084845208 0.26615152 0.94408339
0.095607184 0.265203 0.94508338
0.10500659 0.26374838 0.94330007
0.11518166 0.26373202 0.94395238
0.12460855 0.26315895 0.94412506
0.13562521 0.26318988 0.94375008
0.1447846 0.26266724 0.94383347
0.15408653 0.2639156 0.94390005
0.16287276 0.26474389 0.94612509
0.17699675 0.26473638 0.94557154
0.18538535 0.26327428 0.94258344
0.19375758 0.2637651 0.94483352
0.20573881 0.26252812 0.94400001
0.2145271 0.26198527 0.94242871
0.22498438 0.26303488 0.94323105
0.23498337 0.26161435 0.94447058
0.24476235 0.26263162 0.94400018
0.2558184 0.2623665 0.94275004
0.26503831 0.26117286 0.94414294
0.27435291 0.26089475 0.94314295
0.28813037 0.26037845 0.94000006
0.31669855 0.26037845 0.94000006
0.33383945 0.26037845 0.94000006
0.34269035 0.26032722 0.9410001
0.39342448 0.26037845 0.94000006
-0.51254582 0.27894008 0.94442868
-0.50575364 0.27930015 0.94427276
-0.49473459 0.27872205 0.94408339
-0.48502603 0.27651533 0.94075006
-0.47561538 0.27310389 0.94166672
-0.46425495 0.27362329 0.94628578
-0.44379997 0.27430737 0.94300008
-0.43501854 0.27307743 0.94188905
-0.42432132 0.27242896 0.94216675
-0.41541982 0.27307269 0.94405884
-0.40528399 0.2734955 0.94333345
-0.39394701 0.27284908 0.94400012
-0.38484758 0.27242875 0.94500005
-0.37579605 0.27153036 0.94228578
-0.36548913 0.27309281 0.94375002
-0.35410771 0.27321452 0.94413328
-0.34570912 0.27170593 0.94200009
-0.3351039 0.27169043 0.9419412
-0.32559046 0.27206516 0.94260007
-0.31720465 0.27142119 0.94150007
-0.30256036 0.27408946 0.9460001
-0.29497883 0.27483496 0.94400007
-0.28454304 0.27328861 0.94514287
-0.27596116 0.27292976 0.94476938
-0.26379967 0.27239466 0.94274998
-0.25458607 0.27320775 0.94452947
-0.24519707 0.27278697 0.94441181
-0.23536326 0.27191138 0.94442856
-0.22501786 0.27260059 0.94478583
-0.21520485 0.27338907 0.9443599
-0.20575254 0.27231187 0.94290012
-0.19505347 0.27270091 0.94353855
-0.18459426 0.27270719 0.94426668
-0.17583187 0.2709465 0.94270003
-0.16454776 0.27151394 0.94363642
-0.15452129 0.27270484 0.94514287
-0.14667642 0.27239656 0.94463646
-0.12093018 0.27046067 0.94100004
-0.11552835 0.27092648 0.94358343
-0.085085906 0.27028823 0.94040006
-0.077428713 0.27060857 0.94533342
-0.063666202 0.27017325 0.94000006
-0.058768801 0.27017325 0.94000006
-0.035098039 0.27017325 0.94000006
-0.0269357 0.27017325 0.94000006
-0.51614165 0.28063405 0.94500005
-0.072565757 -0.39073873 0.95620006
-0.06654907 -0.39097577 0.95800012
-0.083141655 -0.38446701 0.95334351
-0.075500384 -0.38522881 0.95608121
-0.067380928 -0.38648376 0.95800012
-0.091601238 -0.37362725 0.95037496
-0.085236132 -0.37448162 0.95432639
-0.07810273 -0.37535524 0.95800006
-0.092570551 -0.36480129 0.95250016
-0.084985182 -0.36450362 0.95727044
-0.079027027 -0.36435616 0.95800012
-0.094095096 -0.35447609 0.95294458
-0.085908793 -0.35512996 0.95800012
-0.079027019 -0.3568694 0.95800006
-0.10187721 -0.34275287 0.95000005
-0.095113538 -0.34458172 0.95255023
-0.086624674 -0.34384379 0.95740014
-0.10193614 -0.33479831 0.94999999
-0.094890647 -0.33471772 0.95155019
-0.086018778 -0.33392945 0.95714301
-0.079027019 -0.33191347 0.95800006
-0.10193614 -0.3237209 0.94999999
-0.094883412 -0.32463083 0.95221466
-0.085299261 -0.3247169 0.95758635
-0.079027019 -0.32426032 0.95800012
-0.10201471 -0.3186928 0.95000005
-0.094921611 -0.315016 0.95192116
-0.085160926 -0.31458187 0.95727289
-0.078472443 -0.31361246 0.95800006
-0.094156973 -0.30510402 0.95038724
-0.084843382 -0.30460492 0.95641679
-0.078195155 -0.30496109 0.95800012
-0.094688639 -0.29561472 0.95000029
-0.085353583 -0.29493344 0.95490009
-0.078003198 -0.29428765 0.95800012
-0.092528149 -0.28610861 0.94999993
-0.085448086 -0.28523877 0.95356417
-0.076046184 -0.28484395 0.95800012
-0.084978454 -0.27519292 0.95112818
-0.075275816 -0.2745342 0.95662504
-0.085043527 -0.26540232 0.95134914
-0.074819863 -0.26492423 0.95741683
-0.069044657 -0.26120508 0.95800006
-0.084662139 -0.2552034 0.95113522
-0.074668415 -0.25471577 0.95550001
-0.069044657 -0.25455022 0.95800012
