# .PCD v0.7 - Point Cloud Data file format
VERSION 0.7
FIELDS x y z
SIZE 4 4 4
TYPE F F F
COUNT 1 1 1
WIDTH 1493
HEIGHT 1
VIEWPOINT 0 0 0 1 0 0 0
POINTS 1493
DATA ascii
0.41577101 0.24876492 1.076
0.42441165 0.24771747 1.0742145
0.43639326 0.24836196 1.0749092
0.4439913 0.2474205 1.0734445
0.45504934 0.24757259 1.073875
0.46572453 0.24637136 1.0730002
0.47288513 0.24587154 1.075
0.57847202 0.24351931 1.0745001
0.58464223 0.24179231 1.075125
0.59032947 0.24154082 1.074
0.019529685 0.25946581 1.0710001
0.028081901 0.25928956 1.0780001
0.032838628 0.25767305 1.0744001
0.04961136 0.25928956 1.0780001
0.056507837 0.25939533 1.0738001
0.069040753 0.25937769 1.0745001
0.077905998 0.25937769 1.0745001
0.082632124 0.25862503 1.07525
0.098897524 0.25937769 1.0745001
0.1048391 0.25928956 1.0780001
0.1152073 0.25685072 1.0743334
0.12544942 0.25557351 1.0755
0.135249 0.25800109 1.0742
0.14449935 0.25785682 1.0736001
0.15578452 0.25716183 1.0743334
0.16475844 0.25692564 1.0740001
0.17484201 0.2571359 1.0742222
0.18605036 0.25620025 1.0751429
0.19496903 0.25646308 1.0749413
0.20538197 0.25638554 1.0745556
0.21516788 0.25522584 1.0748463
0.22483687 0.25562239 1.0744001
0.23546846 0.25558293 1.0746666
0.24599637 0.25557709 1.075
0.25534987 0.25366983 1.0732498
0.26463678 0.25401926 1.0740001
0.27585599 0.25610337 1.0758572
0.28528476 0.25472686 1.0752728
0.29406804 0.25348887 1.07425
0.30502853 0.25550875 1.0742728
0.31566739 0.25372157 1.0747499
0.324166 0.25314134 1.0731112
0.33544326 0.25310493 1.0737695
0.34454069 0.25249627 1.0743334
0.35370243 0.25206864 1.0738335
0.36878854 0.25051636 1.0725
0.37385398 0.25016597 1.0710001
0.38501382 0.25016597 1.0710001
0.39458916 0.25034115 1.07175
0.40436375 0.25063312 1.073
0.41523829 0.25016597 1.0710001
0.42314318 0.25016597 1.0710001
0.43244305 0.25016597 1.0710001
-0.49010211 0.26876566 1.0710001
-0.46378249 0.26914209 1.0725
-0.45399076 0.26865017 1.0780001
-0.44670737 0.26867905 1.0762501
-0.4241218 0.26892501 1.0735
-0.41380888 0.26791272 1.0743001
-0.40542403 0.26843628 1.0760001
-0.39506954 0.26734874 1.0749999
-0.38596737 0.26747361 1.0732858
-0.37568098 0.26700902 1.0726668
-0.36511597 0.26732105 1.0726668
-0.35640988 0.26772627 1.0728
-0.34570262 0.26861805 1.076
-0.33526742 0.26919287 1.0755
-0.32545435 0.26672995 1.0734168
-0.31459177 0.26355752 1.0714287
-0.30796483 0.26865017 1.0780001
-0.29003549 0.26951852 1.074
-0.28377241 0.26933029 1.0732499
-0.27482677 0.26875621 1.0756249
-0.26467559 0.26747328 1.0732859
-0.25497895 0.26817542 1.0745001
-0.24568097 0.26618931 1.07375
-0.23561651 0.2671079 1.074625
-0.22447865 0.26698819 1.0746666
-0.21508053 0.26569274 1.0741335
-0.20614147 0.26732877 1.0742
-0.19295943 0.2667788 1.076125
-0.18483518 0.26745412 1.0742859
-0.17723827 0.26645246 1.0718572
-0.095071286 0.26471001 1.0734167
-0.084898174 0.2649518 1.0744002
-0.075074129 0.26407602 1.0746365
-0.06549082 0.26503858 1.0752858
-0.055815309 0.26505297 1.0773335
-0.045682322 0.26345029 1.0736001
-0.031826153 0.26396987 1.0780001
-0.025492098 0.26357001 1.0738335
-0.013986167 0.2618854 1.074
-0.0054473444 0.26230675 1.0756668
0.0045121498 0.26218429 1.0751668
0.013394332 0.26098803 1.076
0.025478205 0.26038149 1.0735
0.054090224 0.2601926 1.074
0.062498078 0.2607182 1.07425
0.073674612 0.2601926 1.0740001
0.10538267 0.2601926 1.074
-0.4723829 0.27113104 1.073
-0.46701142 0.27078933 1.0735
-0.42310065 0.2705223 1.0780001
-0.41446334 0.27124566 1.0710001
-0.34148383 0.27057397 1.0745001
-0.33386463 0.27093562 1.0710001
-0.32828471 0.27062565 1.0710001
-0.30047634 0.2705223 1.0780001
-0.29298782 0.2705223 1.0780001
-0.28737146 0.2705223 1.0780001
-0.27337611 0.27057397 1.0745001
-0.25459707 0.2713837 1.074
-0.56601697 -0.44070479 1.0810001
0.065187521 -0.4449757 1.0880001
-0.59130621 -0.43655807 1.084
-0.58427763 -0.43479738 1.0838336
-0.57527095 -0.43588895 1.0859092
-0.56646329 -0.4381611 1.0833001
0.073529027 -0.42208788 1.0810001
0.06758412 -0.4120754 1.0810001
0.072486058 -0.41624728 1.0810002
0.064768113 -0.40832072 1.0810001
-0.55551106 -0.28058976 1.0880001
-0.55302036 -0.27389067 1.0880003
-0.54889786 -0.27303183 1.0880001
-0.56236041 -0.2628758 1.0880002
-0.55439687 -0.2649129 1.0861051
-0.54750174 -0.26438075 1.0859375
-0.56364012 -0.25459933 1.0859545
-0.55492145 -0.25532037 1.0849997
-0.5451197 -0.25498989 1.0859997
-0.53945035 -0.25035787 1.0880001
-0.56352103 -0.2438878 1.0858332
-0.55498111 -0.24489312 1.0848616
-0.54524523 -0.24484338 1.0855712
-0.53742629 -0.24372032 1.0862001
-0.56216365 -0.23455743 1.0824548
-0.55471945 -0.23500404 1.0823333
-0.54541534 -0.23550799 1.0832632
-0.53767359 -0.23542581 1.0840002
-0.56261754 -0.22532204 1.0814707
-0.55481774 -0.22518335 1.0809999
-0.54710954 -0.22420765 1.0810003
-0.56091326 -0.2155886 1.0842001
-0.5546155 -0.21535504 1.0817273
-0.54536635 -0.21495502 1.081
-0.53535384 -0.21453783 1.0809999
-0.56057429 -0.20067619 1.085
-0.55583984 -0.20556836 1.0810001
-0.54442763 -0.20869726 1.0810002
-0.53375036 -0.20685899 1.0810002
-0.52826232 -0.20585361 1.0825001
-0.56057429 -0.19502333 1.085
-0.55498898 -0.19544305 1.0818422
-0.54348898 -0.19054967 1.0810001
-0.52659297 -0.19993636 1.0810001
-0.56057429 -0.18937048 1.085
-0.55603492 -0.18628386 1.0816669
-0.54482996 -0.18473887 1.0810001
-0.53606904 -0.18393432 1.0810001
-0.52659297 -0.181163 1.0810001
-0.55099833 -0.17365365 1.0810001
-0.54496402 -0.17365365 1.0810003
-0.53494382 -0.17540151 1.0809999
-0.52487206 -0.17545277 1.081
-0.5165022 -0.17447495 1.0810002
-0.5096969 -0.17177631 1.0810001
-0.54466456 -0.16620122 1.081381
-0.53416377 -0.16560201 1.0819395
-0.52489638 -0.16582105 1.0838332
-0.51529628 -0.16542371 1.0836999
-0.50578308 -0.16525289 1.0835599
-0.49841294 -0.16550955 1.0830001
-0.53094763 -0.15966219 1.0880001
-0.5233897 -0.15966219 1.0880001
-0.51520193 -0.15903237 1.0880002
-0.36369687 0.14881866 1.0830001
-0.35548717 0.14760606 1.0859232
-0.22169714 0.14823477 1.0846001
-0.21441272 0.14670216 1.0830001
-0.20608751 0.14392318 1.0846366
-0.36171991 0.15173474 1.082
-0.35422328 0.15430561 1.0845355
-0.3465153 0.15767872 1.0873574
-0.22684817 0.15479386 1.0840002
-0.35012329 0.16145095 1.0810001
-0.34484965 0.16520423 1.0847
-0.33916408 0.16910966 1.0880001
-0.2316715 0.1658828 1.0875001
-0.22770891 0.16378829 1.0825001
-0.34271902 0.17483865 1.0832398
-0.33683398 0.17593846 1.0869412
-0.23302393 0.17523402 1.0850002
-0.22997375 0.17646965 1.0810001
-0.34261838 0.18477997 1.0827647
-0.33566305 0.18346505 1.0870001
-0.23388873 0.1840615 1.0826001
-0.22959828 0.18416674 1.0810002
-0.34861153 0.19178358 1.0880001
0.38391536 0.24874711 1.0810001
0.39648548 0.24868797 1.0858752
0.41547844 0.24856722 1.0850002
0.42864177 0.24802844 1.0833335
0.43493533 0.24727806 1.0841668
0.44635379 0.24704768 1.084143
0.45589501 0.24824002 1.0870001
0.46430969 0.24722525 1.0846251
0.47293288 0.24605006 1.0856668
0.58383071 0.24352877 1.0862001
0.59802467 0.24279991 1.0880001
-0.010363558 0.25908896 1.085
-0.0056389566 0.25861138 1.0830001
0.0047153975 0.25923225 1.0856001
0.016046105 0.2595188 1.0868
0.025863502 0.25835592 1.0854446
0.036608066 0.2581338 1.0810001
0.049933508 0.25908896 1.085
0.055154879 0.25844914 1.0866365
0.065187521 0.25980535 1.0880002
0.075934127 0.25894493 1.0863751
0.082312621 0.25786078 1.0846001
0.096080869 0.25902927 1.0847501
0.10547819 0.25823766 1.0846002
0.11487201 0.25623459 1.0853335
0.1243614 0.25484651 1.0850002
0.13579904 0.25769666 1.0835557
0.14510155 0.25798073 1.0851002
0.15554143 0.25734693 1.0856001
0.1661977 0.2568526 1.0875001
0.17482236 0.25636834 1.0850911
0.18499342 0.25513646 1.0848464
0.19511837 0.25403699 1.0817275
0.20478874 0.2548078 1.0835001
0.21417475 0.25422773 1.0853752
0.22437449 0.25454035 1.0857002
0.23363566 0.25465253 1.0835001
0.24459338 0.25463811 1.0847778
0.25407237 0.25165865 1.083143
0.26712781 0.25357556 1.084
0.27548984 0.25405023 1.0851251
0.28394789 0.2531302 1.0848573
0.29442573 0.25244793 1.0851821
0.30557054 0.25351816 1.0842144
0.31334081 0.25270435 1.0843002
0.32523456 0.25233215 1.0856669
0.3344577 0.25249189 1.0850002
0.34476843 0.25129014 1.0827144
0.35467643 0.25118846 1.0834446
0.36508843 0.252556 1.0849093
0.37171572 0.2518996 1.0865
0.40605915 0.25060707 1.0850002
0.41096482 0.25035787 1.0880001
-0.49249887 0.26917744 1.0851668
-0.48496416 0.26932532 1.0845001
-0.47426283 0.26925281 1.0880001
-0.46333823 0.26828027 1.0857779
-0.4539845 0.26670599 1.0838002
-0.44587958 0.26781085 1.0840836
-0.43469366 0.26838472 1.0845002
-0.42547762 0.2679199 1.0837145
-0.41607228 0.26702306 1.0844287
-0.40622509 0.26709229 1.0847144
-0.39507389 0.26682755 1.082
-0.3858265 0.26707819 1.0834446
-0.37536022 0.26811442 1.0834001
-0.36637068 0.26842791 1.0846667
-0.35365018 0.26925284 1.0880001
-0.34320506 0.26899678 1.0837144
-0.33496222 0.26785287 1.0854002
-0.32880744 0.26662609 1.085
-0.31305358 0.26837549 1.0870001
-0.30373606 0.26807186 1.0880002
-0.29469886 0.26864207 1.0855457
-0.28388038 0.26859015 1.0853335
-0.27585563 0.26808685 1.0842501
-0.26521313 0.2671023 1.0854
-0.2555286 0.26597831 1.0832223
-0.24383199 0.26642951 1.0842001
-0.23442917 0.26714581 1.0842501
-0.2254211 0.26611984 1.0816668
-0.21254519 0.26639053 1.085143
-0.20444192 0.26702291 1.0837501
-0.19446588 0.26434553 1.0838751
-0.18583588 0.26433969 1.0833638
-0.17834699 0.26376581 1.0810001
-0.10076271 0.26367506 1.0845001
-0.094928481 0.26406375 1.0851251
-0.084804617 0.26352328 1.0851669
-0.074940093 0.26285425 1.0850003
-0.064839795 0.26391977 1.0846156
-0.055116992 0.263933 1.0859092
-0.045255039 0.26424676 1.0858752
-0.034639556 0.26391974 1.0855001
-0.025441388 0.26344514 1.0851001
-0.015978636 0.2617808 1.0825001
-0.0040698787 0.26064473 1.0823334
0.0040727733 0.2604844 1.0816668
0.015058058 0.26065254 1.0836668
0.02346671 0.26001114 1.0810001
0.053504102 0.26001114 1.0810001
0.064007454 0.26073271 1.0840001
0.073685467 0.26001114 1.0810001
-0.59199822 0.27409834 1.0847501
-0.48331869 0.27180788 1.085
-0.47556293 0.27093083 1.0837275
-0.46764961 0.2711423 1.0880001
-0.30481872 0.27084324 1.0868
-0.29664683 0.27137962 1.0835717
-0.28546894 0.27039465 1.085
-0.56764257 -0.44023198 1.095
-0.59518576 -0.43702719 1.0946001
-0.58155936 -0.43450671 1.0940001
-0.57457972 -0.43622211 1.0941875
-0.56841099 -0.43862385 1.0910001
-0.56395382 -0.30152223 1.098
-0.55775654 -0.3012839 1.098
-0.57386285 -0.29336467 1.0974998
-0.56511331 -0.29397422 1.0956248
-0.55499446 -0.29387027 1.0942726
-0.58063889 -0.2822153 1.098
-0.57475948 -0.28491676 1.0979998
-0.56533092 -0.28494242 1.0959473
-0.55436075 -0.2849465 1.0931197
-0.54842412 -0.28087762 1.0965
-0.57415551 -0.27515993 1.098
-0.56547451 -0.27559736 1.0962001
-0.55529177 -0.27710542 1.0912857
-0.54727745 -0.27491894 1.0937694
-0.57175195 -0.26802588 1.0965
-0.5651409 -0.26739806 1.092
-0.55988485 -0.26810053 1.0910001
-0.54498285 -0.26747936 1.0917858
-0.57296371 -0.25279507 1.0927143
-0.56935835 -0.25104821 1.0910001
-0.54232174 -0.25524119 1.09475
-0.53904313 -0.25104821 1.0910001
-0.57413292 -0.24755186 1.0965
-0.56935835 -0.24820614 1.0910001
-0.54283249 -0.23967998 1.0910001
-0.56556898 -0.19989121 1.0910001
-0.52956963 -0.16010244 1.0910001
-0.51156992 -0.16010244 1.0910001
-0.50446546 -0.16177914 1.0934616
-0.49652085 -0.16202059 1.0950001
-0.48542437 -0.16054268 1.0940001
-0.53151119 -0.15783696 1.095
-0.52465904 -0.15500495 1.0935599
-0.51417446 -0.15480354 1.0948749
-0.50486904 -0.15527929 1.0960767
-0.49527657 -0.15520242 1.096
-0.48748747 -0.15561821 1.0965
-0.50124818 -0.14712372 1.0971429
-0.49475649 -0.14614947 1.0974543
-0.48856819 -0.14803216 1.0975001
-0.20936473 0.13926069 1.0910001
-0.35179868 0.14618567 1.0940001
-0.34879518 0.14726195 1.0965002
-0.22361392 0.14653748 1.0958334
-0.214902 0.14404255 1.0946364
-0.20936474 0.1430501 1.0910001
-0.35146749 0.15062892 1.0910001
-0.34452373 0.15431309 1.0943477
-0.33544216 0.15636742 1.0976468
-0.32718247 0.15670499 1.0964001
-0.23210812 0.15600608 1.0955
-0.22977664 0.15159537 1.098
-0.34099689 0.16324854 1.0921429
-0.33593923 0.16495657 1.0952961
-0.32567888 0.16477695 1.0955355
-0.23594397 0.1653105 1.0946153
-0.33332145 0.17398915 1.0929443
-0.32506362 0.17488785 1.094611
-0.31844565 0.17447768 1.0979999
-0.24121781 0.1744777 1.098
-0.23796545 0.17431836 1.094
-0.3402369 0.18912779 1.0945001
-0.33300963 0.18513876 1.0933751
-0.32506049 0.1837569 1.093238
-0.31820729 0.18258184 1.098
-0.24169451 0.18258186 1.098
-0.23778528 0.18189153 1.0910001
-0.35085443 0.19682078 1.095
-0.34628439 0.19491775 1.0943531
0.5863595 0.2383575 1.098
0.30788931 0.24725881 1.0910001
0.35525689 0.24915349 1.0910001
0.38789821 0.24892229 1.0962501
0.39545935 0.24870925 1.0974001
0.40566355 0.24872136 1.0946666
0.41474953 0.24756889 1.092375
0.42519504 0.24771208 1.0930001
0.43512228 0.24850529 1.0965
0.44400349 0.24793871 1.0940001
0.45540857 0.24755733 1.0940001
0.46445996 0.24760526 1.0953335
0.47361794 0.24693355 1.0955715
0.48243558 0.24693838 1.098
0.58657962 0.24534594 1.0977
0.595595 0.24309744 1.0955454
0.60187227 0.24246038 1.095
-0.08676213 0.25837955 1.098
-0.076066002 0.25957522 1.095
0.016137889 0.25822088 1.0933001
0.024974715 0.25736189 1.0923336
0.047843434 0.25886059 1.0946667
0.054274481 0.25639486 1.0928
0.065572582 0.25857162 1.0943334
0.074459001 0.25801483 1.0946668
0.084770359 0.25769839 1.0942222
0.096219584 0.25890186 1.0935001
0.10481386 0.25693816 1.0959287
0.11415293 0.25489658 1.0937002
0.12451118 0.25529575 1.0946001
0.13525791 0.25627214 1.0934546
0.14532122 0.25597101 1.0938333
0.15449843 0.25622469 1.0949167
0.16455142 0.25605378 1.0954001
0.17435661 0.25467253 1.0939999
0.1813271 0.254747 1.0933335
0.19784427 0.25356114 1.0936668
0.20549925 0.25369281 1.0926001
0.21527895 0.25433397 1.0970001
0.22517812 0.25368479 1.0942001
0.23516302 0.25433072 1.0929002
0.24490005 0.25345382 1.0945834
0.25268224 0.25230154 1.0948001
0.26692003 0.25317475 1.092
0.2768794 0.25175199 1.092
0.28515288 0.25104821 1.0910001
0.29495832 0.25214121 1.0957501
0.30513272 0.25148302 1.0935836
0.31465191 0.25095898 1.09475
0.32562625 0.2517291 1.095143
0.33403209 0.25086662 1.0938889
0.3455267 0.25224477 1.0962001
0.35519189 0.25095493 1.0941429
0.36478215 0.25078663 1.0940001
0.37486115 0.2511763 1.0957
0.38428178 0.25100532 1.0963334
0.39269075 0.250067 1.095
0.40600228 0.250067 1.095
0.58445263 0.25075209 1.098
-0.50055075 0.26982069 1.098
-0.49338317 0.26865295 1.0948001
-0.4845871 0.26794478 1.0942498
-0.47476354 0.267351 1.0957059
-0.46642643 0.26714548 1.0940001
-0.45851821 0.26620582 1.0910001
-0.44466767 0.26726559 1.091889
-0.43596902 0.26789233 1.0948
-0.42447436 0.26708296 1.0957144
-0.41401371 0.26532552 1.0946429
-0.4059535 0.26644278 1.0954444
-0.39433056 0.26646349 1.0942858
-0.38533336 0.26817012 1.0957143
-0.37431282 0.2686089 1.0952859
-0.36506146 0.26851973 1.0942668
-0.35636505 0.26908106 1.0950001
-0.34438655 0.26793918 1.0950001
-0.33564794 0.26642787 1.0941429
-0.32518217 0.26718184 1.095
-0.31412464 0.26711199 1.0947274
-0.30523553 0.26618275 1.093143
-0.2939221 0.26693103 1.0934285
-0.28508824 0.26711199 1.0947273
-0.27640387 0.26765838 1.0954001
-0.26721072 0.26748562 1.095143
-0.24546427 0.26637524 1.094625
-0.23619504 0.26661363 1.094625
-0.22450933 0.26662001 1.0940001
-0.21376204 0.26492181 1.0951
-0.20529149 0.26536387 1.0941538
-0.19468078 0.26431113 1.0910001
-0.18422337 0.26416039 1.0960001
-0.17904948 0.26431113 1.0910001
-0.10173828 0.26337853 1.095
-0.094495386 0.26229423 1.0941539
-0.085229233 0.26139325 1.0946667
-0.075269252 0.26160887 1.0932858
-0.065117575 0.26205364 1.093889
-0.055874038 0.26244792 1.0943
-0.044196364 0.26279956 1.0945833
-0.035475686 0.26231414 1.0934546
-0.024907883 0.26221088 1.0949
-0.017100958 0.26230484 1.0945001
-0.00094735168 0.26052171 1.0910001
0.00858087 0.26028639 1.098
0.0104543 0.26040405 1.0945001
0.036548153 0.26028639 1.098
0.043917585 0.26043344 1.0936251
-0.59709209 0.27313358 1.0960001
-0.48785084 0.27158833 1.0923334
-0.60186356 -0.44008264 1.1090001
-0.59885567 -0.44024849 1.1070001
-0.5720489 -0.4407734 1.1035
-0.60335612 -0.43659917 1.1075001
-0.59465331 -0.43731704 1.1075335
-0.58492094 -0.43475413 1.1063846
-0.57763499 -0.4355801 1.1054001
-0.57393706 -0.31200606 1.1090001
-0.56597066 -0.31366941 1.1090002
-0.58230376 -0.30428448 1.1084287
-0.57470673 -0.30546057 1.1057143
-0.56508583 -0.30725053 1.1041335
-0.5580349 -0.30554003 1.1065001
-0.57557738 -0.29903227 1.102
-0.55326408 -0.29312822 1.1037143
-0.57701278 -0.28037268 1.102
-0.55250257 -0.28754303 1.1032858
-0.58163095 -0.27788103 1.1035
-0.57535416 -0.2761623 1.1020002
-0.54639184 -0.27463126 1.102
-0.54721147 -0.26477662 1.1068125
-0.544478 -0.2583639 1.102
-0.48219508 -0.16105066 1.1040001
-0.47614723 -0.16135015 1.1067778
-0.46473494 -0.16158834 1.1090001
-0.51002949 -0.15023383 1.102
-0.50715876 -0.15023383 1.102
-0.48363209 -0.15422601 1.1048398
-0.47521803 -0.15481357 1.1073997
-0.46641004 -0.15622592 1.1075
-0.49069723 -0.14334592 1.103
-0.48553428 -0.14604536 1.1058636
-0.47590557 -0.14887698 1.1090001
-0.22148579 0.13866937 1.1090001
-0.21695006 0.13919166 1.1055
-0.34474251 0.14574292 1.1042271
-0.33574465 0.14713563 1.1075
-0.32837677 0.14926216 1.1090001
-0.2326213 0.1485115 1.1070001
-0.22463974 0.14396589 1.1060002
-0.2167275 0.14160903 1.1034001
-0.34460875 0.15128848 1.1037143
-0.3354871 0.15171647 1.1031539
-0.3241365 0.15490538 1.1062607
-0.31566542 0.15670922 1.1090002
-0.30911714 0.15889198 1.1090001
-0.24170841 0.157929 1.1090001
-0.23605525 0.1543678 1.1050625
-0.32115015 0.16416331 1.1023751
-0.31507912 0.16501421 1.1057999
-0.30736625 0.16607055 1.1090002
-0.24282457 0.16544671 1.1053078
-0.23859327 0.16097727 1.1035
-0.31367403 0.17515993 1.1047198
-0.30565482 0.17481764 1.1085383
-0.29900581 0.17670715 1.1090001
-0.24564597 0.17528796 1.1061251
-0.3238748 0.18894587 1.1068001
-0.31430376 0.18502593 1.1046665
-0.30648765 0.18447116 1.1077141
-0.29948729 0.18007758 1.1090001
-0.2462288 0.18202524 1.1068001
-0.34281772 0.1957591 1.1036364
-0.33544374 0.19388354 1.10755
-0.32837677 0.19163336 1.1090001
-0.31428334 0.19361366 1.1082002
-0.30755007 0.19239458 1.1072223
-0.34531042 0.20295595 1.1077274
0.59695333 0.23755057 1.1049001
0.60586011 0.23849602 1.1075001
0.30716598 0.24975178 1.102
0.35805553 0.24958202 1.1055
0.36582366 0.24932551 1.1057779
0.37394428 0.24961598 1.1048001
0.38540077 0.24850965 1.1050001
0.39402017 0.24794325 1.10675
0.40551516 0.24888751 1.1066668
0.41335702 0.247439 1.1045001
0.4235881 0.24789183 1.1036668
0.43507585 0.247853 1.1032858
0.44517985 0.24804342 1.106125
0.45579305 0.24769415 1.1061112
0.4647966 0.24763489 1.1053751
0.4745335 0.24671899 1.1070001
0.4843002 0.24695478 1.1066251
0.58425254 0.24713941 1.1023002
0.5953002 0.24124596 1.1020001
0.60419703 0.24137659 1.1037143
-0.085164398 0.25932083 1.102
0.0077038533 0.25904208 1.1090001
0.014704285 0.25684988 1.1044168
0.022857312 0.25795612 1.1060001
0.036151946 0.25853163 1.1080002
0.044208825 0.25836855 1.1046363
0.065456621 0.25740764 1.1053001
0.074280769 0.25637558 1.1052668
0.086087048 0.25719368 1.1056668
0.09534023 0.25820395 1.1046002
0.10476691 0.25540662 1.1040001
0.11434156 0.25529119 1.1066668
0.12776861 0.25649786 1.1063335
0.13454926 0.25567454 1.1041667
0.14436807 0.25557169 1.1040001
0.15623052 0.2547704 1.1053333
0.1645619 0.25410753 1.1055001
0.17494623 0.25398242 1.106143
0.18488605 0.25533119 1.1048573
0.19345078 0.25557169 1.1040001
0.2070148 0.25398207 1.10375
0.21569403 0.25348935 1.1040001
0.22250131 0.25367317 1.1045001
0.23482636 0.2539936 1.1038001
0.24414706 0.25224787 1.1045556
0.25376868 0.25280744 1.1070001
0.26498351 0.25442314 1.1056668
0.27296323 0.25380951 1.103
0.29579514 0.25257906 1.1060001
0.3035422 0.25263616 1.10625
0.3179782 0.25073385 1.1063335
0.32563034 0.25186568 1.1052858
0.33542702 0.25112599 1.1068573
0.34596932 0.25162315 1.1054286
0.35296029 0.2514469 1.1058573
0.36269414 0.25043169 1.105
0.37708676 0.25043172 1.105
0.58371103 0.25166559 1.102
-0.59713405 0.26898217 1.105
-0.5061202 0.26890287 1.1060001
-0.49550277 0.26837143 1.1046002
-0.48498955 0.2664071 1.1060002
-0.47602057 0.26584393 1.10525
-0.46461523 0.26782396 1.1055
-0.45542276 0.26838523 1.1065001
-0.44564819 0.26794511 1.106889
-0.43487611 0.26890939 1.108
-0.42451569 0.26464307 1.1035833
-0.41509074 0.26406699 1.1031668
-0.40447822 0.26741454 1.1054001
-0.39576262 0.26778361 1.1053334
-0.38251647 0.26848993 1.1048573
-0.37457931 0.26758224 1.1061
-0.36461338 0.26671517 1.1053334
-0.35523069 0.26830328 1.1061667
-0.34570575 0.26659039 1.1043751
-0.33396509 0.26763329 1.1071001
-0.32588494 0.26858306 1.1060002
-0.31442663 0.26640815 1.1060002
-0.30341852 0.26471838 1.1062858
-0.29565895 0.26467681 1.1057333
-0.28454915 0.26682261 1.1066668
-0.27501649 0.2660006 1.1059232
-0.26589349 0.26707444 1.106077
-0.25519165 0.2676793 1.1065001
-0.24557923 0.26596138 1.1047499
-0.23387264 0.26615149 1.1050911
-0.22522931 0.26570046 1.1053333
-0.21500766 0.26400298 1.1032858
-0.2057528 0.26491687 1.1062001
-0.19999281 0.26506224 1.102
-0.18471916 0.26467741 1.1068001
-0.10150962 0.26354119 1.1063335
-0.09574385 0.26131266 1.1053752
-0.086355753 0.26002675 1.105
-0.065187521 0.26170874 1.104
-0.05382935 0.2622894 1.1041429
-0.045158025 0.26232508 1.1066002
-0.033596978 0.26202482 1.1053333
-0.023975844 0.26117364 1.1044445
-0.014928626 0.26180887 1.105909
-0.0047949371 0.26199317 1.1052001
0.0050731762 0.2611891 1.1052859
0.036250141 0.2602683 1.1044
0.09307231 0.26002675 1.105
-0.6037991 0.27066645 1.1066668
-0.59805882 0.27132109 1.1030002
-0.50363946 0.27059785 1.1090001
-0.58143604 -0.44286042 1.1160001
-0.57871771 -0.44323164 1.1145
-0.60439813 -0.43347117 1.1144212
-0.59529656 -0.43318659 1.114737
-0.58480054 -0.4332526 1.114
-0.57206845 -0.32398909 1.1160001
-0.56522214 -0.3217392 1.1156669
-0.55914766 -0.32075888 1.1160001
-0.58366215 -0.31254935 1.1143637
-0.57531255 -0.31706107 1.1139001
-0.56455719 -0.3167083 1.1142501
-0.55877888 -0.31458318 1.1147144
-0.58567178 -0.30829915 1.113
-0.55764455 -0.30829915 1.113
-0.5489465 -0.27157387 1.113
-0.54798007 -0.26915771 1.113
-0.46312147 -0.1532844 1.1137501
-0.45803139 -0.15518564 1.1146667
-0.48247582 -0.14529042 1.113
-0.47464469 -0.14632286 1.1141251
-0.46753669 -0.14780369 1.1151819
-0.31494451 0.13857558 1.1160001
-0.22518402 0.13820307 1.113
-0.3340461 0.14574367 1.1140001
-0.3251538 0.14690475 1.114875
-0.31752867 0.14406693 1.1160002
-0.23491457 0.14718337 1.1143334
-0.22774942 0.14183444 1.1142
-0.32355276 0.15096888 1.1145
-0.31446764 0.1531201 1.1143126
-0.30705395 0.15739881 1.1148001
-0.24346545 0.15494706 1.1146364
-0.30437666 0.16506745 1.114125
-0.29943955 0.16958551 1.1160001
-0.25098655 0.16764741 1.1160001
-0.2476629 0.16421953 1.114125
-0.30121183 0.17170684 1.1130002
-0.29698202 0.17562832 1.1146154
-0.25098655 0.17539987 1.1160001
-0.24837895 0.17396191 1.113
-0.30187684 0.18634769 1.1133749
-0.2976481 0.18358712 1.1151001
-0.25098655 0.18315235 1.1160001
-0.33600423 0.19715683 1.113
-0.3254582 0.19529499 1.1147144
-0.31989661 0.19135809 1.113
-0.30387455 0.19064823 1.1145
-0.34124866 0.20302965 1.114
-0.33546039 0.20299055 1.1147144
0.60844642 0.23699424 1.1140001
0.61176604 0.23678148 1.113
0.36533567 0.24904843 1.1160001
0.37502623 0.24904843 1.1160001
0.38469753 0.24747352 1.1151429
0.39552966 0.24723117 1.1148001
0.40562487 0.2480706 1.1148751
0.41074339 0.24837895 1.113
0.42439359 0.24882528 1.1150001
0.43801513 0.24904843 1.1160001
0.44710273 0.24774465 1.1145
0.45440409 0.24721102 1.1150001
0.46516475 0.24637668 1.1148751
0.47589511 0.24605136 1.1145
0.48618746 0.24510902 1.1142501
0.49276704 0.24468765 1.1160001
-0.053155027 0.25997642 1.113
-0.022228464 0.25997645 1.1130002
-0.014124832 0.25948146 1.1142
0.0062852139 0.25870061 1.11375
0.013552513 0.25742221 1.1145
0.026611378 0.25935772 1.1145
0.035500944 0.2581833 1.1150001
0.045446832 0.25740841 1.1136001
0.05467765 0.25887448 1.1145
0.063870691 0.25742349 1.1145
0.074547291 0.25527871 1.1150001
0.085770488 0.25666285 1.1140001
0.09505026 0.25709429 1.114125
0.1046993 0.25611061 1.1130002
0.11725627 0.25680095 1.1160001
0.12463661 0.25604993 1.1151431
0.13482048 0.25611058 1.113
0.14570652 0.25638673 1.1142
0.15613198 0.25387421 1.1145
0.16562226 0.25278869 1.1154002
0.17589222 0.25463444 1.1150001
0.18565184 0.25507075 1.1155001
0.19400367 0.25567445 1.1147144
0.20198911 0.25611061 1.1130002
0.21493769 0.25398839 1.1150001
0.2261318 0.25451937 1.1145
0.23451817 0.2548424 1.1145
0.24258021 0.2532112 1.113
0.25372505 0.25275469 1.1152501
0.26842964 0.25486279 1.1160001
0.27523357 0.25419167 1.114125
0.28435898 0.25373271 1.1149092
0.29447338 0.2534259 1.1148001
0.30576146 0.25248834 1.1155002
0.31494451 0.25098655 1.1160001
0.324285 0.25148985 1.1148001
0.33499262 0.25076166 1.1150001
0.34541261 0.25134605 1.1151429
0.35396022 0.25048053 1.1137501
0.37885037 0.25031185 1.113
0.38174975 0.25031185 1.113
-0.60306793 0.26964095 1.113
-0.51125473 0.26964095 1.113
-0.50572634 0.26939869 1.1136001
-0.4947477 0.26818913 1.1150001
-0.48471913 0.26606169 1.1142
-0.47495401 0.26698127 1.1140001
-0.46468091 0.26791611 1.114875
-0.45554942 0.2676366 1.1138572
-0.44407803 0.2679967 1.1142
-0.43465298 0.2679486 1.1140001
-0.41074339 0.26770803 1.113
-0.40742332 0.26806885 1.1145
-0.39528012 0.26867449 1.113
-0.38603029 0.26838326 1.1142001
-0.37565666 0.26657486 1.1150001
-0.36436224 0.2659297 1.115
-0.35565069 0.26586151 1.1146154
-0.34502444 0.26577517 1.113
-0.33497012 0.26652703 1.114125
-0.32621893 0.268141 1.1148
-0.31724125 0.26689702 1.1150001
-0.30677652 0.26516426 1.1145
-0.29274601 0.26468104 1.1145
-0.28537628 0.26573309 1.1151431
-0.27481294 0.2651442 1.1136001
-0.26469779 0.26608217 1.1142858
-0.25624865 0.26630503 1.1136
-0.24403347 0.26531702 1.114125
-0.23525046 0.26429337 1.1149092
-0.22601198 0.26475704 1.1155002
-0.21466924 0.26380217 1.114875
-0.20447165 0.26552248 1.1160002
-0.19457372 0.26620495 1.1148001
-0.1849498 0.2632435 1.1151429
-0.10429744 0.26335248 1.1142
-0.094416276 0.2609852 1.11525
-0.084263943 0.2613112 1.1154002
-0.074617624 0.26300287 1.1160001
-0.063662559 0.26180407 1.1142
-0.054901354 0.26144722 1.114125
-0.046191864 0.26229224 1.1160002
-0.034193978 0.26289213 1.1160002
-0.02709721 0.26129323 1.1145
-0.0145359 0.26164621 1.1160001
-0.0045222803 0.26229224 1.1160002
0.0022611402 0.26196924 1.1160001
-0.60760063 0.27036774 1.1160001
-0.50100404 0.27036774 1.1160001
-0.58293647 -0.44133565 1.12
-0.57771921 -0.4418087 1.1212
-0.61257684 -0.43100098 1.1242502
-0.60596925 -0.43135729 1.1234001
-0.59487706 -0.43085703 1.1219091
-0.58416897 -0.43456468 1.1232693
-0.57640946 -0.43608463 1.1222501
-0.61456811 -0.42765328 1.1270001
-0.60478204 -0.42961052 1.1270001
-0.59499592 -0.42961055 1.1270001
-0.57248783 -0.42765331 1.1270001
-0.58129537 -0.35132161 1.1270001
-0.59150094 -0.34321314 1.1270001
-0.58442146 -0.34470323 1.1268002
-0.57793736 -0.34547147 1.1258
-0.59254938 -0.33492988 1.127
-0.58455104 -0.33466038 1.1241665
-0.57483637 -0.33503783 1.1243848
-0.56704968 -0.33291313 1.1235001
-0.59271252 -0.32555148 1.1270001
-0.5845803 -0.32497168 1.1217369
-0.5754745 -0.32585606 1.12075
-0.56399208 -0.32572129 1.1215334
-0.59111834 -0.3174718 1.1215
-0.58578932 -0.31834263 1.12
-0.56359613 -0.31895074 1.1210001
-0.55920666 -0.31607333 1.12
-0.46000829 -0.15074266 1.12
-0.45385179 -0.15444957 1.1225001
-0.44532728 -0.15433213 1.123857
-0.43861368 -0.15328553 1.1264286
-0.4807432 -0.14139506 1.123
-0.47496897 -0.14241154 1.1218001
-0.46461758 -0.14461683 1.1215419
-0.45465991 -0.14506169 1.1212002
-0.44484296 -0.14535616 1.1234668
-0.43776566 -0.14662865 1.127
-0.42515427 -0.14380555 1.1266
-0.47462669 -0.13994147 1.1270001
-0.46400177 -0.13938227 1.1270001
-0.45426303 -0.13842373 1.122625
-0.44608831 -0.139162 1.1233333
-0.43743944 -0.13994147 1.1270001
-0.42765331 -0.13896286 1.1270001
-0.31287527 0.1398173 1.126
-0.30826268 0.13994147 1.1270001
-0.23249799 0.13969313 1.125
-0.22915752 0.13944478 1.123
-0.32385361 0.14412944 1.12
-0.31454068 0.14508963 1.1220403
-0.30655259 0.14650325 1.1238749
-0.24454568 0.14785764 1.1247
-0.235585 0.14361666 1.1223637
-0.3121832 0.1515207 1.12
-0.30383882 0.15404223 1.1208636
-0.29582646 0.1562593 1.1243809
-0.25266778 0.15611953 1.1247144
-0.24780576 0.15436545 1.1209
-0.30187437 0.16319111 1.12
-0.2946901 0.16468194 1.1231381
-0.28802708 0.16633919 1.1261111
-0.25587675 0.16482075 1.1239412
-0.24994108 0.16046801 1.12
-0.29362193 0.17426443 1.1205716
-0.28737861 0.17530392 1.1238947
-0.26128933 0.17125705 1.1270001
-0.25637218 0.17493391 1.123125
-0.30051282 0.18964401 1.12
-0.29393044 0.18600896 1.1215295
-0.28735441 0.18321863 1.1243334
-0.26128933 0.18593621 1.1270001
-0.25724378 0.18402211 1.1256363
-0.30148536 0.19158907 1.12
-0.29584426 0.19235086 1.1244445
-0.33357894 0.20228693 1.12
-0.32871628 0.20228693 1.12
0.61467308 0.2360924 1.1228573
0.30521831 0.24866028 1.123
0.31348199 0.24954598 1.1270001
0.32558334 0.24960244 1.126
0.33556256 0.24980938 1.1223334
0.34330428 0.24994108 1.12
0.35629919 0.24964523 1.1224287
0.36482102 0.24874181 1.1233751
0.37636811 0.24806558 1.123625
0.38391972 0.24694511 1.12075
0.39557153 0.24701114 1.1226
0.40498614 0.24708641 1.1225001
0.41599032 0.247815 1.1231111
0.42545798 0.24806499 1.1252222
0.43504643 0.24861532 1.1240715
0.4447749 0.24760304 1.1241112
0.45525822 0.24589048 1.1232222
0.46433905 0.24543047 1.1221111
0.4748446 0.24516638 1.1228889
0.48515865 0.2438484 1.1233
0.49391565 0.24198332 1.1228001
0.60576063 0.24171709 1.1270001
-0.29856774 0.25966641 1.12
-0.085139215 0.25933209 1.1270001
-0.061652537 0.25933209 1.1270001
-0.054787062 0.25864741 1.1233335
-0.046375562 0.25883204 1.1257778
-0.033464372 0.25865445 1.1251251
-0.024389314 0.25949928 1.1235
-0.016265042 0.25929016 1.1240001
-0.0045488365 0.2584371 1.1224167
0.0043807416 0.25793713 1.122
0.0116704 0.25772133 1.12
0.024699744 0.25942764 1.125
0.034558896 0.25773469 1.1228889
0.046009798 0.25668928 1.1221111
0.056487195 0.25929612 1.1244286
0.065335043 0.25645867 1.123
0.075048745 0.25585788 1.1224999
0.084853195 0.25650707 1.1232001
0.094615944 0.25555268 1.1233
0.10491347 0.25567555 1.1234546
0.1159206 0.25618735 1.1218001
0.1262137 0.25600466 1.1210001
0.13511971 0.25560266 1.1239091
0.1457691 0.25542474 1.1239091
0.15411991 0.25405785 1.1210001
0.1648342 0.25261706 1.1232501
0.17473872 0.25439164 1.1242001
0.18603033 0.25439009 1.1246251
0.19493791 0.25341997 1.1225002
0.2048929 0.25493869 1.12275
0.21555725 0.25330845 1.122
0.22596388 0.25326213 1.122875
0.23487824 0.25411379 1.1237143
0.2446657 0.25358891 1.1238573
0.25596589 0.25279257 1.1251251
0.26458782 0.25505739 1.1225556
0.27533475 0.25386855 1.1238573
0.28586665 0.25210807 1.1236
0.29570669 0.25308442 1.1228572
0.3046104 0.25143385 1.1227274
0.31552875 0.25112075 1.1238334
0.32530686 0.25097501 1.1221429
0.33512256 0.25061056 1.123
0.34617412 0.25061056 1.123
0.35167676 0.25105688 1.125
0.43393657 0.25061056 1.123
0.59810799 0.25772136 1.1200001
0.60332948 0.25767863 1.1232001
-0.51224548 0.26850188 1.1228001
-0.50446087 0.26745656 1.1229413
-0.49514538 0.26706675 1.1224999
-0.48567533 0.26678172 1.1253999
-0.47456837 0.26744723 1.1251249
-0.4643999 0.26647252 1.1233637
-0.45508373 0.26662445 1.1240001
-0.44473743 0.2672343 1.1232001
-0.43647298 0.26694912 1.1220001
-0.41519532 0.26801041 1.124
-0.40614179 0.26870006 1.1234443
-0.39509472 0.26925498 1.1235001
-0.38480529 0.26725876 1.1227144
-0.37462649 0.26524568 1.1247001
-0.36587694 0.26549321 1.1251249
-0.35327882 0.26716098 1.1270001
-0.34340456 0.26633132 1.1235001
-0.33433586 0.2651712 1.1219
-0.32541046 0.26711422 1.1227001
-0.3135128 0.26675129 1.122
-0.30465767 0.26434004 1.1233335
-0.29554728 0.26310179 1.1244615
-0.28597701 0.26436269 1.12275
-0.27352673 0.26473314 1.125
-0.26480708 0.26523909 1.1225555
-0.25583157 0.26557052 1.1216667
-0.24514945 0.26406503 1.123
-0.23551373 0.26284581 1.1242501
-0.224563 0.26350486 1.1211667
-0.21433741 0.26242259 1.1225555
-0.20473789 0.26275858 1.1224705
-0.19504796 0.26404387 1.1231251
-0.18773702 0.2621147 1.1221666
-0.1045453 0.26201957 1.1232728
-0.095166236 0.26098391 1.1232858
-0.084022053 0.26098391 1.1232858
-0.075347237 0.26212445 1.12325
-0.065545283 0.26163405 1.1228889
-0.059403986 0.26098669 1.1215
-0.044307578 0.26120123 1.122889
-0.036225922 0.26172248 1.122
-0.010712194 0.26098669 1.1215
-0.0060343961 0.26136157 1.1206001
0.00097383582 0.26098669 1.1215
0.59810799 0.26161146 1.12
0.60539848 0.26201031 1.1252857
-0.61163229 0.27107543 1.1270001
-0.60967511 0.27107543 1.1270001
-0.39342839 0.27072507 1.1215
-0.61363381 -0.43072242 1.1325001
-0.59101593 -0.43072242 1.1325001
-0.58625859 -0.43372536 1.1357335
-0.57869035 -0.43147427 1.1353334
-0.61421824 -0.42532063 1.1347146
-0.60536128 -0.42632315 1.1346433
-0.59558797 -0.42767206 1.1348503
-0.58413637 -0.42761123 1.1380002
-0.61266124 -0.41996944 1.138
-0.60376781 -0.41996944 1.138
-0.59388614 -0.36067963 1.138
-0.58894539 -0.36067963 1.138
-0.6017915 -0.35079798 1.138
-0.59475881 -0.35468605 1.1364288
-0.5854131 -0.35528603 1.1348462
-0.57821316 -0.35244748 1.1344001
-0.59569383 -0.34554487 1.1326668
-0.57613796 -0.34562412 1.133
-0.5967803 -0.33358154 1.131
-0.57038081 -0.33789152 1.1345
-0.56603092 -0.33292103 1.1343334
-0.60376781 -0.32807022 1.138
-0.59750426 -0.3272512 1.1317501
-0.56338829 -0.32590595 1.1339
-0.56273472 -0.31917763 1.131
-0.43227893 -0.16247386 1.1340001
-0.42834017 -0.16050448 1.1340001
-0.43375459 -0.15446231 1.133
-0.42658454 -0.15411301 1.1334739
-0.44292033 -0.14043815 1.131
-0.43409061 -0.14397261 1.1311582
-0.42586023 -0.14798068 1.1316
-0.47041872 -0.13847399 1.131
-0.46747249 -0.13847399 1.131
-0.43465859 -0.13865764 1.1325001
-0.28162655 -0.12154409 1.138
-0.27511197 -0.12128776 1.1356001
-0.28360289 -0.11956777 1.138
-0.27522656 -0.11564622 1.1374786
-0.26673827 -0.11403405 1.1380002
-0.25494617 -0.11265062 1.1380002
-0.24486688 -0.1142317 1.1380001
-0.27458587 -0.10696868 1.1380002
-0.2657409 -0.10570319 1.1376803
-0.25494617 -0.1057335 1.1380004
-0.24737023 -0.10836859 1.138
-0.27174494 -0.098816335 1.138
-0.26621124 -0.098618709 1.1380001
-0.25725186 -0.098486952 1.1380001
-0.23364824 0.13900454 1.1353334
-0.22943278 0.1388413 1.1340001
-0.30422553 0.14534889 1.1360002
-0.29514271 0.14649531 1.1358825
-0.28732935 0.14734016 1.1371113
-0.27866209 0.14921267 1.138
-0.26423487 0.14881741 1.138
-0.25462827 0.14730947 1.1362309
-0.24479295 0.1434444 1.1356925
-0.23766458 0.14142025 1.131
-0.30150011 0.150259 1.131
-0.29384941 0.15246077 1.1318002
-0.28536427 0.15489188 1.1346432
-0.27569756 0.15539943 1.1380004
-0.26544303 0.15491962 1.1364003
-0.25658938 0.15358503 1.1327858
-0.28427115 0.16411209 1.1328002
-0.27488413 0.16453382 1.1346402
-0.26502901 0.16483651 1.1320387
-0.25828835 0.16007987 1.131
-0.28290159 0.17435381 1.1330001
-0.27472851 0.17429012 1.1340002
-0.26535526 0.17572673 1.132059
-0.28383303 0.18503565 1.1338238
-0.27523819 0.18396668 1.1350437
-0.26632264 0.18414965 1.1333125
-0.31214675 0.19939974 1.1340001
-0.30606693 0.19734934 1.1341
-0.2946611 0.19496539 1.1340001
-0.28853387 0.19115087 1.1366668
-0.30435431 0.20059717 1.138
-0.2994135 0.20059717 1.138
0.6235311 0.22777164 1.138
0.61870891 0.23551807 1.1348572
0.62238389 0.23184367 1.1351113
0.31805488 0.24912658 1.1340001
0.32539514 0.24790113 1.1344168
0.3328028 0.24795565 1.1361668
0.35569537 0.24872397 1.1336668
0.36538005 0.24861412 1.1331668
0.37545463 0.24808447 1.1348751
0.38510361 0.24646801 1.1334287
0.39539316 0.24724439 1.1344001
0.40506059 0.24697557 1.1331668
0.41448158 0.2467213 1.1320001
0.42564151 0.24652776 1.1333749
0.4354139 0.24464591 1.133118
0.44416571 0.2442742 1.1330001
0.45483053 0.24600548 1.134375
0.46756452 0.24562025 1.136
0.47489935 0.24434097 1.1335001
0.48386747 0.24340881 1.13375
0.49185854 0.2432269 1.1317501
0.60277963 0.24407636 1.138
0.61661398 0.2401237 1.138
-0.25099349 0.25988695 1.138
-0.24802901 0.25988695 1.138
-0.19170369 0.25889879 1.138
-0.1884075 0.25646919 1.136
-0.11265063 0.25889879 1.138
-0.10506368 0.25786242 1.1346366
-0.096666344 0.25943023 1.136
-0.082355164 0.25851846 1.1372
-0.075053528 0.25973472 1.1373334
-0.063160397 0.25806302 1.1365001
-0.055733979 0.25680405 1.1340001
-0.044626545 0.25823975 1.1336668
-0.035027698 0.25828835 1.131
-0.026592132 0.25904962 1.1343334
-0.0049234503 0.25897348 1.1340001
0.0039387601 0.25897348 1.1340001
0.015810613 0.25988695 1.138
0.025458915 0.25837621 1.1338573
0.033486411 0.25730476 1.13425
0.044528522 0.25590768 1.1340001
0.054853365 0.25710854 1.1338574
0.06419953 0.2558209 1.1340002
0.076432005 0.25569075 1.1343001
0.084871091 0.25531617 1.1346432
0.095465444 0.25489977 1.1334
0.10465751 0.2543779 1.1343751
0.11502534 0.25561202 1.1322002
0.12512502 0.25552297 1.133
0.13531123 0.25485528 1.1346667
0.14481325 0.25415897 1.1345001
0.15446036 0.25441596 1.133
0.16717717 0.25371268 1.1325001
0.1757362 0.25413665 1.134889
0.18416779 0.25429055 1.1342
0.19569281 0.25273061 1.1325001
0.20560545 0.25289583 1.1346155
0.21424852 0.25296345 1.1335555
0.22537576 0.25293145 1.1334
0.23566185 0.25299916 1.1346
0.24407153 0.25277382 1.1349167
0.25481838 0.25200176 1.1342858
0.2652677 0.25214034 1.1334003
0.27531934 0.25260004 1.1345296
0.28416327 0.25134951 1.1336668
0.29558909 0.25223407 1.1347001
0.30471361 0.25114024 1.1342
0.31562707 0.25017586 1.1352
0.3374736 0.25039399 1.1344001
0.34522089 0.2502422 1.1341112
0.35212588 0.25032508 1.13275
-0.51533347 0.26677892 1.13475
-0.50525641 0.26432052 1.1316
-0.49889919 0.26614505 1.131
-0.48365232 0.26733798 1.1344001
-0.47341436 0.26553503 1.1340002
-0.46512097 0.26385605 1.1352501
-0.45591277 0.26586372 1.1340001
-0.44514376 0.26689023 1.1341667
-0.43030953 0.26882038 1.1340001
-0.42424047 0.26880708 1.1353334
-0.41525787 0.26763532 1.1352501
-0.40511775 0.26794624 1.1351669
-0.39455634 0.26700416 1.1353077
-0.38473454 0.26592952 1.1326001
-0.37393278 0.2648471 1.1317501
-0.36435354 0.26516294 1.131
-0.35453963 0.2677545 1.1357501
-0.34507018 0.26692742 1.1343334
-0.33508053 0.26435828 1.1343001
-0.3249743 0.26574421 1.1343336
-0.31549609 0.26592994 1.1346157
-0.30793446 0.26464805 1.1330001
-0.28334701 0.26462805 1.1343334
-0.27527794 0.26482454 1.1337694
-0.26453644 0.26551333 1.1325001
-0.25439501 0.26410025 1.1342858
-0.24595271 0.26229632 1.1339
-0.23051602 0.26499841 1.1345
-0.22309135 0.26451156 1.1358001
-0.21704079 0.26221672 1.131
-0.20186146 0.26291224 1.1340001
-0.19499087 0.26195565 1.134125
-0.11372763 0.26343402 1.1343077
-0.10578602 0.26069498 1.1315001
-0.095375307 0.26057467 1.1324
-0.085441396 0.26025254 1.131
-0.075203419 0.26124799 1.1321251
-0.067408025 0.26078343 1.1316001
-0.010802935 0.26025254 1.131
-0.61693221 0.27196276 1.1361668
-0.60952312 0.27078977 1.1340001
-0.40197822 0.27110302 1.13325
-0.39744139 0.27096692 1.1320001
-0.59006202 -0.43410763 1.1440001
-0.58540779 -0.43492156 1.1426668
-0.6217562 -0.42342886 1.1420001
-0.61486459 -0.42226705 1.1433334
-0.60428762 -0.42321813 1.1436667
-0.59391034 -0.42425105 1.1433334
-0.58587217 -0.42491409 1.1428002
-0.60589004 -0.41946232 1.1420001
-0.59209049 -0.37117603 1.146
-0.602705 -0.36553711 1.146
-0.59485078 -0.36593544 1.1438824
-0.58723724 -0.36342061 1.1448572
-0.6042825 -0.35674495 1.1433334
-0.59994018 -0.35897249 1.1420001
-0.58311886 -0.35941705 1.145
-0.57665467 -0.35484213 1.1446667
-0.57530892 -0.34495986 1.1448572
-0.60489839 -0.33219829 1.1420001
-0.57019109 -0.33814812 1.1420001
-0.56622458 -0.33418155 1.1420001
-0.28399217 -0.11474332 1.1444616
-0.26474768 -0.11727289 1.1431429
-0.25485063 -0.11602149 1.1420001
-0.24360085 -0.11316433 1.1432002
-0.23982152 -0.11045721 1.146
-0.28269869 -0.10482983 1.1443334
-0.27703655 -0.10193452 1.1425002
-0.25187573 -0.10015531 1.1420001
-0.24546301 -0.10444976 1.1436365
-0.23982152 -0.10747188 1.146
-0.28261125 -0.098515891 1.146
-0.27481937 -0.095784254 1.1444616
-0.26474246 -0.093829937 1.1435001
-0.25478274 -0.093736745 1.1429093
-0.24773429 -0.095070623 1.145077
-0.26204568 -0.085247755 1.146
-0.25574324 -0.084584355 1.1459999
-0.24977262 -0.085579462 1.146
-0.26171395 -0.077618584 1.146
-0.25906032 -0.077950284 1.1460001
-0.26768461 -0.05174572 1.146
-0.26708752 -0.046173107 1.146
-0.25375307 0.01094621 1.146
-0.27166504 0.055726163 1.146
-0.26657894 0.05539446 1.146
-0.27166504 0.061696824 1.146
-0.2648983 0.062957302 1.1460001
-0.25972372 0.062691934 1.146
-0.24497016 0.13898718 1.1442223
-0.23811959 0.13869542 1.1450001
-0.30470338 0.14125064 1.1446667
-0.29531112 0.14251995 1.1442223
-0.2844485 0.14615665 1.1438463
-0.27494985 0.14790544 1.1442858
-0.26526636 0.14558463 1.144154
-0.2555325 0.14273295 1.1445
-0.24933672 0.14105728 1.1440001
-0.27666664 0.15271205 1.1420001
-0.28261647 0.18940261 1.1420001
-0.28658301 0.19138588 1.1420001
-0.31038228 0.20328552 1.1420001
-0.30542409 0.20328552 1.1420001
0.61941087 0.22917229 1.145
0.62470216 0.22583392 1.1442858
0.60390675 0.23105136 1.1420001
0.61851883 0.23565589 1.1445
0.6217562 0.232043 1.1420001
0.23783129 0.24977262 1.146
0.26867971 0.24977262 1.146
0.27564549 0.24977262 1.146
0.29753789 0.24977262 1.146
0.30251345 0.24977262 1.146
0.31744009 0.24977262 1.146
0.32472229 0.24765873 1.1436001
0.33553222 0.24671856 1.1437143
0.34428003 0.24907944 1.1454285
0.35529423 0.249005 1.1440001
0.36501667 0.248528 1.1433334
0.37571281 0.24782465 1.1446668
0.38576493 0.24706863 1.1450001
0.39450848 0.24703841 1.1444
0.40415883 0.24756618 1.145
0.42565787 0.24685325 1.1440001
0.43471807 0.24415536 1.1430001
0.44701278 0.24238136 1.1440001
0.45579615 0.24487939 1.1436001
0.46628171 0.24621186 1.1433334
0.47488746 0.24522023 1.1433334
0.48625368 0.24337646 1.1440001
0.49532193 0.2426255 1.1431431
0.50065839 0.24238136 1.1440001
0.60730016 0.243516 1.1446667
0.6136722 0.24266656 1.1437778
-0.47367239 0.25972372 1.146
-0.19270806 0.25749502 1.1420001
-0.10461767 0.25732973 1.1420001
-0.095360368 0.25927043 1.1440001
-0.086574569 0.25972372 1.146
-0.074426241 0.25899848 1.1428001
-0.066134706 0.25838372 1.1436001
-0.042789731 0.25972372 1.146
-0.034781616 0.25936109 1.1444
-0.024857605 0.25954244 1.1452001
-0.017911982 0.25972372 1.146
-0.0049755503 0.25972372 1.146
0.00099511002 0.25972372 1.146
0.015590057 0.25972372 1.1460001
0.024088869 0.2580274 1.1440001
0.034083243 0.25647038 1.1433334
0.048590198 0.25485063 1.1420001
0.054185737 0.25601593 1.145
0.064682156 0.25574327 1.146
0.074181721 0.25516671 1.1452001
0.088564791 0.25574327 1.146
0.094333313 0.25520769 1.1436001
0.10438236 0.25406668 1.1448572
0.11427926 0.2553862 1.1444
0.12533599 0.25479209 1.1442858
0.13435549 0.25448477 1.1433334
0.1482714 0.25375307 1.146
0.15402532 0.25459012 1.1444001
0.16528231 0.25466555 1.1437144
0.17576699 0.25322163 1.1436001
0.18542913 0.25430185 1.1440001
0.19481117 0.25345784 1.1446668
0.20598778 0.25176284 1.146
0.21548526 0.25242558 1.1436
0.22589476 0.25245315 1.1435001
0.23428357 0.25157627 1.1425716
0.24437332 0.25132346 1.1440001
0.25187573 0.25286737 1.1420001
0.26377535 0.25088409 1.1420001
0.27369171 0.25088409 1.1420001
0.28609326 0.25132346 1.1440001
0.29472241 0.25105983 1.1428002
0.30443245 0.25088409 1.1420001
0.31137392 0.25088409 1.1420001
0.34211466 0.25088409 1.1420001
-0.62194377 0.26967481 1.146
-0.6173842 0.26870662 1.1440001
-0.52182496 0.26737317 1.1446667
-0.51459813 0.26408219 1.1433334
-0.50334454 0.26772514 1.1433334
-0.49257946 0.26768461 1.146
-0.48455215 0.26660222 1.1435001
-0.47511944 0.26312628 1.1435001
-0.46639979 0.2624532 1.1420002
-0.45469874 0.26639947 1.1433334
-0.44434056 0.26709977 1.1435001
-0.43685332 0.26887873 1.146
-0.42521626 0.26791868 1.1436001
-0.41635716 0.26698387 1.143
-0.40476668 0.26658207 1.1437144
-0.39422715 0.2647399 1.1436001
-0.38863301 0.26538527 1.1446667
-0.37714669 0.26569438 1.146
-0.35425916 0.26768461 1.146
-0.34539089 0.2659905 1.1430001
-0.33120665 0.26476699 1.1420001
-0.32423136 0.26410273 1.1445
-0.31575903 0.26376113 1.1428002
-0.28808001 0.26523069 1.1440001
-0.27433836 0.26441503 1.1433334
-0.26513934 0.26672736 1.1436001
-0.25755635 0.26251799 1.1430001
-0.24493426 0.26179209 1.1420001
-0.23285574 0.26569438 1.146
-0.22575855 0.26454473 1.1453333
-0.21816006 0.26278374 1.1420001
-0.2017723 0.26273394 1.1446667
-0.19733571 0.26146156 1.1420001
-0.091230571 0.26080045 1.1420001
-0.087418593 0.2612572 1.1440001
-0.021816008 0.26080045 1.1420001
-0.014926651 0.26171395 1.146
0.0089247301 0.26080045 1.1420001
0.01421346 0.26080045 1.1420001
-0.62483186 0.27218258 1.1440001
-0.61733729 0.27095386 1.1430001
-0.6319322 -0.42095324 1.1570001
-0.62510788 -0.42218885 1.1538
-0.61568004 -0.42170087 1.1515
-0.60417521 -0.42204055 1.1511999
-0.59427792 -0.42153493 1.1506668
-0.58893275 -0.42195052 1.1515
-0.62590426 -0.41894394 1.1570001
-0.61410373 -0.41651118 1.1554667
-0.60593081 -0.41536212 1.1545768
-0.59537679 -0.41517392 1.1544847
-0.58971816 -0.41520229 1.155
-0.61442244 -0.40487871 1.1569999
-0.60630906 -0.40456915 1.1568332
-0.59609675 -0.40520969 1.1561723
-0.58898288 -0.40412515 1.1570001
-0.62289023 -0.39382738 1.1570001
-0.61462975 -0.39527854 1.1569998
-0.6056236 -0.39559105 1.156818
-0.59636712 -0.39563575 1.1569998
-0.58873177 -0.39784604 1.1570001
-0.61317849 -0.38545522 1.1570001
-0.60535443 -0.38432875 1.1569998
-0.59718269 -0.38525817 1.1569998
-0.58772707 -0.38779941 1.1570001
-0.61234128 -0.37524113 1.1570001
-0.60479426 -0.37432119 1.152
-0.59493095 -0.3753705 1.1534443
-0.58606184 -0.37432516 1.1553527
-0.5796898 -0.37072018 1.1570001
-0.61291981 -0.36514828 1.1552501
-0.60837239 -0.36606467 1.1512001
-0.59016275 -0.36847726 1.1500001
-0.58362144 -0.36558333 1.1506666
-0.57808357 -0.36438051 1.1522
-0.58017695 -0.35150135 1.1500001
-0.57618213 -0.35356197 1.1510909
-0.26500404 -0.121459 1.156
-0.23728164 -0.1211438 1.153
-0.29285294 -0.11486544 1.153909
-0.28859058 -0.11383851 1.1500001
-0.26162884 -0.11883142 1.1500001
-0.25503418 -0.11901742 1.1518
-0.24253565 -0.1169376 1.151
-0.23642017 -0.11402183 1.1518748
-0.29338962 -0.10518878 1.1537142
-0.28784165 -0.10410231 1.1500001
-0.24145746 -0.10245466 1.1500001
-0.23416972 -0.10507804 1.1524999
-0.22748412 -0.10635063 1.1570002
-0.29352608 -0.095832311 1.1556666
-0.28539217 -0.09430328 1.1512855
-0.27585864 -0.091869675 1.1500001
-0.26762033 -0.090871088 1.1500001
-0.24328007 -0.094409443 1.1501763
-0.23617029 -0.095891319 1.1539499
-0.29135188 -0.089414895 1.1570001
-0.28399831 -0.08601959 1.1545999
-0.27487099 -0.084958479 1.1510798
-0.2667644 -0.08459428 1.15
-0.25064442 -0.080885254 1.1500001
-0.24439235 -0.084797457 1.1518214
-0.23869443 -0.088257402 1.155
-0.2828266 -0.077225231 1.155
-0.27486378 -0.075962014 1.1510499
-0.2663056 -0.075860582 1.1517142
-0.25455469 -0.076995239 1.1515713
-0.24592677 -0.078546181 1.1559999
-0.28030062 -0.061284363 1.1570001
-0.2726652 -0.062489957 1.1570001
-0.26444384 -0.062447585 1.1561998
-0.25546235 -0.06173373 1.1560001
-0.29159677 -0.055111382 1.1539999
-0.28403619 -0.055081248 1.1533998
-0.27506247 -0.054881494 1.1525832
-0.26451737 -0.055235371 1.1510433
-0.25483966 -0.055174198 1.1519613
-0.24501897 -0.054622855 1.1549999
-0.23810482 -0.053247072 1.1570001
-0.29034722 -0.049228422 1.1570001
-0.28450754 -0.045735169 1.1553527
-0.27520987 -0.04488996 1.1510434
-0.26333231 -0.044231363 1.1499999
-0.25474441 -0.044953965 1.1504798
-0.24442773 -0.04511857 1.1528618
-0.23834066 -0.043974318 1.1562001
-0.28288406 -0.036024299 1.1570002
-0.27498606 -0.034998041 1.1515598
-0.2646246 -0.03495042 1.1499997
-0.25482288 -0.03497595 1.1508398
-0.24449046 -0.035070103 1.1539665
-0.23810482 -0.038177144 1.1570001
-0.28317112 -0.02683882 1.1570002
-0.27445859 -0.025273159 1.1516362
-0.26462457 -0.024964578 1.1499997
-0.25463876 -0.02496458 1.1499997
-0.24484102 -0.025254704 1.1529998
-0.28030062 -0.014065264 1.1570001
-0.27423254 -0.015011661 1.1525999
-0.2646246 -0.01497875 1.1499997
-0.25463876 -0.01497875 1.1499997
