# .PCD v0.7 - Point Cloud Data file format
VERSION 0.7
FIELDS x y z
SIZE 4 4 4
TYPE F F F
COUNT 1 1 1
WIDTH 1536
HEIGHT 1
VIEWPOINT 0 0 0 1 0 0 0
POINTS 1536
DATA ascii
0.14442739 0.24406928 1.366125
0.1544905 0.24300995 1.3665
0.16617347 0.24203281 1.365
0.17516369 0.24025829 1.363
0.18581553 0.24025829 1.363
0.19445631 0.2418825 1.3655
0.20460367 0.24134254 1.3646667
0.21303691 0.24025829 1.363
0.22605583 0.24025829 1.363
0.31600475 0.24025829 1.363
0.32547304 0.24025831 1.3630002
-0.74207854 0.25682783 1.363
-0.73409283 0.25748968 1.364
-0.46631411 0.25682783 1.363
-0.4532952 0.25446075 1.3630002
-0.44486159 0.25655282 1.3651429
-0.4351531 0.25699976 1.3655
-0.42623213 0.25417957 1.3651429
-0.41457015 0.25697806 1.368
-0.40572315 0.25576934 1.3657777
-0.39401042 0.25693834 1.36675
-0.38573247 0.25691625 1.3660001
-0.37563902 0.25477192 1.3646667
-0.3644087 0.25532055 1.3655
-0.35341367 0.25587404 1.3651429
-0.34642759 0.25339356 1.3657779
-0.16243999 0.25136817 1.3655
-0.15680502 0.2526468 1.3660001
-0.11522436 0.25064269 1.368
-0.047515202 0.25064269 1.368
-0.73054624 0.26014572 1.368
-0.72443718 0.26489726 1.3680001
-0.71866745 0.26489726 1.368
-0.39587408 0.26061782 1.3663334
0.72684103 0.20955054 1.3790001
0.74599999 0.20955054 1.3790001
0.7539829 0.20955054 1.3790001
0.53404129 0.21640697 1.3769168
0.5473268 0.21474253 1.37775
0.55462575 0.21560062 1.3761431
0.56471699 0.2170359 1.377125
0.57566333 0.21846603 1.3773334
0.58519584 0.21658082 1.3765
0.71726161 0.21434027 1.3790001
0.72573531 0.21196155 1.3760002
0.73678416 0.21259248 1.3770001
0.74502558 0.21310927 1.3762224
0.75361204 0.21305363 1.3765001
0.48376241 0.22870946 1.3790001
0.52668959 0.22610836 1.3777502
0.53121722 0.22199917 1.3760002
0.57387632 0.22072166 1.3740001
0.1469281 0.23930371 1.3756669
0.15344992 0.23943055 1.3752501
0.16106716 0.23981109 1.3740001
0.17559698 0.23850831 1.3756669
0.18134968 0.23742491 1.3740001
0.19924603 0.23981109 1.3740001
0.2040184 0.23981109 1.3740001
0.2270848 0.23583415 1.3740001
0.23384565 0.23742491 1.3740001
0.26128671 0.23742491 1.3740001
0.27900159 0.23828891 1.3790001
0.28535432 0.2375977 1.3750001
0.29424953 0.23691462 1.3756669
0.30773994 0.23828891 1.3790001
0.35464072 0.23746434 1.3770002
0.36282182 0.23589405 1.3790001
0.39252663 0.23503874 1.3740001
0.40712678 0.23589404 1.3790001
0.42868054 0.23828891 1.3790001
0.4352107 0.23651692 1.3756669
0.44463053 0.23546639 1.3765001
0.45861635 0.23349918 1.3790001
0.46460348 0.23349918 1.3790001
0.47488421 0.23359695 1.3775717
0.48437274 0.23241867 1.3773333
0.49406034 0.2349361 1.3790001
0.50752455 0.23465386 1.3752501
0.51499534 0.2328549 1.3767779
0.52321494 0.23233238 1.3761431
-0.4418523 0.24786836 1.3790001
-0.4330917 0.24935584 1.3740001
-0.36042693 0.24786836 1.3790001
-0.35413015 0.24810386 1.3750001
-0.34957537 0.24816273 1.3740001
-0.16240677 0.24838741 1.3752501
-0.15643916 0.24898395 1.3752501
-0.14913626 0.24935582 1.3740001
-0.12447906 0.24935584 1.3740001
-0.11463976 0.24838741 1.3752501
-0.10697476 0.24682029 1.3765001
-0.084709391 0.24935582 1.3740001
-0.072778493 0.24696964 1.3740001
-0.064605959 0.24764368 1.3777502
-0.051302873 0.24935582 1.3740001
-0.045021497 0.24861209 1.3765001
-0.03582852 0.24719432 1.3752501
-0.025073126 0.24714938 1.3750001
-0.016731482 0.247419 1.3765001
-0.0040599792 0.24685016 1.376
0.0040695309 0.24415779 1.3770001
0.013171747 0.24307863 1.3790001
0.11615088 0.24068378 1.3790001
0.13511354 0.24272609 1.3770002
0.14453468 0.24209049 1.3756669
0.15648727 0.24248818 1.3756669
0.16572437 0.24128918 1.3770002
0.17123273 0.24068378 1.3790001
0.2019991 0.24144053 1.3765001
0.24307865 0.24068378 1.3790001
0.25026321 0.24068378 1.3790001
0.32210913 0.24068378 1.3790001
-0.73492593 0.25726113 1.3779999
-0.72786742 0.25710571 1.3790001
-0.45180643 0.25459057 1.3765001
-0.44343829 0.25467825 1.3758185
-0.43521264 0.2528418 1.3756667
-0.42350116 0.2536265 1.37775
-0.41437888 0.25555247 1.3752501
-0.40335298 0.25562954 1.3756669
-0.39572453 0.25545081 1.3760003
-0.38424188 0.25443646 1.3756669
-0.37314138 0.25155446 1.3773334
-0.36413354 0.25244218 1.3756669
-0.35662514 0.25326446 1.3745003
-0.15648149 0.25124907 1.3756669
-0.14728411 0.25026321 1.3790001
-0.096991971 0.25026321 1.3790001
-0.046699837 0.25026321 1.3790001
-0.73136419 0.26128671 1.3740001
-0.72515953 0.26271859 1.3752501
-0.71965647 0.2646324 1.3790001
0.74635947 0.20709491 1.3850001
0.75474364 0.2070262 1.3850001
0.76127219 0.20805702 1.3850001
0.5279597 0.21767814 1.3850001
0.53216898 0.21527287 1.3850001
0.54599935 0.21286759 1.3850001
0.55441785 0.21286759 1.3850001
0.56484073 0.21527287 1.3850001
0.57486272 0.21707682 1.3850001
0.58448386 0.21527286 1.3850001
0.59290236 0.21286759 1.3850001
0.60372615 0.21286759 1.3850001
0.73601675 0.2104623 1.3850001
0.74323255 0.2104623 1.3850001
0.75886691 0.2104623 1.3850001
0.47985405 0.22970456 1.3850001
0.48546636 0.2289028 1.3850001
0.51773727 0.22790059 1.3850001
0.52425927 0.22526406 1.3850001
0.53036499 0.22008343 1.3850001
0.0044096867 0.23852395 1.3850001
0.14551964 0.2393257 1.3850001
0.15574209 0.2393257 1.3850001
0.16476193 0.2393257 1.3850001
0.1731804 0.2393257 1.3850001
0.2393257 0.2393257 1.3850001
0.2561627 0.2393257 1.3850001
0.288634 0.23692042 1.3850001
0.2970525 0.23692042 1.3850001
0.31148419 0.2393257 1.3850001
0.33673969 0.23812306 1.3850001
0.35718459 0.23692042 1.3850001
0.37281892 0.23692042 1.3850001
0.38484535 0.23692042 1.3850001
0.40432817 0.23595829 1.3850001
0.41370875 0.23451513 1.3850001
0.42934307 0.23692042 1.3850001
0.43535629 0.23571777 1.3850001
0.44738272 0.23451513 1.3850001
0.45459858 0.23451513 1.3850001
0.46421969 0.23331249 1.3850001
0.47504348 0.23210984 1.3850001
0.49548838 0.23271117 1.3850001
0.50551039 0.23451513 1.3850001
0.51352799 0.23210984 1.3850001
0.52314913 0.23210984 1.3850001
-0.37883213 0.24894683 1.3850001
-0.16476193 0.24654154 1.3850001
-0.15514079 0.24846578 1.3850001
-0.12266946 0.24894683 1.3850001
-0.11585449 0.24814507 1.3850001
-0.10583247 0.24654154 1.3850001
-0.081779636 0.24894683 1.3850001
-0.074964665 0.24894683 1.3850001
-0.05459993 0.24846578 1.3850001
-0.045700386 0.24714287 1.3850001
-0.03607925 0.24654154 1.3850001
-0.02124667 0.24573979 1.3850001
-0.014191172 0.24702261 1.3850001
-0.0060132085 0.24654154 1.3850001
0.0036079255 0.24253276 1.3850001
0.12748002 0.24413626 1.3850001
0.13589852 0.24173099 1.3850001
0.3259159 0.24173099 1.3850001
-0.74202991 0.25616267 1.3850001
-0.73401237 0.25696445 1.3850001
-0.45219329 0.25375739 1.3850001
-0.44778359 0.25215387 1.3850001
-0.42212725 0.25375739 1.3850001
-0.417918 0.25435871 1.3850001
-0.4040876 0.25375739 1.3850001
-0.39446649 0.25375739 1.3850001
-0.38556692 0.25375739 1.3850001
-0.37762949 0.25255474 1.3850001
-0.13349323 0.2513521 1.3850001
-0.092603408 0.25135213 1.3850001
-0.087792844 0.2513521 1.3850001
-0.72338903 0.26277721 1.3850001
0.73822576 0.20970945 1.396
0.74350178 0.20880812 1.3900001
0.75195062 0.20639415 1.3900001
0.52775574 0.21788222 1.3940001
0.53626418 0.21394345 1.3920001
0.5419355 0.21363606 1.3900001
0.55641937 0.21363606 1.3900001
0.56539375 0.21299227 1.3925717
0.57625037 0.21515496 1.3936001
0.58353353 0.21485661 1.3948001
0.59190983 0.21425085 1.3940001
0.72514689 0.21349105 1.3930001
0.7346313 0.2120561 1.3915002
0.48882827 0.22811985 1.3900001
0.49336269 0.22910455 1.396
0.51770121 0.22740261 1.3930001
0.52324134 0.22232264 1.3925717
-0.0048331432 0.23828891 1.393
0.0012121934 0.23880209 1.396
0.15087292 0.23777573 1.3900001
0.17501259 0.23777573 1.3900001
0.24260366 0.23777573 1.3900001
0.25585896 0.23749612 1.3912003
0.2639755 0.2379394 1.3945
0.28646317 0.2373132 1.3920002
0.29737005 0.23684371 1.3940001
0.3033922 0.23811786 1.3920001
0.31153369 0.23880209 1.396
0.3272922 0.23880209 1.396
0.33561838 0.23650679 1.3920002
0.34594226 0.23647323 1.3930001
0.35463384 0.23742622 1.3915002
0.36447296 0.23612373 1.3945
0.37644857 0.23684371 1.3940001
0.38585871 0.2366744 1.393
0.39535832 0.23430994 1.3933333
0.40446877 0.23296313 1.3927274
0.41488621 0.23314494 1.3930001
0.42444858 0.23459211 1.392625
0.43359953 0.23366062 1.3926667
0.44410807 0.23451672 1.3936001
0.45581219 0.23335002 1.3924001
0.46734047 0.23209648 1.3936
0.4747498 0.23073284 1.3912001
0.49486318 0.23053382 1.3900001
0.50267822 0.23209648 1.3936
0.51332468 0.23258345 1.3936001
-0.401236 0.24849965 1.396
-0.39444774 0.24801476 1.396
-0.38547748 0.24849965 1.396
-0.3777858 0.24984556 1.3900001
-0.1636461 0.24607526 1.3960001
-0.15449387 0.24743159 1.3900001
-0.1455538 0.24917261 1.393
-0.13595174 0.24926874 1.3925717
-0.125662 0.24838527 1.3934287
-0.1158249 0.24688904 1.3924001
-0.10314875 0.24778414 1.3920001
-0.093745612 0.24876884 1.3948001
-0.085536629 0.24894828 1.3940001
-0.074877739 0.2464087 1.3933334
-0.065566704 0.24551722 1.3940001
-0.056175459 0.24665657 1.3934287
-0.045190968 0.24612504 1.3940001
-0.033868477 0.24493904 1.3930001
-0.024808936 0.245373 1.3937501
-0.013797122 0.2446814 1.3936001
-0.0048296703 0.24277644 1.3910002
0.0048383535 0.24191508 1.3930001
0.014534598 0.24338906 1.3945
0.11466342 0.24260366 1.3900001
0.12794024 0.24260366 1.3900001
0.13518214 0.24139667 1.3900001
0.144251 0.24122648 1.396
0.17018466 0.24018969 1.3900001
0.19516313 0.24284273 1.3960001
0.20001191 0.24365087 1.396
0.24381064 0.24018969 1.3900001
0.25159177 0.24070808 1.3930001
0.26191539 0.24018969 1.3900001
0.27760619 0.24018969 1.3900001
0.31985059 0.24018969 1.3900001
0.32467854 0.2401897 1.3900001
0.33239454 0.24053529 1.3920002
-0.73180097 0.25884932 1.3930001
-0.72781098 0.25950143 1.3900001
-0.45261878 0.25225952 1.3900001
-0.40285227 0.25173217 1.3960001
-0.39508897 0.25178695 1.3933334
-0.38650769 0.25145823 1.3936001
-0.3777858 0.25225952 1.3900001
-0.14378601 0.25192565 1.3915
-0.13638912 0.25225952 1.3900001
-0.095763281 0.25092405 1.3960001
-0.72363561 0.26187328 1.3930001
0.75125551 0.20854719 1.4045
0.51801991 0.21869236 1.4070001
0.5258671 0.21718028 1.4051249
0.53509676 0.21447539 1.4050001
0.57583183 0.2130456 1.4020002
0.58417606 0.21220374 1.4045
0.59456348 0.21365343 1.406
0.72678983 0.21426299 1.4020001
0.73539889 0.21139213 1.4045
0.74505091 0.21061078 1.4020001
0.49969372 0.22846632 1.4070001
0.50661695 0.22765182 1.4070001
0.51622099 0.22485498 1.4054374
0.52272952 0.22115518 1.40325
0.1789583 0.23982847 1.4020001
0.18869752 0.23982847 1.4020001
0.2359204 0.23876968 1.4053335
0.24490578 0.23855793 1.406
0.25382113 0.23821929 1.4040002
0.26586932 0.23781697 1.4045
0.27615991 0.23855793 1.406
0.28538039 0.2378148 1.4045001
0.2945261 0.23659523 1.4045
0.30461892 0.23699445 1.40325
0.31458279 0.23867905 1.4034286
0.32501888 0.23831002 1.4042222
0.33435869 0.23673634 1.4053334
0.35489392 0.23629087 1.4045002
0.364939 0.23577705 1.40325
0.37218794 0.23632908 1.4053334
0.38572952 0.23680688 1.40575
0.39443868 0.23374145 1.4020001
0.40460062 0.23123264 1.406
0.41709656 0.23171693 1.4045
0.42516726 0.23090981 1.4070001
0.43355536 0.23171693 1.4045001
0.44593698 0.2341678 1.4070001
0.45571089 0.2333533 1.4070001
0.46448717 0.23188181 1.404
0.47478729 0.23008923 1.4020001
0.48087433 0.23008923 1.4020001
0.49791798 0.23008923 1.4020001
0.50400501 0.23008923 1.4020001
0.51305854 0.23171355 1.4026251
-0.40539533 0.24956769 1.4020001
-0.16565385 0.24583256 1.4061668
-0.15704505 0.24713288 1.4020002
-0.14256318 0.24735105 1.40325
-0.13354228 0.24696162 1.4045
-0.12497254 0.24530633 1.4054998
-0.11541384 0.2461956 1.4050001
-0.10321375 0.2461956 1.4050001
-0.095086083 0.24624273 1.4038751
-0.085296385 0.24613366 1.4032502
-0.075732321 0.24355364 1.4034288
-0.062087573 0.24348068 1.4020001
-0.055432763 0.24409689 1.4047778
-0.043064125 0.24417447 1.4036669
-0.030435083 0.24469808 1.4020001
-0.025098486 0.24292305 1.4030001
-0.015826244 0.24226329 1.4020002
0.11606579 0.24312727 1.4070001
0.12437365 0.24459337 1.4070001
0.1342693 0.24291125 1.40575
0.14521834 0.24121028 1.4053334
0.16860081 0.24068378 1.4070001
0.17226605 0.24068378 1.4070001
0.1844835 0.24068378 1.4070001
0.19605926 0.24121028 1.4053334
0.20470938 0.24247926 1.40325
0.22846632 0.24068378 1.4070001
0.24634747 0.24147353 1.4045
0.25045773 0.24068378 1.4070001
0.2744042 0.24147354 1.4045
-0.74383348 0.25687212 1.4020001
-0.73296189 0.25854754 1.4045
-0.72810912 0.25747997 1.4053334
-0.72442704 0.26220629 1.4045
-0.71838605 0.2626752 1.4070001
0.58525753 0.20980932 1.4130001
0.74557972 0.20980933 1.4130001
0.75212342 0.20980932 1.4130001
0.51764214 0.21824561 1.4160001
0.52460968 0.21599099 1.4160001
0.53485596 0.21394345 1.4160001
0.54530597 0.21455693 1.4160001
0.5557794 0.21666047 1.4150002
0.5655638 0.21562889 1.419
0.573578 0.21355531 1.4175001
0.58231914 0.21181829 1.4166001
0.5951097 0.2127139 1.4160001
0.60647166 0.21415029 1.419
0.73806685 0.21070021 1.419
0.74176335 0.21070021 1.419
0.7503885 0.21070021 1.419
0.77872831 0.21070021 1.419
0.39876038 0.22944058 1.4130001
0.40244126 0.22944058 1.4130001
0.42698035 0.22944058 1.4130001
0.43188816 0.22944058 1.4130001
0.46992376 0.22944058 1.4130001
0.47237769 0.22944058 1.4130001
0.48464724 0.22944058 1.4130001
0.49937069 0.22944058 1.4130001
0.50575465 0.22664891 1.4160001
0.51327246 0.22248006 1.4155716
0.018404325 0.23925623 1.4130001
0.020858236 0.23925623 1.4130001
0.16387795 0.23780786 1.419
0.17250311 0.23780786 1.419
0.18527021 0.23925623 1.4130001
0.19659069 0.23877345 1.4150002
0.2008429 0.23780786 1.419
0.23534352 0.23780786 1.419
0.2451041 0.23667282 1.4164287
0.25468954 0.23594853 1.4152501
0.26614767 0.23780786 1.419
0.27541885 0.23730336 1.4160001
0.28481841 0.23596871 1.4164287
0.29406893 0.2358298 1.4170002
0.30469388 0.23680232 1.4130001
0.3149558 0.23631606 1.4150002
0.32391614 0.23557536 1.4130001
0.33495876 0.2348392 1.4130001
0.34513515 0.23643762 1.4145001
0.35715753 0.23376071 1.4154001
0.36354598 0.23376074 1.4154001
0.37500799 0.23607293 1.4160001
0.3851206 0.23747268 1.4170002
0.39549503 0.23398371 1.4145001
0.4012143 0.23189451 1.4130001
0.41716471 0.23189451 1.4130001
0.42509693 0.23041487 1.419
0.43772078 0.23115468 1.4160001
0.44234726 0.23287919 1.419
0.4558672 0.23346686 1.4166001
0.46510193 0.23172951 1.4170002
0.47808003 0.23041487 1.419
0.48437285 0.23090808 1.4170002
0.49286604 0.23287919 1.419
-0.17300066 0.2478449 1.4130001
-0.15441139 0.24860297 1.4150002
-0.14518969 0.24825391 1.4130001
-0.13543946 0.2434601 1.4136667
-0.12511244 0.24261145 1.4154001
-0.11494787 0.24410674 1.4147145
-0.10600092 0.2443351 1.4140003
-0.096108355 0.24408589 1.4154001
-0.085979328 0.24442326 1.4145001
-0.06885276 0.24468245 1.4160001
-0.052759066 0.24293709 1.4130001
-0.046624292 0.24416405 1.4130001
-0.034425076 0.24468245 1.4160001
-0.013496506 0.24171016 1.4130001
0.015170652 0.24403557 1.4170002
0.020858236 0.24293709 1.4130001
0.11565197 0.24164988 1.4147145
0.1251166 0.24162574 1.4154
0.13525161 0.24099116 1.416
0.14490728 0.24084738 1.4166001
0.15533441 0.24099116 1.4160001
0.16428509 0.24088848 1.4164287
0.17478117 0.24063167 1.4175
0.18441403 0.24027219 1.419
0.19098558 0.24027218 1.419
0.20450293 0.24135065 1.4145001
0.21394345 0.24406637 1.4160001
0.22516493 0.24239439 1.4170002
0.23041487 0.24027218 1.419
-0.76271021 0.25916541 1.419
-0.7546581 0.25797752 1.4170002
-0.74399662 0.25756678 1.4170002
-0.73504436 0.25618875 1.41675
-0.72426921 0.2580685 1.4166001
-0.77010316 0.26245114 1.419
-0.7676388 0.26245114 1.419
-0.75948519 0.26134142 1.4130001
-0.7231968 0.26236114 1.4147145
-0.7183522 0.26368332 1.419
0.5308339 0.20911638 1.4250001
0.74861187 0.20911638 1.4250001
0.75727355 0.20911638 1.4250001
0.76222301 0.20911638 1.4250001
0.51474798 0.21839668 1.4250001
0.524647 0.21654063 1.4250001
0.53330863 0.21406588 1.4250001
0.54568237 0.21406588 1.4250001
0.55805612 0.21654063 1.4250001
0.56399554 0.21505578 1.4250001
0.57166731 0.21406588 1.4250001
0.58156627 0.21159112 1.4250001
0.59394002 0.21159112 1.4250001
0.60507637 0.21406588 1.4250001
0.61126328 0.2128285 1.4250001
0.73747551 0.21654063 1.4250001
0.45906615 0.22520225 1.4250001
0.46401563 0.22671458 1.4250001
0.47391468 0.22891438 1.4250001
0.50608635 0.22561471 1.4250001
0.51186085 0.22231506 1.4250001
0.11755063 0.23881339 1.4250001
0.12497488 0.23881339 1.4250001
0.1356988 0.23881339 1.4250001
0.148485 0.23881339 1.4250001
0.1563217 0.23881339 1.4250001
0.16580826 0.23757601 1.4250001
0.17570725 0.23757601 1.4250001
0.18560626 0.23881339 1.4250001
0.19426788 0.23881339 1.4250001
0.20664164 0.23881339 1.4250001
0.23485379 0.23732853 1.4250001
0.2425255 0.23633863 1.4250001
0.25861138 0.23633863 1.4250001
0.26479828 0.23633863 1.4250001
0.28088415 0.23633863 1.4250001
0.29449525 0.23510125 1.4250001
0.30315691 0.23633865 1.4250001
0.3138808 0.23633865 1.4250001
0.32542965 0.23386388 1.4250001
0.33161652 0.23386388 1.4250001
0.36873776 0.23386388 1.4250001
0.37863678 0.23633863 1.4250001
0.38606101 0.23633863 1.4250001
0.3963725 0.2346888 1.4250001
0.40957114 0.23138914 1.4250001
0.41699538 0.23386388 1.4250001
0.42441964 0.23138914 1.4250001
0.44792974 0.23386388 1.4250001
0.45535401 0.23386388 1.4250001
0.46772778 0.23138914 1.4250001
0.49371263 0.23138914 1.4250001
-0.15467188 0.24871238 1.4250001
-0.148485 0.24871238 1.4250001
-0.030934377 0.24376288 1.4250001
0.01526096 0.24211304 1.4250001
0.11260113 0.24128813 1.4250001
0.14229813 0.24128813 1.4250001
0.15467188 0.24128813 1.4250001
0.17694463 0.24128813 1.4250001
0.20787901 0.24128813 1.4250001
0.21530324 0.24314418 1.4250001
0.2247898 0.24211304 1.4250001
-0.77088463 0.25861138 1.4250001
-0.76511025 0.25778645 1.4250001
-0.75727355 0.25613663 1.4250001
-0.74737453 0.25613663 1.4250001
-0.72435933 0.25663158 1.4250001
-0.77212203 0.26108614 1.4250001
-0.72138965 0.26108614 1.4250001
-0.71891487 0.2623235 1.4250001
0.57694936 0.20945852 1.4330001
0.58401501 0.20999686 1.4310001
0.5902279 0.20999686 1.4310001
0.74803621 0.20999686 1.4310001
0.75529981 0.20945852 1.4330001
0.76365054 0.20838177 1.437
0.78792304 0.20892015 1.4350002
0.50750178 0.21674962 1.4336668
0.51390421 0.21476577 1.4330001
0.52344006 0.21443579 1.4330001
0.53300387 0.21332605 1.4325001
0.54127645 0.21277902 1.4330001
0.55615276 0.21556811 1.4350002
0.56495118 0.21334468 1.4344288
0.57402742 0.21209562 1.4340003
0.58028722 0.21248204 1.4310001
0.60453063 0.21270476 1.4325001
0.61262226 0.21194714 1.4330001
0.7393381 0.21496721 1.4310001
0.74368948 0.21201627 1.4346002
0.77238512 0.21087736 1.437
0.78735864 0.21087736 1.437
0.45702383 0.22691722 1.4350001
0.46382415 0.2247555 1.434
0.47329727 0.22700751 1.4325001
0.48460817 0.22987823 1.4310001
0.49508497 0.22861429 1.4340001
0.50382012 0.22453018 1.433143
-0.12353171 0.23832886 1.437
0.11804558 0.23733374 1.4310001
0.12526403 0.23890804 1.4330001
0.13448054 0.2372061 1.4340001
0.14501777 0.23825592 1.4344287
0.15445933 0.23802982 1.4322002
0.16329312 0.23683228 1.4355001
0.17556658 0.2365835 1.434
0.18380724 0.23703365 1.4322002
0.19407928 0.23842786 1.4346002
0.20463839 0.23832886 1.437
0.21591777 0.23888053 1.4336667
0.22538814 0.23782822 1.4326365
0.23550504 0.23633341 1.4350002
0.24492992 0.23558709 1.4355001
0.25508249 0.2351768 1.4330001
0.26555425 0.23613337 1.4358002
0.27457276 0.23673356 1.4334002
0.28699285 0.23583326 1.437
0.29572874 0.23534092 1.434
0.30663323 0.23620838 1.4355001
0.314895 0.23524244 1.4334002
0.32363531 0.233445 1.4346001
0.3335225 0.2338413 1.4350002
0.34064806 0.23583326 1.437
0.35711688 0.23600869 1.4330001
0.36458629 0.23268816 1.4330001
0.37526628 0.23398522 1.4344287
0.38378596 0.23425722 1.4350002
0.39471823 0.23448387 1.4352859
0.40135497 0.2323634 1.4310001
0.41378081 0.2323634 1.4310001
0.42247891 0.2323634 1.4310001
0.44608805 0.2323634 1.4310001
0.45551729 0.23252404 1.4320002
0.49579144 0.2323634 1.4310001
0.50200438 0.2323634 1.4310001
-0.73245567 0.24831121 1.437
-0.72691226 0.24851701 1.4310001
-0.17396191 0.24727443 1.4310001
-0.16407818 0.24709357 1.4361432
-0.15448628 0.24729721 1.4347501
-0.14646092 0.24742812 1.4355001
-0.12477951 0.24332003 1.437
-0.1168768 0.24498376 1.437
-0.1023192 0.24581562 1.437
-0.093584627 0.24581562 1.437
-0.087345652 0.24581562 1.437
-0.072223634 0.24530244 1.434
-0.068628728 0.24581562 1.437
-0.05448705 0.24581562 1.437
-0.044832051 0.24530244 1.4340001
-0.036034968 0.24478927 1.4310001
-0.024873843 0.24504584 1.4325001
-0.018638775 0.24478926 1.4310001
-0.0024955901 0.24332003 1.437
0.0078697056 0.24396086 1.4310001
0.011198896 0.24263927 1.4330001
0.11604494 0.24082445 1.437
0.21745238 0.24230409 1.4310001
0.22490789 0.24230409 1.4310001
-0.77756912 0.25885627 1.4346002
-0.76673663 0.25627038 1.4350002
-0.75578088 0.25608143 1.4358
-0.74711144 0.25526395 1.4340001
-0.73507023 0.25401616 1.4340003
-0.72605205 0.25464773 1.4336667
-0.71945673 0.25845769 1.4310001
-0.77910084 0.26218545 1.4310001
0.57763535 0.20925184 1.4430001
0.61773151 0.20925184 1.4430001
0.75305605 0.20925185 1.4430002
0.76308006 0.20925184 1.4430001
0.77310413 0.20925184 1.4430001
0.78814018 0.20925184 1.4430001
0.79377741 0.20642698 1.4478003
0.50723481 0.21620795 1.4464288
0.52581561 0.21278737 1.4466002
0.53326869 0.21372204 1.4450001
0.54405862 0.21234486 1.4470003
0.55596489 0.21529961 1.4466002
0.56563014 0.21199229 1.4467502
0.57380855 0.21093988 1.4460001
0.59514618 0.21066724 1.4470003
0.60436612 0.21234486 1.4470003
0.61399686 0.21150605 1.4470003
0.74612153 0.21263835 1.4490001
0.75115436 0.21012191 1.4490001
0.76373655 0.21012191 1.4490001
0.77691787 0.21066724 1.4470003
0.78523976 0.21105675 1.4455714
0.42476872 0.22929992 1.4430001
0.45610166 0.22741911 1.4470003
0.48992497 0.22929992 1.4430001
0.49607798 0.22704501 1.4478
0.50258958 0.22239493 1.4470003
-0.12154149 0.23807096 1.4430001
-0.11903547 0.23932396 1.4430001
0.11953043 0.23780264 1.4490001
0.1253594 0.23790996 1.4466
0.13714544 0.23612502 1.4490001
0.14409558 0.23681796 1.4430002
0.15537262 0.23681796 1.4430001
0.16790268 0.23681796 1.4430001
0.17583838 0.23681796 1.4430002
0.18586242 0.23681796 1.4430002
0.19250689 0.23780264 1.4490001
0.20717044 0.23731029 1.4460001
0.21581557 0.23630738 1.4450002
0.22600719 0.23542559 1.4460001
0.23295908 0.23630738 1.4450001
0.249348 0.23681796 1.4430001
0.25686604 0.23431194 1.4430001
0.26481754 0.23470166 1.4454001
0.27497599 0.23605208 1.4460001
0.28377047 0.23731029 1.4460001
0.29442233 0.23528621 1.4490001
0.30385762 0.23479907 1.4460001
0.31528264 0.23489653 1.4466002
0.3282873 0.23180594 1.4430001
0.3359434 0.234028 1.4490001
0.34655097 0.23731029 1.4460001
0.35910186 0.23731029 1.4460001
0.36537209 0.23354608 1.4460001
0.37628835 0.2320469 1.4445002
0.38592553 0.23243243 1.4430001
0.39551461 0.23259981 1.4460001
0.40472713 0.23189971 1.4475
0.41666195 0.23315533 1.4475
0.42536092 0.23296255 1.4450001
0.43192726 0.23228785 1.4460001
0.44918278 0.23276979 1.4490001
0.45295829 0.23212722 1.4450001
0.48692924 0.23025337 1.4490001
-0.7680921 0.249348 1.4430001
-0.75430906 0.249348 1.4430001
-0.18293872 0.249348 1.4430001
-0.17496483 0.24675134 1.4454002
-0.16567385 0.2434852 1.4454001
-0.15642823 0.24378082 1.4463335
-0.14701144 0.24668744 1.4470003
-0.13156553 0.24433598 1.4430001
-0.12586892 0.24193001 1.4466
-0.11545426 0.24346006 1.44525
-0.10847481 0.24584863 1.4470003
-0.094366133 0.24434535 1.4490002
-0.085280642 0.24541819 1.447286
-0.07768631 0.246842 1.4430001
-0.063340575 0.24646947 1.4445
-0.055246841 0.24358575 1.4460002
-0.045727801 0.24369293 1.4455717
-0.03508414 0.24433598 1.4430001
-0.024326012 0.24403588 1.4442002
-0.015067319 0.24358575 1.4460001
-0.0057752854 0.2434357 1.4466002
0.00501202 0.24370947 1.4430001
0.011323935 0.24031907 1.4490001
0.10901144 0.24182998 1.4430001
0.11277045 0.24182998 1.4430001
0.35355848 0.24031907 1.4490001
-0.79141724 0.25541764 1.4490001
-0.78467929 0.25539419 1.4468572
-0.77641767 0.25362208 1.4479094
-0.76517254 0.25280023 1.446231
-0.75356042 0.2527847 1.4457273
-0.74509519 0.25506511 1.4470003
-0.73801994 0.25436002 1.4430001
-0.72674292 0.25686604 1.4430001
0.56896245 0.20762286 1.4550002
0.57233155 0.20846513 1.455
0.61781484 0.20846513 1.455
0.62034172 0.20846513 1.455
0.76437217 0.20846513 1.455
0.77321613 0.20846513 1.455
0.78964067 0.20846513 1.455
0.79469436 0.20593828 1.455
0.50494885 0.21688795 1.4550002
0.51295054 0.2122554 1.455
0.52684826 0.21099198 1.455
0.53569221 0.21225542 1.455
0.54453623 0.21099198 1.4550002
0.55644846 0.21243592 1.4550002
0.5639087 0.21267655 1.4550002
0.57864869 0.21099198 1.455
0.60139036 0.21099198 1.455
0.61276114 0.21099198 1.455
0.78458697 0.21099198 1.455
0.45356959 0.22867993 1.455
0.48515522 0.22867993 1.455
0.49526262 0.2274165 1.455
0.50157976 0.2223628 1.455
0.1313962 0.23626049 1.455
0.14403045 0.23626049 1.455
0.15287443 0.23626049 1.455
0.17687951 0.23626049 1.455
0.19835773 0.23878734 1.455
0.20425372 0.23878734 1.4550002
0.21351883 0.23626049 1.455
0.22109938 0.23626049 1.455
0.2362605 0.2362605 1.4550002
0.24257761 0.23626049 1.455
0.25521183 0.23626049 1.455
0.27921695 0.23626049 1.455
0.28553408 0.23626049 1.455
0.29943174 0.23373364 1.455
0.30574885 0.23373364 1.455
0.31585628 0.23373364 1.455
0.32470024 0.23373364 1.4550002
0.33733448 0.23373364 1.455
0.34491503 0.23626049 1.455
0.35502243 0.23878734 1.4550002
0.36428756 0.23457593 1.4550002
0.37355265 0.23204908 1.4550002
0.38408118 0.23120677 1.455
0.39376748 0.23120677 1.4550002
0.4030326 0.23120677 1.455
0.41566685 0.23373364 1.455
0.42451084 0.23373364 1.455
0.45356959 0.23120677 1.4550002
-0.18698691 0.24889474 1.455
-0.17435266 0.24510446 1.455
-0.1646664 0.2413142 1.4550002
-0.15413785 0.24257761 1.455
-0.14403045 0.24636789 1.455
-0.1364499 0.24636789 1.455
-0.1061277 0.24510446 1.455
-0.096652016 0.24384104 1.455
-0.085912898 0.24320933 1.455
-0.076563559 0.24586251 1.455
-0.065698102 0.24573618 1.455
-0.041693028 0.24384104 1.455
-0.034617849 0.24333568 1.455
-0.025268501 0.24257761 1.4550002
-0.016424526 0.2413142 1.4550002
-0.0050536999 0.24257761 1.455
0.0050536999 0.24320932 1.455
0.11749853 0.24131419 1.455
-0.79216748 0.25394842 1.455
-0.78964067 0.25394842 1.455
0.56834853 0.20805615 1.4610001
0.57722896 0.20932478 1.4610001
0.61655664 0.20932478 1.4610001
0.62290502 0.20721212 1.4640001
0.75991237 0.20932478 1.4610001
0.76498693 0.20932478 1.4610001
0.77133012 0.20932478 1.4610001
0.7868976 0.20848076 1.4640001
0.7937957 0.2069273 1.4650002
0.80214989 0.20339841 1.4640001
0.49552572 0.2178275 1.4670001
0.50341022 0.21737859 1.4640001
0.51125991 0.21439932 1.4610001
0.52648354 0.21186206 1.4610001
0.53591228 0.21144265 1.4625001
0.56570184 0.21102324 1.4640001
0.58596873 0.21018443 1.4670001
0.59661883 0.21159288 1.4650002
0.60765016 0.21102324 1.4640001
0.61443532 0.21215209 1.4630002
0.76558089 0.21018443 1.4670001
0.78468859 0.21018443 1.4670001
0.79105777 0.21018443 1.4670001
0.29425821 0.22801827 1.4670001
0.38947096 0.22962295 1.4610001
0.39685354 0.22922178 1.4625001
0.4039782 0.22824231 1.4630002
0.45618606 0.22847362 1.4634001
0.47769189 0.22801827 1.4670001
0.48433203 0.22882061 1.4640001
0.49531388 0.22508371 1.4645003
0.50138044 0.22269234 1.4655001
-0.16398996 0.23899052 1.4640001
-0.158905 0.23899052 1.4640001
-0.093582891 0.23925102 1.4630002
-0.0038059051 0.23977202 1.4610001
0.013493381 0.236993 1.4658002
0.11798306 0.23977202 1.4610001
0.12488317 0.23730977 1.4646001
0.13475144 0.23517939 1.4640001
0.14397316 0.23416953 1.4630002
0.1556201 0.23618579 1.4650002
0.16509579 0.23747833 1.4625001
0.17253438 0.23723476 1.4610001
0.18432721 0.23708497 1.4640001
0.19436687 0.23840527 1.4630002
0.20572598 0.23747833 1.4625001
0.21566796 0.23596612 1.4610001
0.2251597 0.23534004 1.4650002
0.23438749 0.23566133 1.4670001
0.24697223 0.23629069 1.4646001
0.2538729 0.23605469 1.4655001
0.26441792 0.23517941 1.4640001
0.2740252 0.23469748 1.4610001
0.28586909 0.23495904 1.4658002
0.29429078 0.2335871 1.4640001
0.3052263 0.23203206 1.4634001
0.31437299 0.23203206 1.4634001
0.32478258 0.23184137 1.4622
0.33365104 0.23216021 1.4610002
0.34413773 0.23527372 1.4646001
0.3542479 0.23687266 1.4640001
0.36529031 0.23445158 1.4658002
0.37437886 0.23136309 1.4640001
0.38470119 0.23056595 1.4670001
0.39361811 0.23056595 1.4670001
0.40933669 0.23136309 1.4640001
0.41485018 0.23223837 1.4655001
0.42502528 0.23287529 1.4655001
0.43260455 0.23216021 1.4610001
0.44782817 0.23469748 1.4610001
0.45036542 0.23469748 1.4610001
0.48788264 0.23056595 1.4670001
-0.19267188 0.249414 1.4630002
-0.18542652 0.24850085 1.4646001
-0.17543112 0.24343987 1.4640001
-0.16602448 0.24075672 1.4670002
-0.15325163 0.24219571 1.4634001
-0.14564295 0.24415363 1.4670001
-0.13502757 0.2458521 1.4670001
-0.11313776 0.24344115 1.4640001
-0.10389001 0.2426873 1.465
-0.095340401 0.241533 1.4640001
-0.084748469 0.24153301 1.4640001
-0.075000554 0.24375831 1.4640001
-0.066101879 0.24407548 1.4640001
-0.055706885 0.24239682 1.4646001
-0.04501909 0.24239682 1.4646001
-0.036148839 0.24142212 1.4644288
-0.026217243 0.24106722 1.4658002
-0.014000572 0.24114485 1.4655001
-0.0055087069 0.24153301 1.4640001
0.004542748 0.24142212 1.4644287
0.11568284 0.241533 1.4640001
-0.75273198 0.25532386 1.4658002
0.57514846 0.20763329 1.473
0.62289983 0.20848598 1.473
0.76359588 0.20848598 1.473
0.77510738 0.20848598 1.473
0.78491342 0.20848599 1.473
0.79429317 0.20592788 1.473
0.80580467 0.2020907 1.473
0.48987809 0.21871841 1.473
0.49499428 0.21658665 1.473
0.50303406 0.21506397 1.4730002
0.51162201 0.2161603 1.473
0.53464502 0.21104409 1.473
0.54231936 0.21104409 1.473
0.56662136 0.21104409 1.473
0.58452815 0.21104409 1.473
0.60755116 0.21104409 1.473
0.61522549 0.2110441 1.473
0.29034549 0.22895086 1.473
0.38755366 0.22895086 1.473
0.39266989 0.22895086 1.473
0.40034422 0.22895086 1.473
0.41313478 0.22895086 1.473
0.48783159 0.22690438 1.473
0.49456796 0.22340828 1.473
-0.17523055 0.23918329 1.473
-0.1649981 0.23918329 1.473
-0.15476567 0.23918329 1.473
-0.14879674 0.23833059 1.473
-0.10360347 0.23918329 1.473
-0.095417507 0.23816004 1.473
-0.088254794 0.23918329 1.473
-0.034534488 0.23918329 1.473
-0.025581101 0.23918329 1.473
-0.011511495 0.23918329 1.473
-0.0063952752 0.23918329 1.473
0.0051162201 0.23790424 1.473
0.011511495 0.23662518 1.473
0.11767306 0.23918329 1.473
0.12918456 0.23662518 1.473
0.14837039 0.23406707 1.473
0.15732376 0.23406707 1.473
0.1649981 0.23662518 1.473
0.17139338 0.23662518 1.473
0.18418393 0.23790424 1.473
0.1951838 0.2371368 1.473
0.20507517 0.23747788 1.473
0.21743935 0.23662518 1.473
0.23662518 0.23406707 1.473
0.2417414 0.23662518 1.473
0.25709006 0.23662518 1.473
0.27755493 0.23406707 1.473
0.28395021 0.23406707 1.473
0.29375631 0.23150896 1.473
0.30313605 0.23236166 1.473
0.31507391 0.23150896 1.473
0.32445365 0.23150896 1.473
0.3346861 0.23150896 1.473
0.34662396 0.23406707 1.473
0.35557729 0.23534612 1.473
0.36325163 0.23406707 1.473
0.37604219 0.23150896 1.473
0.41697195 0.23150896 1.473
0.42464626 0.23150896 1.473
0.43445238 0.23236166 1.473
0.44639021 0.23534612 1.473
0.45406455 0.23278801 1.473
-0.19569542 0.24941573 1.473
-0.18461028 0.24557857 1.473
-0.17778865 0.2417414 1.473
-0.15220755 0.2417414 1.473
-0.14581227 0.2417414 1.473
-0.13813794 0.24557857 1.473
-0.11255684 0.2417414 1.473
-0.10871968 0.2417414 1.473
-0.083138578 0.2417414 1.473
-0.074185193 0.2417414 1.473
-0.066510864 0.2417414 1.473
-0.054999366 0.2417414 1.473
-0.044766925 0.2417414 1.473
-0.016627716 0.2417414 1.473
0.10871968 0.24429952 1.473
0.11255684 0.24429952 1.473
-0.76103777 0.25453195 1.473
-0.7572006 0.25453195 1.473
0.54104114 0.20947674 1.48
0.57433391 0.20861101 1.483
0.62670577 0.20804283 1.4820001
0.76979488 0.20947674 1.48
0.77522111 0.20861101 1.483
0.78631097 0.20753556 1.4845001
0.794963 0.20646565 1.4830002
0.80502492 0.20312123 1.4824001
0.81549704 0.20000322 1.4860001
0.48963583 0.21975781 1.48
0.49539447 0.21369122 1.4825
0.50479084 0.2111865 1.4830002
0.51484704 0.21462712 1.4860001
0.52047902 0.21461727 1.48
0.53549248 0.21290666 1.4860001
0.54507369 0.21089965 1.4840001
0.58710623 0.21032597 1.4860001
0.59758699 0.21461727 1.48
0.61463356 0.2111862 1.4860001
0.62323582 0.21032597 1.4860001
0.32516652 0.22839078 1.4860001
0.34839272 0.22839078 1.4860001
0.35226375 0.22839078 1.4860001
0.3600058 0.22839078 1.4860001
0.41936159 0.22839078 1.4860001
0.42710367 0.22839078 1.4860001
0.43226504 0.22839078 1.4860001
0.45631656 0.22816023 1.4845001
0.462648 0.22746861 1.48
0.48714915 0.2249155 1.482
0.49220607 0.22618347 1.48
-0.1559249 0.23839223 1.4840001
-0.14436866 0.23847255 1.4845001
-0.11225987 0.23871352 1.4860001
-0.10470562 0.23682578 1.4834287
-0.097053275 0.23556077 1.4824001
-0.034839272 0.23871353 1.4860001
-0.02550712 0.23781185 1.4836
-0.015054005 0.23871353 1.4860001
-0.0060172617 0.23769265 1.485
0.0057106568 0.23489064 1.4851429
0.011613091 0.23355214 1.4860001
0.10580815 0.23871352 1.4860001
0.11619724 0.23781185 1.4836
0.12337281 0.23774968 1.48
0.13263184 0.23565611 1.483
0.14322811 0.23355214 1.4860001
0.15399429 0.23377678 1.4820001
0.16364959 0.23667179 1.4840001
0.17597331 0.23677957 1.4836
0.18546732 0.23639821 1.4812001
0.19457614 0.23581502 1.4840001
0.20203513 0.23721074 1.4820001
0.21333215 0.23774968 1.48
0.22383593 0.23541777 1.4815
0.23260914 0.23517941 1.48
0.24467029 0.23565611 1.483
0.25497219 0.23436576 1.483
0.26527411 0.23436576 1.483
0.27494335 0.23411484 1.4825715
0.2860193 0.2324702 1.4824001
0.2923114 0.23050517 1.483
0.3036828 0.23151736 1.4840001
0.31536618 0.23041192 1.4824001
0.32513875 0.23003887 1.48
0.33447462 0.23091459 1.4815
0.34576443 0.23167333 1.4834287
0.35523409 0.2323163 1.48225
0.36406013 0.23245247 1.4826666
0.37457612 0.23144209 1.4824001
0.38477069 0.23034975 1.4820001
0.39453596 0.23003887 1.48
0.41766834 0.23003887 1.48
0.42452773 0.23027202 1.4815
0.43453199 0.23120651 1.4820001
0.44524291 0.23411335 1.4825715
0.45250022 0.23187974 1.4814999
-0.20129356 0.24774592 1.4860001
-0.19341257 0.24738818 1.48
-0.18406999 0.24328199 1.4824001
-0.17092274 0.24031994 1.48
-0.14188769 0.24219584 1.4809999
-0.13463573 0.24253657 1.4837501
-0.12000193 0.24129421 1.4860001
-0.1152565 0.24145225 1.483
-0.10923634 0.24031994 1.48
-0.083533667 0.24031994 1.48
-0.074768275 0.24105065 1.4845001
-0.063642934 0.24193262 1.4836
-0.052836351 0.24182622 1.4840001
-0.043377306 0.24182622 1.4840001
-0.016706735 0.24031994 1.48
-0.004712156 0.24031994 1.48
0.10652076 0.24182793 1.4840001
0.11309174 0.24160507 1.48
-0.20176594 0.25060099 1.48
-0.19919567 0.25060099 1.48
-0.72646332 0.26452038 1.4860001
0.50633478 0.2095627 1.4990001
0.54538369 0.2095627 1.4990001
0.57657206 0.20907339 1.4955001
0.58792216 0.20702945 1.4920001
0.59480208 0.2073656 1.4972501
0.61827505 0.2095627 1.4990001
0.62490809 0.20917125 1.4962001
0.63649791 0.2078272 1.4990001
0.64170444 0.2095627 1.4990001
0.77694672 0.20817792 1.4937501
0.78514153 0.20539887 1.4945457
0.79473323 0.20361505 1.4955002
0.80429304 0.2026967 1.4963751
0.81398094 0.20143887 1.4966668
0.48753899 0.21906812 1.4972501
0.4931125 0.21493645 1.4950001
0.51674783 0.21303372 1.4990001
0.52394521 0.21516629 1.4972501
0.53586936 0.21616638 1.4966668
0.54147875 0.21216597 1.4990001
0.55514574 0.21271846 1.4937501
0.56655902 0.21470785 1.4960001
0.5726763 0.21231836 1.4955001
0.59552276 0.21203892 1.4920001
0.60459691 0.21312618 1.4948001
0.61364836 0.21191826 1.4972501
0.6231612 0.2111752 1.4920001
0.31481946 0.22931294 1.4920001
0.32360587 0.22829467 1.4966668
0.33425277 0.22931294 1.4920001
0.34720832 0.22801739 1.4920001
0.35612392 0.22776282 1.4931668
0.36642084 0.2289311 1.4937501
0.38996157 0.22931294 1.4920001
0.39514378 0.22931294 1.4920001
0.42593533 0.22811739 1.4955001
0.43523213 0.22839652 1.4962001
0.45653757 0.22787829 1.4962001
0.46468252 0.22778554 1.4990001
0.48524141 0.22498424 1.4945457
-0.16492125 0.23893799 1.4955001
-0.15417086 0.23708627 1.4920001
-0.14654009 0.23714548 1.4978335
-0.13680904 0.23908587 1.4948001
-0.11167896 0.23634082 1.4955001
-0.10753093 0.23449516 1.4920001
-0.09414947 0.23699163 1.4955001
-0.085656203 0.23879898 1.4946251
-0.075158469 0.23883238 1.4960001
-0.043322891 0.23869154 1.4966668
-0.036357552 0.23764244 1.4955001
-0.022024408 0.23708627 1.4920001
-0.016124455 0.23703045 1.4940001
-0.0059826435 0.23567107 1.4962001
0.099757612 0.23967737 1.4920001
0.10376128 0.23736435 1.4937501
0.11375912 0.23623434 1.4960001
0.12422999 0.23677468 1.4955001
0.13635829 0.23764244 1.4955001
0.14544135 0.23460935 1.4955001
0.15539825 0.2341775 1.4955001
0.16462974 0.23537289 1.4976001
0.17370719 0.23696008 1.4966668
0.18743497 0.23559535 1.4990001
0.19409907 0.2356735 1.4962001
0.20501092 0.23671237 1.4962001
0.21556635 0.23634082 1.4955001
0.22631633 0.23463462 1.4962001
0.23479271 0.23392698 1.4966668
0.24451001 0.23463462 1.4962001
0.25193 0.23374361 1.4955001
0.26522744 0.23272008 1.4972501
0.2759459 0.23299207 1.4990001
0.28372619 0.23190407 1.4920001
0.30575061 0.23190406 1.4920001
0.33972588 0.23038881 1.4990001
0.34266406 0.2308939 1.4966668
0.37495071 0.2309949 1.4962001
0.38528299 0.23038881 1.4990001
0.39699766 0.23038881 1.4990001
0.40480745 0.23038881 1.4990001
0.41435274 0.23038881 1.4990001
0.42042705 0.23038881 1.4990001
0.43919259 0.23190406 1.4920001
0.44556269 0.23103821 1.4960001
0.45166621 0.23038881 1.4990001
0.48290536 0.23038881 1.4990001
-0.13214645 0.24615514 1.4920001
-0.12480497 0.24356404 1.4920001
-0.11584522 0.24080187 1.4990001
-0.076796271 0.24080187 1.4990001
-0.064761691 0.24109522 1.4976001
-0.054583438 0.24129073 1.4966668
-0.046749331 0.24153519 1.4955001
-0.7328186 0.25815696 1.4990001
-0.72525632 0.25841993 1.4955001
-0.71459579 0.25902471 1.4990001
-0.70938927 0.25902471 1.4990001
-0.73254168 0.26208442 1.4966668
-0.72574216 0.26313579 1.4927779
-0.72240561 0.27464429 1.4990001
-0.71980232 0.27464429 1.4990001
0.8094725 0.19746421 1.506
0.58585411 0.2079259 1.506
0.59239262 0.2079259 1.506
0.62508541 0.2079259 1.506
0.63293165 0.2079259 1.506
0.78462601 0.20465663 1.506
0.7950877 0.20073348 1.506
0.80554938 0.20007963 1.506
0.81601107 0.2007335 1.506
0.82516503 0.20007965 1.506
0.48646814 0.21707988 1.506
0.49300668 0.21446444 1.506
0.51393002 0.21054132 1.506
0.52308404 0.21315673 1.506
0.53616112 0.21707986 1.506
0.54269969 0.21054132 1.506
0.55446905 0.21054132 1.506
0.56493074 0.21315673 1.506
0.57670015 0.21054132 1.506
0.60612357 0.21184902 1.506
0.61418784 0.21054134 1.506
0.31777355 0.22884926 1.506
0.32169667 0.22884926 1.506
0.34915859 0.22884926 1.506
0.37400508 0.22884926 1.506
0.38315904 0.22884926 1.506
0.392313 0.22884926 1.506
0.40800554 0.22884926 1.506
0.41628766 0.22884926 1.506
0.42239034 0.22884926 1.506
0.44592914 0.22884926 1.506
0.4550831 0.22754155 1.506
0.46946791 0.22884926 1.506
0.47600648 0.22884926 1.506
0.48428863 0.22449023 1.506
-0.11638619 0.23931094 1.506
-0.091103807 0.23582372 1.506
-0.085001156 0.23669551 1.506
-0.076108716 0.23617244 1.506
-0.069308631 0.23931094 1.506
-0.051000692 0.23931094 1.506
-0.014384811 0.23512626 1.506
-0.0039231302 0.23582372 1.506
0.0013077101 0.23669551 1.506
0.10592452 0.23669551 1.506
0.11507848 0.23408009 1.506
0.12684788 0.23669551 1.506
0.13600184 0.23669551 1.506
0.14777124 0.23408009 1.506
0.16607919 0.23408011 1.506
0.17566904 0.23669551 1.506
0.18307941 0.23669551 1.506
0.20661819 0.2353878 1.506
0.21446444 0.23473395 1.506
0.22361843 0.23408011 1.506
0.23277238 0.23277238 1.506
0.24584949 0.23342624 1.506
0.25500345 0.23408009 1.506
0.26284972 0.23233649 1.506
0.27592683 0.23146468 1.506
0.2846449 0.23146468 1.506
0.29161933 0.23146468 1.506
0.31254271 0.23146468 1.506
0.41454408 0.23146468 1.506
0.47731417 0.23146468 1.506
0.48254502 0.23146468 1.506
-0.11900161 0.24192636 1.506
-0.77285665 0.25761887 1.506
-0.74595517 0.25649798 1.506
-0.73536897 0.25631118 1.506
-0.72054821 0.25761887 1.506
-0.71662509 0.25761887 1.506
-0.72577906 0.26284972 1.506
-0.72525597 0.27226526 1.506
0.79694247 0.19825093 1.5120001
0.80613291 0.19825092 1.5120001
0.81458485 0.19870985 1.5155001
0.82473713 0.19893929 1.5172501
0.83360696 0.19916876 1.5190001
0.51072592 0.20875429 1.5120001
0.54738432 0.20972075 1.5190001
0.55269074 0.2093986 1.5166668
0.56189328 0.20972075 1.5190001
0.57904029 0.20972075 1.5190001
0.58165091 0.20923752 1.5155001
0.6053443 0.20923752 1.5155001
0.61252427 0.20899591 1.5137501
0.62449402 0.20691256 1.5150001
0.6342923 0.20594609 1.5155001
0.64575005 0.20851927 1.5166668
0.65026617 0.20708275 1.5190001
0.78612304 0.20708275 1.5190001
0.7922014 0.20200126 1.5155001
0.820575 0.20087677 1.5120001
0.42276025 0.21925765 1.5120001
0.48652428 0.2156114 1.5163751
0.49603301 0.21277055 1.5172501
0.50517642 0.21235876 1.5190001
0.51860344 0.21138012 1.5120001
0.52577436 0.21228123 1.5137501
0.53652406 0.21494724 1.5160002
0.54414457 0.2125259 1.5155001
0.55273932 0.21138012 1.5120001
0.56455564 0.21138012 1.5120001
0.57374609 0.21138012 1.5120001
0.60788196 0.21138012 1.5120001
0.61838531 0.21138012 1.5120001
0.24673779 0.22831739 1.5155001
0.26652277 0.229761 1.5120001
0.27832896 0.22923625 1.5143335
0.28227782 0.229761 1.5120001
0.31510079 0.229761 1.5120001
0.3271116 0.22818671 1.5190001
0.3466109 0.229761 1.5120001
0.35448843 0.22713517 1.5120001
0.36319563 0.22897387 1.5155001
0.37723354 0.22818671 1.5190001
0.38569981 0.22886141 1.5160002
0.39523906 0.22858028 1.5172501
0.40591598 0.22860613 1.5148001
0.41514069 0.22720724 1.5150001
0.42401659 0.22450139 1.5146925
0.4350585 0.22645527 1.5150001
0.44625452 0.22673854 1.5137501
0.45414117 0.22673856 1.5137501
0.46431175 0.22650059 1.5148001
0.47637421 0.22678161 1.5155001
0.48295337 0.22370882 1.5155001
-0.13189983 0.2387387 1.5190001
-0.12398586 0.2387387 1.5190001
-0.1163312 0.23661332 1.5166668
-0.07483644 0.23501268 1.5120001
-0.065717429 0.23791358 1.5137501
-0.054078933 0.2387387 1.5190001
-0.047371492 0.23818862 1.5155001
-0.015755041 0.23238684 1.5120001
-0.00262584 0.23501268 1.5120001
0.096286878 0.2387387 1.5190001
0.10503361 0.23566914 1.5120001
0.11580745 0.23292477 1.5155001
0.12495352 0.23492029 1.5148001
0.13564409 0.23573804 1.5166668
0.14179537 0.23501268 1.5120001
0.15361165 0.23238684 1.5120001
0.16580781 0.23292477 1.5155001
0.17352305 0.2346103 1.5162001
0.18444246 0.2358287 1.5172501
0.19450928 0.23434842 1.5150001
0.20573032 0.2342377 1.5155001
0.21518083 0.23246934 1.5150001
0.225026 0.23160577 1.5155001
0.23513547 0.23144956 1.5162001
0.24345246 0.23160577 1.5155001
0.25464657 0.23171736 1.5150001
0.26450476 0.23160577 1.5155001
0.2727181 0.23121524 1.5172501
0.28687608 0.23160577 1.5155001
0.29740983 0.23292477 1.5155001
0.30565053 0.23319374 1.5172501
0.31116205 0.23238684 1.5120001
0.34425858 0.23082471 1.5190001
0.40229452 0.23082471 1.5190001
-0.7135781 0.24665271 1.5190001
-0.18512173 0.24092084 1.5120001
-0.13348021 0.24113965 1.5120001
-0.12604032 0.2415773 1.5120001
-0.11947572 0.24026437 1.5120001
-0.064333081 0.24026439 1.5120001
-0.05654674 0.24063514 1.5143335
0.097156085 0.24026437 1.5120001
-0.82305497 0.25984269 1.5190001
-0.819098 0.25984269 1.5190001
-0.80458903 0.25984269 1.5190001
-0.79301113 0.25603223 1.5190001
-0.78443527 0.25640911 1.5143334
-0.77509493 0.25529408 1.5155001
-0.76611012 0.25789458 1.5172501
-0.75527185 0.25649109 1.5148001
-0.74528724 0.2543433 1.5137501
-0.7354818 0.25556964 1.5160002
-0.72548831 0.25625038 1.5151112
-0.71561271 0.25626865 1.5177273
-0.70698315 0.25984269 1.5190001
-0.72525555 0.26669669 1.5141541
-0.72210604 0.27177444 1.5120001
0.80909133 0.19995546 1.5250001
0.61708105 0.20790072 1.5250001
0.62502635 0.20657651 1.5250001
0.63606143 0.20525232 1.5250001
0.64488953 0.20613512 1.5250001
0.65151048 0.20657651 1.5250001
0.79055238 0.2052523 1.5250001
0.48439547 0.21584597 1.5250001
0.49525392 0.21187334 1.5250001
0.50187498 0.21054913 1.5250001
0.52703488 0.21054913 1.5250001
0.53498018 0.21187334 1.5250001
0.54424965 0.21143195 1.5250001
0.55749172 0.21054913 1.5250001
0.56808537 0.21054913 1.5250001
0.57470644 0.21054913 1.5250001
0.23968172 0.22908805 1.5250001
0.24233013 0.22908805 1.5250001
0.27411112 0.22908805 1.5250001
0.31648579 0.22908805 1.5250001
0.32310686 0.22908805 1.5250001
0.3323763 0.22908805 1.5250001
0.34826681 0.22908805 1.5250001
0.35223943 0.22908805 1.5250001
0.3654815 0.22908805 1.5250001
0.38534468 0.22643964 1.5250001
0.3946141 0.22643963 1.5250001
0.40255934 0.22908805 1.5250001
0.41756707 0.22379123 1.5250001
0.44537541 0.22643964 1.5250001
0.45552769 0.22643963 1.5250001
0.46479714 0.22467403 1.5250001
0.47406659 0.22445332 1.5250001
0.48068765 0.22246701 1.5250001
-0.13109663 0.23703329 1.5250001
-0.12447558 0.23703329 1.5250001
-0.059589379 0.23968172 1.5250001
0.099315628 0.23703329 1.5250001
0.10593667 0.23570909 1.5250001
0.11388192 0.23306067 1.5250001
0.1257998 0.23438488 1.5250001
0.13904189 0.23438488 1.5250001
0.14433871 0.23438488 1.5250001
0.15228397 0.23438488 1.5250001
0.17744392 0.23438488 1.5250001
0.18538916 0.23438488 1.5250001
0.19598284 0.23239857 1.5250001
0.20525229 0.23306067 1.5250001
0.21054913 0.23173647 1.5250001
0.23703329 0.23173647 1.5250001
0.26086906 0.23173647 1.5250001
0.29265004 0.23173647 1.5250001
0.31383738 0.23173647 1.5250001
0.34164575 0.23173647 1.5250001
-0.7958492 0.24762696 1.5250001
-0.7746619 0.24762696 1.5250001
-0.71727961 0.24674416 1.5250001
-0.8223334 0.25822064 1.5250001
-0.81173974 0.25822064 1.5250001
-0.80475765 0.255813 1.525
-0.79531956 0.25239411 1.5250001
-0.78525561 0.25115818 1.5250001
-0.77598614 0.25159955 1.5250001
-0.76605457 0.25623435 1.5250001
-0.75479877 0.25292379 1.5250001
-0.74619144 0.2522617 1.5250001
-0.73493564 0.25557223 1.5250001
-0.72487164 0.25345349 1.5250001
-0.71315986 0.25380659 1.5250001
-0.70845145 0.25822064 1.5250001
-0.81615376 0.26086909 1.5250001
-0.8037945 0.26086906 1.5250001
-0.71374834 0.26086906 1.5250001
0.64813703 0.19911839 1.539
0.65080976 0.19644567 1.539
0.81812632 0.19821271 1.5320001
0.82453722 0.19911839 1.539
0.83401054 0.19804044 1.5348001
0.47708231 0.20980932 1.539
0.48510051 0.20980933 1.539
0.49445504 0.20980932 1.539
0.50380963 0.20980932 1.539
0.53588235 0.20980933 1.539
0.54607123 0.20961848 1.5376
0.55469185 0.20760389 1.5340002
0.56457341 0.20811857 1.5350002
0.57466829 0.20828222 1.5343335
0.58666432 0.20980933 1.539
0.59199369 0.20933217 1.5355
0.61669409 0.20890561 1.53725
0.62702656 0.20545624 1.5350002
0.63512421 0.20265321 1.5334001
0.64526594 0.20265761 1.5340002
0.65395737 0.20354548 1.5346251
0.79543656 0.20371985 1.5334001
0.80216289 0.20087329 1.5320001
0.46906412 0.21649113 1.539
0.47538868 0.21606392 1.5359999
0.483556 0.21446609 1.5340999
0.49353635 0.21151559 1.5320001
0.50417864 0.21151559 1.5320001
0.51316416 0.21248204 1.539
0.52359891 0.21183774 1.5343335
0.53610551 0.21151559 1.5320001
0.54275703 0.21151559 1.5320001
0.24722753 0.22851843 1.539
0.26326391 0.22851843 1.539
0.27395484 0.22851843 1.539
0.31939125 0.22851843 1.539
0.32607308 0.22851843 1.539
0.3573283 0.22799873 1.5355
0.36482766 0.22851843 1.539
0.38488168 0.22622097 1.5355
0.39581725 0.22522692 1.5348001
0.4046264 0.22677903 1.5350002
0.41287169 0.22576146 1.5348001
0.43633404 0.22481845 1.5320001
0.44564605 0.22747903 1.5320001
0.45578274 0.22493532 1.5380002
0.46556705 0.22249354 1.5343333
0.47411847 0.22174346 1.5337501
0.095996425 0.23866533 1.5355
0.10399334 0.23599868 1.5355
0.11448195 0.23386388 1.539
0.12695467 0.23386388 1.539
0.13435897 0.23546074 1.5320001
0.14299107 0.23386388 1.539
0.15588467 0.23492846 1.5343335
0.16457118 0.23439616 1.5366668
0.17480247 0.2335093 1.5366668
0.18399289 0.23333202 1.5355
0.19555613 0.23183477 1.5362
0.2054882 0.23172751 1.5366668
0.21332911 0.23199567 1.5355
0.22584569 0.23119116 1.539
0.23439334 0.23040248 1.5337501
0.25600159 0.23066539 1.5355
0.26399243 0.23066539 1.5355
0.2700482 0.2301396 1.5320001
0.28688693 0.23084065 1.5366668
0.29598922 0.23199567 1.5355
0.30596593 0.23280017 1.5320001
0.3136887 0.23159342 1.53725
0.32059911 0.2301396 1.5320001
0.33789283 0.23280017 1.5320001
0.34558973 0.23084065 1.5366668
0.37819129 0.23119116 1.539
-0.80716443 0.24990027 1.539
-0.79246449 0.2485639 1.539
