# .PCD v0.7 - Point Cloud Data file format
VERSION 0.7
FIELDS x y z
SIZE 4 4 4
TYPE F F F
COUNT 1 1 1
WIDTH 1505
HEIGHT 1
VIEWPOINT 0 0 0 1 0 0 0
POINTS 1505
DATA ascii
0.63191223 0.22065133 1.1930001
0.47292474 0.23802146 1.197
0.48569736 0.23818181 1.1943334
0.49517059 0.23929791 1.1930001
0.50035018 0.23929791 1.1930001
0.15642418 0.24965712 1.1930001
0.18853775 0.24965712 1.1930001
0.19356142 0.24916045 1.1946001
0.20587365 0.2494088 1.1938
0.21455066 0.24820569 1.1952858
0.22403826 0.24893165 1.1945
0.23297922 0.24916044 1.1946
0.2569086 0.24965712 1.1930001
0.26364207 0.24965712 1.1930001
0.2761347 0.24916044 1.1946001
0.28466544 0.24627034 1.1950001
0.2946915 0.24540533 1.1950001
0.30414295 0.24567668 1.1938001
0.31181243 0.24758528 1.1930001
0.32710856 0.24727312 1.194
0.33505151 0.24687862 1.1946
0.34381351 0.24663657 1.1941429
0.35371891 0.24584273 1.1946
0.36482766 0.24425784 1.197
0.37603959 0.24551344 1.1930001
0.3848438 0.24459682 1.1946
0.39443669 0.24371368 1.1943334
0.41448069 0.2450949 1.1943334
0.42623615 0.24284868 1.1943333
0.43515921 0.24241927 1.1947778
0.44342542 0.24281031 1.1950002
0.45166185 0.24136975 1.1930001
0.46486923 0.24156511 1.1950001
0.47507435 0.24194591 1.1950001
0.48541641 0.24149768 1.1947778
0.49184835 0.24073499 1.1950001
0.50630987 0.24052343 1.1956668
0.51588899 0.24136975 1.1930001
-0.53764337 0.25794449 1.1930001
-0.26296693 0.25776997 1.197
-0.25465178 0.25880936 1.197
-0.23594266 0.25880936 1.197
-0.11355978 0.25804767 1.1954001
-0.10549295 0.25803047 1.1950002
-0.094454348 0.25846341 1.1954001
-0.087309182 0.25880936 1.197
-0.07363496 0.2582328 1.1943334
-0.066180721 0.25704455 1.1946
-0.053910475 0.25608715 1.194
-0.045692571 0.2565161 1.1960001
-0.03634062 0.25644463 1.1956668
-0.013499401 0.25644463 1.1956668
-0.0083151599 0.25673059 1.197
0.025236374 0.25408447 1.1943334
0.031128015 0.2542263 1.1950001
0.046616476 0.25380081 1.1930001
0.054943442 0.25397101 1.1938
0.06526307 0.25380084 1.1930001
0.074062064 0.25248095 1.1946001
0.084117189 0.25339964 1.1960001
0.096948899 0.25306413 1.1954001
0.1048035 0.25318691 1.1950001
0.11448599 0.2524963 1.1950001
0.12604043 0.25104299 1.1952223
0.13544601 0.2511802 1.1947778
0.14359412 0.25142029 1.194
0.16659133 0.2512351 1.1946
0.17518678 0.25189778 1.1938
0.18397292 0.25049421 1.197
0.19852445 0.25049421 1.197
0.20060325 0.25049421 1.197
0.21754354 0.25172898 1.1930001
0.23802146 0.25049421 1.197
0.24502282 0.2519452 1.1956668
0.25465178 0.25049421 1.197
0.26712453 0.25049421 1.197
0.27128211 0.25049421 1.197
-0.65170068 0.26920331 1.197
-0.64438593 0.26771531 1.1950001
-0.63502842 0.26499712 1.1936667
-0.54152483 0.26296693 1.197
-0.53579515 0.26369759 1.1951818
-0.52680898 0.26392144 1.1938
-0.5145005 0.26400632 1.197
-0.50656569 0.26416004 1.1930001
-0.49267325 0.26608515 1.197
-0.48769769 0.26460057 1.1950001
-0.4767997 0.26408318 1.1950001
-0.46616477 0.26623186 1.1930001
-0.44130266 0.26416004 1.1930001
-0.43134895 0.26296693 1.197
-0.42714506 0.26139757 1.1930001
-0.41160041 0.26296693 1.197
-0.4050228 0.26274723 1.1960001
-0.39882985 0.26416004 1.1930001
-0.38185656 0.2646029 1.1950001
-0.37471867 0.26469147 1.1954001
-0.36733282 0.2646029 1.1950001
-0.35532114 0.26416004 1.1930001
-0.34603578 0.26307172 1.1943334
-0.33988217 0.26296693 1.197
-0.32468253 0.2624397 1.1946001
-0.31440353 0.26148817 1.1950001
-0.30433923 0.26071379 1.1962001
-0.294451 0.26075226 1.194
-0.28483135 0.26169941 1.1952858
-0.27451923 0.26001635 1.1930001
-0.25349385 0.26075226 1.194
-0.24567807 0.26101944 1.1938
-0.22375908 0.26001635 1.1930001
-0.21827295 0.26088816 1.197
-0.11602323 0.26001635 1.1930001
-0.10359217 0.26001635 1.1930001
-0.093232952 0.26001635 1.1930001
-0.084945574 0.26001635 1.1930001
-0.079765968 0.26001635 1.1930001
-0.65377945 0.27128211 1.197
-0.6308763 0.27037555 1.1930001
-0.62880445 0.27037555 1.1930001
-0.26610422 -0.144105 1.2032307
-0.23327196 -0.14226311 1.2046667
-0.24373476 -0.13472539 1.2054288
-0.23475572 -0.13438007 1.2040951
-0.2268388 -0.13377224 1.2019999
-0.24417838 -0.1269208 1.2029999
-0.23416035 -0.12543441 1.2026666
-0.22873637 -0.12518184 1.2046667
-0.23143342 -0.11833473 1.2060001
-0.22515017 -0.11624032 1.2060002
-0.16386667 0.12629214 1.202
-0.1589959 0.12768379 1.202
-0.1633448 0.13203269 1.202
-0.15584065 0.13208783 1.2025001
-0.14872409 0.13409325 1.2033334
-0.13255456 0.13714699 1.202
-0.12545715 0.137982 1.202
-0.11538136 0.13732761 1.2035999
-0.10704525 0.13749595 1.2046667
-0.094807528 0.13674247 1.2033334
-0.084314704 0.13773803 1.2041819
-0.076192781 0.13255456 1.202
-0.13151082 0.14090446 1.202
-0.12698796 0.14160028 1.202
-0.11439353 0.14257441 1.202
-0.10539352 0.14379339 1.2032499
-0.09490072 0.14374025 1.2024443
-0.08403556 0.14405586 1.2026314
-0.074519724 0.14633949 1.2051579
-0.0648911 0.14601666 1.2043157
-0.056032822 0.14600277 1.203263
-0.048171662 0.14975104 1.2060001
-0.074731559 0.15301178 1.202
-0.066001005 0.15392047 1.2019999
-0.054935284 0.15467884 1.2027999
-0.044940427 0.15571962 1.2035997
-0.034489162 0.15571962 1.2035997
-0.025854222 0.15631263 1.2038667
-0.01989699 0.15812871 1.2060001
-0.04414393 0.16472621 1.2019999
-0.034449048 0.16493838 1.2021998
-0.024886947 0.16476381 1.2031764
-0.018966135 0.1648774 1.2060002
-0.083498932 0.17847897 1.202
-0.043284383 0.17454961 1.2019999
-0.034537371 0.17479183 1.2053598
-0.025087018 0.17456611 1.2037998
-0.017398361 0.17542765 1.20525
0.0010472101 0.17069523 1.2060001
0.012828323 0.17619307 1.2060002
-0.11395312 0.18713973 1.204
-0.09200339 0.18504879 1.204
-0.083677433 0.18209317 1.202889
-0.061580464 0.18682887 1.202
-0.05457253 0.18444321 1.202
-0.04491559 0.18385103 1.2029999
-0.03463269 0.18451102 1.2050475
-0.02609342 0.1817593 1.2020001
-0.016237047 0.18243952 1.2030909
0.01151931 0.18430898 1.2060001
-0.18056644 0.19100381 1.202
-0.17380077 0.19400361 1.2033335
-0.16751973 0.19570063 1.202
-0.15495633 0.1959707 1.2022856
-0.14483163 0.19430694 1.2037779
-0.13533786 0.19343922 1.2020001
0.63565648 0.22305574 1.2060001
0.43040332 0.23981109 1.2060001
0.4666658 0.23961225 1.205
0.47483894 0.23820381 1.2045001
0.48381102 0.23981109 1.2060001
0.49610209 0.23917477 1.2028
0.50538445 0.23928082 1.2033334
0.51627457 0.23981111 1.2060001
0.52046341 0.23981109 1.2060001
0.13672951 0.24945307 1.202
0.18613306 0.24945307 1.202
0.19413503 0.24945307 1.202
0.20770362 0.24875724 1.202
0.21677248 0.24609438 1.2060001
0.22569953 0.24833581 1.2033334
0.23379701 0.24945307 1.202
0.2634593 0.24882093 1.204
0.27704871 0.24829906 1.2040001
0.28348249 0.24651811 1.2046667
0.2985087 0.24527812 1.202
0.30442321 0.24527812 1.202
0.31479344 0.24744062 1.2044001
0.32671505 0.24721625 1.2046669
0.3359437 0.24533717 1.2040002
0.34500796 0.24568623 1.2040001
0.35630673 0.2455502 1.2033334
0.36577505 0.24442601 1.2046667
0.37574521 0.24527812 1.202
0.38347626 0.2455502 1.2033334
0.39446911 0.24431948 1.205
0.40499869 0.24425559 1.2052001
0.41615024 0.24473035 1.2037144
0.42369494 0.24351297 1.2036002
0.43576008 0.24110317 1.202
0.44627023 0.2418416 1.2036002
0.45506921 0.24319065 1.202
0.4614943 0.24206644 1.2033334
0.47176898 0.24110317 1.202
0.48325008 0.24110317 1.202
0.51519668 0.24158481 1.2026668
0.52451396 0.24168114 1.2028002
-0.53721875 0.25866088 1.2060001
-0.32564586 0.25989044 1.202
-0.29454252 0.25863796 1.202
-0.28645623 0.25823194 1.204
-0.25571549 0.25989044 1.202
-0.24110317 0.25989044 1.202
-0.11500381 0.25823194 1.204
-0.10527054 0.25727308 1.2037144
-0.095199205 0.25735635 1.2048002
-0.085335754 0.25878361 1.2033334
-0.074250497 0.25831637 1.2044001
-0.065288246 0.25645012 1.2030001
-0.055502132 0.25656646 1.2060001
-0.045030031 0.25761366 1.2060001
-0.032394044 0.25599915 1.2033334
-0.01570051 0.25639629 1.2052002
-0.0062789186 0.25635374 1.2050002
0.018294916 0.25561738 1.204
0.024757341 0.25419068 1.2046667
0.033483803 0.25426102 1.205
0.044970289 0.25455332 1.2044001
0.055432666 0.25413445 1.2044001
0.065927699 0.25430325 1.2052001
0.074351907 0.25237763 1.2060002
0.086726241 0.25390935 1.2033334
0.095414706 0.25219652 1.2037143
0.10603875 0.25098172 1.2037779
0.11433623 0.2514565 1.2036002
0.12504174 0.25059754 1.2050002
0.13194847 0.25028321 1.2060001
0.14475787 0.25112128 1.2042859
0.15376738 0.25209862 1.2046669
0.16375205 0.25164476 1.2050002
0.17430402 0.25154054 1.202
0.18296131 0.25091189 1.204
0.20211153 0.25028321 1.2060001
0.23981109 0.25028321 1.2060001
0.24469809 0.25167951 1.2060001
0.25433138 0.25119093 1.2053335
0.26564229 0.25028321 1.2060001
0.27332184 0.25028321 1.2060001
-0.65448338 0.26698023 1.2048
-0.6445474 0.26629353 1.205
-0.63775092 0.26494414 1.2060001
-0.54140759 0.2607553 1.2060001
-0.53739345 0.26205134 1.2037144
-0.52691853 0.26450476 1.204
-0.5176934 0.26406538 1.202
-0.50555164 0.2675193 1.2044001
-0.49650818 0.26561564 1.2037779
-0.48378611 0.26435831 1.2033334
-0.4730776 0.2655485 1.2040001
-0.465386 0.26668429 1.2044001
-0.45239472 0.26703855 1.2060001
-0.44646057 0.26564229 1.2060001
-0.42688832 0.26406538 1.202
-0.41155353 0.26284972 1.2060001
-0.40183863 0.26406538 1.202
-0.39936909 0.26450476 1.204
-0.38432607 0.26494414 1.2060001
-0.37519884 0.2644169 1.2036
-0.36450514 0.26424113 1.2028
-0.35516658 0.26428509 1.2030001
-0.34652057 0.26406538 1.202
-0.32416946 0.26145396 1.2037144
-0.31695384 0.26255912 1.2046669
-0.29220149 0.26124436 1.2044001
-0.28487414 0.26116285 1.2046669
-0.27859783 0.26116285 1.2046669
-0.25140047 0.26116285 1.2046667
-0.24693404 0.26106095 1.205
-0.23422599 0.2607553 1.2060001
-0.22231592 0.26197791 1.202
-0.21396604 0.26197791 1.202
-0.65651035 0.27032781 1.202
-0.23850513 -0.14289294 1.21
-0.24782477 -0.13580282 1.2124002
-0.23850513 -0.13763952 1.21
-0.22799829 -0.12713268 1.21
-0.23009966 -0.1134738 1.21
-0.22475447 -0.11282851 1.211143
-0.2118855 -0.11068645 1.2140001
-0.20703802 -0.11091439 1.2165
-0.23051994 -0.10527847 1.21
-0.22491153 -0.1057347 1.212706
-0.21407732 -0.10844891 1.2165002
-0.20894185 -0.10746783 1.2173334
-0.34260067 0.13795763 1.2190001
-0.33540463 0.13754791 1.2185
-0.32534391 0.13731611 1.219
-0.31677842 0.13891771 1.2120001
-0.11452448 0.13553816 1.21
-0.10275684 0.13721925 1.21
-0.099814922 0.13553816 1.21
-0.076046586 0.1370797 1.2118183
-0.034787171 0.13809453 1.2140001
-0.34344989 0.14477462 1.217
-0.33516577 0.14430156 1.2147144
-0.32666451 0.14438403 1.2170954
-0.3181445 0.14231116 1.2140001
-0.10191628 0.14184226 1.21
-0.073900372 0.14122747 1.2115
-0.06724374 0.14184226 1.21
-0.051483486 0.14709568 1.21
-0.044700973 0.14529932 1.2121052
-0.034751609 0.14426385 1.21272
-0.024519622 0.14480461 1.2141742
-0.015063248 0.14680558 1.219
-0.0071448637 0.14792515 1.219
0.0010584984 0.14924827 1.2190001
0.028579457 0.14924827 1.2190001
-0.35565543 0.15348226 1.2190001
-0.043078016 0.15024772 1.21
-0.034672555 0.15024772 1.21
-0.023051409 0.15219469 1.2118182
-0.0150029 0.15502132 1.2137145
-0.0052789468 0.1552891 1.2166001
0.0049226196 0.1557899 1.2183478
0.014794284 0.1563731 1.2168126
0.024950322 0.15741384 1.2190001
0.035764351 0.15681788 1.2178235
0.045180175 0.15600336 1.2176363
0.052572083 0.15842193 1.2190001
-0.013936317 0.16489823 1.2114999
-0.0052698124 0.16543575 1.2135202
0.0052684215 0.16539103 1.2132001
0.015198991 0.16536526 1.2109091
0.024612265 0.16522758 1.2140003
0.034792203 0.16552915 1.2142003
0.045389861 0.16571654 1.2156001
0.054557882 0.166085 1.2182858
0.061922155 0.16777198 1.2190001
-0.012724943 0.17429671 1.21
-0.0052543888 0.17548677 1.2101598
0.0054285303 0.17563921 1.2099998
0.017119957 0.17484605 1.21
0.025225779 0.17552106 1.2103999
0.03457135 0.17533547 1.2130911
0.04532874 0.17499004 1.2140002
0.055018928 0.17426819 1.2147896
0.064314663 0.1743755 1.215875
0.070628501 0.17499001 1.2140001
-0.11242312 0.18807232 1.21
-0.10822038 0.18807232 1.21
-0.085694432 0.18718384 1.2124001
-0.011557517 0.18176822 1.21
-0.004506154 0.18400082 1.2108572
0.0052549797 0.18495102 1.2101997
0.016393885 0.18499558 1.2124287
0.024677213 0.18550624 1.212278
0.034937128 0.18466 1.212783
0.045322202 0.1844531 1.2138402
0.054816145 0.18447743 1.2140002
0.062991992 0.1838235 1.2135557
-0.15024772 0.19647779 1.21
-0.11448141 0.1916457 1.2140001
-0.08773236 0.19132626 1.2173336
0.025485393 0.19250236 1.2173334
0.035715364 0.19431764 1.2186875
0.045631666 0.19467357 1.2168573
0.054827221 0.19505958 1.2142502
0.061532706 0.19357364 1.2165
0.037047442 0.2064072 1.2190001
0.045523405 0.20546187 1.2171483
0.054805774 0.20591332 1.2174209
0.060334411 0.2042902 1.2190001
0.02646246 0.21487516 1.2190001
0.038458776 0.21134683 1.2190001
0.045820061 0.21506371 1.2172353
0.055151578 0.21531227 1.2172352
0.060863659 0.21222892 1.2190001
0.056100413 0.22334316 1.2190001
0.061922155 0.22704791 1.2190001
0.63671583 0.22311132 1.2120001
0.64589739 0.22183514 1.2157143
0.65675914 0.22358215 1.2160001
0.66367847 0.22387239 1.2190001
0.67002946 0.22757715 1.2190001
0.42972949 0.23850513 1.21
0.43183085 0.23850513 1.21
0.46688807 0.23870224 1.2110001
0.47505456 0.23654816 1.2122859
0.48258469 0.23865363 1.2143335
0.49884537 0.23889935 1.2120001
0.50599521 0.23929358 1.2140001
0.51680362 0.2383043 1.2135715
0.52459258 0.23806585 1.213125
0.53195941 0.23799594 1.2160001
0.028579457 0.24874711 1.2190001
0.032741811 0.24929112 1.2165
0.065314449 0.24841051 1.2165
0.073428504 0.2489219 1.2154287
0.098238461 0.24929112 1.2165
0.1049762 0.24923821 1.2156667
0.1129109 0.24956313 1.21525
0.12755297 0.24983513 1.2140001
0.1362049 0.24924222 1.2128334
0.14499374 0.24884292 1.2148889
0.15353501 0.24956313 1.2152501
0.16971923 0.24983513 1.2140001
0.19080237 0.24983513 1.2140001
0.20560248 0.24854645 1.2142727
0.21374026 0.24627671 1.2142857
0.22425795 0.24636656 1.2125001
0.23493108 0.24862446 1.21325
0.24518657 0.24883167 1.2147274
0.25539723 0.2476678 1.2137334
0.26484355 0.24636808 1.2129232
0.27440414 0.24660432 1.2136875
0.28437051 0.24617226 1.2122858
0.29505718 0.24608853 1.2153001
0.30469081 0.2452994 1.2141669
0.31623834 0.24660882 1.2149999
0.32554245 0.24657224 1.2140001
0.33399487 0.24507372 1.2134001
0.34519723 0.24521387 1.2120001
0.35482523 0.24613218 1.2135715
0.36458454 0.24523559 1.2142003
0.37551424 0.2447703 1.2142859
0.38461423 0.24490049 1.2143751
0.39653376 0.24431121 1.2150002
0.40548885 0.24263713 1.2143334
0.41480348 0.24301389 1.2131538
0.42546654 0.24171755 1.2138333
0.43521389 0.24047554 1.2136
0.44375741 0.24080534 1.2110001
0.45487696 0.24217916 1.212625
0.46245852 0.24210055 1.2154001
0.48826778 0.24044281 1.2145001
0.49220175 0.24027912 1.2190001
0.5093596 0.24044281 1.2145001
0.51357794 0.24044281 1.2145001
0.52639234 0.24060649 1.21
0.53059512 0.24060649 1.21
-0.53689921 0.2595188 1.21
-0.25470033 0.25915912 1.216
-0.24674229 0.25940681 1.2154001
-0.22291975 0.25848532 1.2190001
-0.21641321 0.25778949 1.2142501
-0.11588669 0.25863415 1.2132502
-0.10261842 0.25645062 1.2134001
-0.094991326 0.25541806 1.2155
-0.08484301 0.25689229 1.2137501
-0.075426042 0.2563653 1.2143334
-0.065326206 0.25664017 1.2162859
-0.055256687 0.25728256 1.2160001
-0.04474904 0.25708434 1.2154
-0.035293546 0.25549018 1.2146924
-0.025001686 0.25642422 1.2134546
-0.014127611 0.25577888 1.2142003
-0.0050416403 0.25585201 1.2147778
0.0055980119 0.25652951 1.2142309
0.014648153 0.25512123 1.2127273
0.024921037 0.25303826 1.2153847
0.035075925 0.25241581 1.2142668
0.044863001 0.25246686 1.2136428
0.055499747 0.25220329 1.2135832
0.064219587 0.25226098 1.2125
0.075701557 0.25116071 1.213143
0.085386686 0.25208905 1.2140001
0.094110727 0.25149009 1.2143751
0.10191628 0.25111333 1.21
0.11739624 0.25101367 1.2136
0.12182862 0.25103027 1.2130001
0.14814636 0.25111333 1.21
0.15508112 0.25104213 1.2125715
0.1646499 0.25119627 1.2155001
0.17557372 0.25100255 1.2140001
0.18412001 0.25091395 1.2172002
0.19582221 0.25086412 1.2190001
0.2000562 0.25086412 1.2190001
0.2469106 0.25163865 1.21
0.25216401 0.25111333 1.21
-0.66087985 0.26477221 1.21
-0.654926 0.26582289 1.21
-0.64545006 0.26512876 1.2126001
-0.53496182 0.26414597 1.2151668
-0.52280515 0.26340267 1.2124002
-0.51508963 0.26521108 1.2146155
-0.50539201 0.26543695 1.2146667
-0.49372995 0.26321521 1.2147273
-0.48465201 0.26449892 1.2160001
-0.47524333 0.26521885 1.216
-0.46498767 0.26685652 1.2176
-0.45563135 0.26611623 1.2151999
-0.44592601 0.26612023 1.2152002
-0.43585068 0.26602262 1.2173336
-0.42434701 0.26495659 1.2156668
-0.41322944 0.26459333 1.2140001
-0.40506884 0.26546511 1.2180001
-0.39523822 0.26603022 1.2152222
-0.38449669 0.26513821 1.2165002
-0.37525028 0.26531982 1.2173336
-0.36458731 0.26421353 1.2142001
-0.35535946 0.26361766 1.214375
-0.34564146 0.26309466 1.2135835
-0.33586693 0.26409805 1.2153749
-0.3215178 0.26248503 1.2140001
-0.31598651 0.26156315 1.2130001
-0.30574885 0.26162016 1.21
-0.28222978 0.26109165 1.2173334
-0.27395537 0.26172471 1.2144002
-0.26143086 0.26037669 1.2140001
-0.25194344 0.26037669 1.2140001
-0.24372879 0.261181 1.2177501
-0.23335764 0.26150614 1.2160001
-0.22496492 0.26126376 1.2137778
-0.21679471 0.26137146 1.2108001
-0.20267439 -0.11250388 1.2246002
-0.19858871 -0.11150703 1.223
-0.20377962 -0.1074486 1.2251818
-0.19923823 -0.10867539 1.2270001
-0.34726474 0.1391183 1.223
-0.36225134 0.14596598 1.2270002
-0.35451108 0.14623977 1.2229998
-0.34938869 0.14549012 1.223
0.018053519 0.14973801 1.223
0.026549293 0.14973801 1.223
0.036627665 0.14819238 1.2252859
-0.37184033 0.15662041 1.2270001
-0.36488515 0.15424913 1.2251052
-0.35454684 0.15307565 1.2230002
-0.34832671 0.15186195 1.223
0.0095577454 0.15292393 1.223
0.014877155 0.15198612 1.2240001
0.023653006 0.1537928 1.2229999
0.03314358 0.15238169 1.2240909
0.054868542 0.16177368 1.223
0.066904217 0.17097744 1.223
0.016991548 0.19221687 1.223
0.026157847 0.19799894 1.2246002
0.031859152 0.19699576 1.223
0.066801906 0.19614854 1.2243334
0.072766632 0.19522682 1.2263336
0.026943384 0.20563848 1.2260771
0.034236267 0.20424475 1.2236665
0.042478867 0.20283659 1.223
0.065920562 0.20519412 1.2243999
0.073941886 0.20662531 1.2270001
0.026275892 0.21522179 1.2244287
0.034539372 0.21588369 1.2229998
0.043540843 0.21982816 1.223
0.065367006 0.21607375 1.2239999
0.075646602 0.21521986 1.2269999
0.64531207 0.21888688 1.2256668
0.65311664 0.21935752 1.2243335
0.66481769 0.21912219 1.2250001
0.028673235 0.22195208 1.223
0.034426231 0.22299024 1.2261112
0.045526374 0.22359359 1.2250001
0.054512102 0.22534938 1.2241429
0.065694273 0.22432865 1.2237058
0.074525066 0.22447245 1.2269999
0.64375514 0.22153531 1.2254002
0.65694439 0.22153531 1.2254001
0.66526759 0.22226024 1.2247145
0.67227119 0.22373326 1.2255001
0.056787189 0.23402509 1.2255458
0.064910173 0.23515737 1.2253997
0.073667906 0.23561554 1.2270001
0.086301051 0.23333246 1.2270001
0.48477751 0.23865968 1.2270001
0.4943665 0.23972513 1.2270001
0.50608635 0.23972514 1.2270001
0.51448029 0.23897922 1.2250001
0.52483547 0.23707788 1.2243335
0.53504354 0.23773795 1.2250001
0.028673235 0.2474394 1.223
0.056838151 0.24693906 1.2258002
0.064516805 0.2441103 1.2251177
0.075208478 0.24549252 1.2256666
0.084599115 0.24847533 1.2255001
0.093200251 0.24912512 1.2243335
0.10607936 0.24868691 1.2256669
0.11150703 0.24956335 1.223
0.13800336 0.24868691 1.2256669
0.14478156 0.24804637 1.2260001
0.15509714 0.24874169 1.2255001
0.16398506 0.24934423 1.2236668
0.19434083 0.24956335 1.223
0.20381747 0.24802604 1.2238001
0.23515771 0.24792497 1.2254002
0.2457927 0.24792497 1.2254002
0.25570682 0.2461178 1.2270001
0.263015 0.24531548 1.223
0.27398872 0.24531546 1.223
0.2850773 0.24571663 1.2250001
0.29602057 0.2449445 1.2254001
0.30609879 0.24498332 1.2240001
0.31617579 0.24591723 1.2260002
0.32496333 0.24531546 1.223
0.33664501 0.24531548 1.223
0.34436104 0.24551603 1.2240001
0.35475114 0.24481413 1.2252223
0.36415905 0.2447461 1.2247145
0.37549078 0.2446512 1.2250001
0.38578454 0.2443665 1.2258574
0.39595115 0.24334922 1.2238001
0.40372118 0.2423012 1.2256668
0.4144581 0.24185602 1.2270001
0.42251974 0.24159321 1.2256669
0.43009853 0.24106757 1.223
0.4446249 0.2414618 1.2250001
0.45563969 0.24165891 1.2260001
0.46415281 0.24165891 1.2260002
0.49806473 0.24106757 1.223
0.50443655 0.24106757 1.223
-0.487445 0.25805911 1.223
-0.46240312 0.25890315 1.2270001
-0.45601049 0.25890315 1.2270001
-0.35053143 0.25890315 1.2270001
-0.25487322 0.25805911 1.223
-0.24850138 0.25805911 1.223
-0.23226702 0.25890315 1.2270001
-0.22511128 0.25583291 1.2247779
-0.12465707 0.25890315 1.2270001
-0.11506806 0.25890315 1.2270001
-0.10637432 0.25795016 1.2250001
-0.090562828 0.25464135 1.2270001
-0.084249757 0.25381124 1.223
-0.0763506 0.25353098 1.2255001
-0.064402983 0.25656298 1.2260001
-0.055578023 0.25617868 1.2262001
-0.045472231 0.25528827 1.2250001
-0.035067987 0.2535511 1.2238001
-0.023522668 0.25474364 1.2252223
-0.015017246 0.25459909 1.2256668
-0.0057938094 0.25427088 1.2252222
0.0047362852 0.25372443 1.2244548
0.015013001 0.25237906 1.2252222
0.02295191 0.25094002 1.2252859
0.046726756 0.25168729 1.223
0.052164257 0.25070652 1.2260001
0.086160377 0.25103343 1.2250001
0.11719896 0.25037959 1.2270001
0.12452161 0.25081548 1.2256669
0.13318062 0.25037962 1.2270001
0.17473298 0.25037959 1.2270001
0.18462521 0.25064111 1.2262002
0.19497645 0.25037962 1.2270001
-0.66481596 0.26592708 1.2250001
-0.65417457 0.2660239 1.223
-0.64886469 0.26443094 1.223
-0.53663999 0.26539436 1.2250001
-0.52227908 0.26326522 1.2250001
-0.51511449 0.26252267 1.2256669
-0.50443655 0.26273179 1.223
-0.49426812 0.26167053 1.2250001
-0.48493096 0.2618441 1.2244545
-0.47464284 0.26263484 1.2245386
-0.4659445 0.2634435 1.2256669
-0.4558472 0.26283282 1.2254616
-0.44757518 0.26613751 1.2243335
-0.43245465 0.26429725 1.2256669
-0.42642522 0.26429722 1.2256668
-0.41503602 0.26517814 1.2240001
-0.40273821 0.2652958 1.2270001
-0.39537734 0.26464716 1.2240001
-0.3859987 0.26477692 1.2246002
-0.37408933 0.26477551 1.2246002
-0.36507231 0.26358497 1.2247145
-0.3536647 0.26188272 1.2243335
-0.34281644 0.26332816 1.2238001
-0.33454973 0.26316494 1.2270001
-0.32475027 0.26256719 1.2262001
-0.31396705 0.26287895 1.2256669
-0.30634454 0.26273599 1.2250001
-0.28767014 0.26103404 1.2270001
-0.27717462 0.26159903 1.223
-0.26336896 0.26018307 1.223
-0.24252377 0.26060855 1.2250001
-0.23430257 0.26154324 1.2254001
-0.22832392 0.26018307 1.223
-0.1200028 0.26018307 1.223
-0.19470118 -0.11232759 1.2320004
-0.18542948 -0.11147455 1.2344002
-0.17832558 -0.11114204 1.2346668
-0.15776922 -0.11161904 1.2360001
-0.2060409 -0.10505306 1.2320002
-0.19475475 -0.10593696 1.2323337
-0.18538658 -0.10589802 1.2350001
-0.17869779 -0.10625274 1.2360001
-0.1635955 -0.10533281 1.2360001
-0.15824623 -0.10434473 1.2360001
-0.15466475 -0.09846206 1.2352002
-0.14703663 -0.097666666 1.2360001
-0.38530034 0.14918314 1.2360001
-0.37366092 0.14578941 1.2330003
-0.36726996 0.14489533 1.2324003
0.035302959 0.1444212 1.2320001
0.041721683 0.14656077 1.2320001
-0.3917399 0.15669596 1.2360001
-0.38487753 0.15463939 1.2353685
-0.37613189 0.15384784 1.2346668
-0.36800662 0.15083992 1.2320001
-0.39388642 0.16206226 1.2360001
0.077151418 0.19823182 1.2340001
0.080494501 0.1985531 1.2360001
0.024605094 0.20539904 1.2320001
0.076408125 0.20289651 1.2324003
0.08406841 0.20519838 1.2329526
0.09093187 0.20646884 1.2320001
0.085305661 0.21522143 1.2331114
0.64719319 0.21763444 1.2346668
0.65363967 0.21930628 1.2320001
0.66219795 0.21930628 1.2320001
0.67504841 0.21797946 1.2331431
0.037164673 0.22764461 1.2346668
0.043906406 0.22811118 1.2333335
0.07809443 0.22786456 1.2320001
0.084984325 0.22444211 1.2326002
0.091227099 0.22753114 1.2360001
0.65256989 0.22144584 1.2320001
0.66649449 0.22001831 1.2360001
0.67433727 0.22097 1.2333335
0.047223441 0.2307509 1.2360001
0.052474733 0.23429911 1.2333335
0.077024639 0.2342833 1.2320002
0.084424019 0.23428331 1.2320004
0.092895307 0.23185644 1.2337146
0.40569228 0.23933698 1.2360001
0.4110586 0.23933698 1.2360001
0.45828202 0.23933698 1.2360001
0.49290076 0.23894972 1.2340001
0.51556563 0.23902717 1.2344002
0.52425915 0.2372912 1.2346668
0.53520876 0.23746625 1.2352002
0.018186374 0.24926031 1.2320001
0.025163431 0.248926 1.233
0.031023813 0.24926031 1.2320001
0.048218552 0.24859169 1.2340001
0.054038119 0.2450746 1.2334547
0.07809443 0.24177179 1.2320001
0.084979549 0.24386218 1.2335557
0.094292313 0.24859169 1.2340001
0.10376931 0.24926031 1.2320001
0.11660676 0.24926031 1.2320001
0.12088589 0.24926031 1.2320001
0.13372335 0.24926031 1.2320001
0.1448901 0.24792306 1.2360001
0.15776923 0.24792306 1.2360001
0.16537063 0.24859169 1.2340002
0.17037222 0.24859169 1.2340001
0.18293352 0.24926031 1.2320001
0.19577096 0.24926031 1.2320001
0.20472732 0.24803005 1.2344002
0.21288757 0.24712072 1.2320001
0.23719047 0.24792306 1.2360001
0.24545561 0.24760213 1.2344002
0.25462869 0.24604538 1.2352002
0.26458046 0.24529932 1.2336
0.27409029 0.24518001 1.233
0.29419136 0.24605094 1.2320001
0.30587912 0.24577655 1.2360001
0.31630027 0.24569434 1.2320001
0.32521516 0.24498115 1.2320001
0.33484322 0.24498115 1.2320002
0.34608585 0.24475597 1.2326669
0.35431647 0.24359241 1.2340001
0.36324295 0.24430558 1.2340001
0.3753708 0.24459977 1.2344002
0.38476372 0.24363002 1.2360001
0.39560527 0.24348417 1.2337146
0.40459532 0.24083227 1.2326669
0.41609058 0.24128814 1.2350001
0.42501095 0.24148351 1.2360001
0.4338263 0.24101463 1.2336
0.44718561 0.24235965 1.2350001
0.45479137 0.24131911 1.2333335
0.46596298 0.2410146 1.2336
0.47494134 0.24122302 1.2346668
0.50361425 0.24109276 1.2340001
-0.52450806 0.25877202 1.2340001
-0.46075332 0.25823712 1.2340001
-0.32306749 0.25952402 1.2333335
-0.25650916 0.25865567 1.2360001
-0.23351489 0.25685263 1.2342224
-0.22715138 0.25425264 1.2320001
-0.12278043 0.25656191 1.2334547
-0.11518962 0.25553396 1.2343532
-0.10607907 0.25716388 1.2340001
-0.092300363 0.25543588 1.2360001
-0.084650353 0.25287893 1.2340001
-0.075068288 0.25308356 1.2350001
-0.065377071 0.2555401 1.2342858
-0.054419804 0.25494766 1.2342223
-0.045039583 0.2541568 1.2350001
-0.0353924 0.25415683 1.2350001
-0.023353307 0.25301149 1.2336
-0.014836096 0.25193775 1.2331431
-0.0049671824 0.25176901 1.2338183
0.0055959262 0.25128487 1.2337779
0.013924594 0.25095648 1.2333335
0.022538461 0.25006959 1.2360001
0.036729343 0.25139987 1.2320001
0.044968382 0.25160393 1.233
0.099813186 0.25006959 1.2360001
0.1126923 0.25006959 1.2360001
0.12572598 0.25073475 1.2340001
0.13415751 0.25006959 1.2360001
0.17601465 0.25006959 1.2360001
0.18605866 0.25040218 1.2350001
0.19426006 0.25006959 1.2360001
-0.66563171 0.2668958 1.2344002
-0.65720212 0.26452097 1.2333335
-0.54351276 0.26372328 1.2336
-0.5356583 0.26487902 1.2350001
-0.52448308 0.26191989 1.2352002
-0.51218641 0.26252323 1.2340001
-0.50335896 0.26294872 1.2360001
-0.49638104 0.26123405 1.2346668
-0.47116116 0.26080218 1.2360001
-0.46901464 0.26080218 1.2360001
-0.4522503 0.26372188 1.2336
-0.44587412 0.26671341 1.2346667
-0.43736303 0.26552159 1.233
-0.42354107 0.26500842 1.2336
-0.41538244 0.26504007 1.2345002
-0.40538669 0.26411864 1.234182
-0.39532265 0.26402256 1.2326669
-0.384803 0.26475206 1.2344002
-0.37553486 0.26386815 1.2331431
-0.3655498 0.26273799 1.2333335
-0.35789055 0.26252323 1.2340001
-0.34406909 0.26260835 1.2344002
-0.3342132 0.26251945 1.2360001
-0.32627684 0.26159179 1.2346668
-0.31510431 0.2621558 1.2337145
-0.29574394 0.26252323 1.2340001
-0.28265032 0.26177385 1.233
-0.27921432 0.26209775 1.2320001
-0.26187545 0.26080218 1.2360001
-0.24193852 0.26123405 1.2346668
-0.23894972 0.26144996 1.2340001
-0.11713122 -0.17027409 1.2490001
-0.12777004 -0.16675299 1.247
-0.10664726 -0.16665894 1.2490002
-0.11387758 -0.15617499 1.2490001
-0.10953938 -0.15725951 1.2490001
-0.16258673 -0.11090354 1.24
-0.15354218 -0.11176492 1.24
-0.14651322 -0.1119805 1.2429999
-0.16258673 -0.10875007 1.24
-0.1531827 -0.10522191 1.24125
-0.14564325 -0.10466816 1.2452502
-0.1388222 -0.10465892 1.2490001
-0.14207584 -0.0986939 1.2490001
-0.1388222 -0.0986939 1.2490001
-0.31234992 -0.081341125 1.2490001
-0.30659723 -0.081254296 1.2476667
-0.31198841 -0.078448996 1.2490001
-0.30468738 -0.076210156 1.2487147
-0.41104382 0.14858313 1.2490001
-0.40460432 0.14621221 1.2486925
-0.39512891 0.14515664 1.2470529
-0.38473919 0.14557889 1.2428501
-0.37844139 0.14339513 1.2416667
-0.41104382 0.15400587 1.2490001
-0.40536305 0.15499106 1.2482003
-0.39569452 0.15344954 1.2411537
-0.40410271 0.16289918 1.2490001
-0.39659679 0.1611511 1.24
0.089368872 0.21211648 1.24
0.094603017 0.21595481 1.2450626
0.64711678 0.21857688 1.24
0.65637821 0.21681026 1.24225
0.66335046 0.21729818 1.2437999
0.67459053 0.21836588 1.247
0.095106117 0.22460227 1.2428125
0.10086299 0.22016332 1.2490001
0.68218094 0.22016332 1.2490001
0.036874644 0.2331779 1.2490001
0.045182545 0.23538168 1.2470909
0.050810527 0.23891759 1.245
0.095593378 0.23340774 1.2463334
0.40562513 0.23780662 1.2442223
0.41580316 0.23930138 1.247
0.42839661 0.23968519 1.2490001
0.43165025 0.23968519 1.2490001
0.45567921 0.23839289 1.2465
0.46437722 0.23879083 1.2466
0.47507164 0.23894434 1.2474
0.48448125 0.23953167 1.2482001
0.50891972 0.23930138 1.247
0.5153563 0.23796198 1.2442499
0.52307099 0.23642544 1.2410001
0.53783154 0.23705827 1.24375
0.54159689 0.2358046 1.24
-0.015123111 0.2494776 1.24375
-0.0075675254 0.24972834 1.245
0.016216125 0.24972834 1.245
0.024828546 0.24939403 1.2433333
0.034594402 0.24972834 1.245
0.04744209 0.24760823 1.2474
0.051663477 0.24352124 1.2432858
0.093885392 0.24675223 1.246375
0.10477658 0.24952774 1.2440001
0.11563561 0.24856424 1.2445999
0.12429295 0.24857807 1.2446667
0.13494857 0.24933784 1.2461429
0.14600383 0.24865265 1.2418001
0.15543562 0.24765232 1.2454547
0.16526659 0.24703322 1.2456001
0.17512982 0.24756096 1.2450001
0.18575683 0.24825218 1.2452
0.19517955 0.2482229 1.2443637
0.20544225 0.24734281 1.24525
0.21563111 0.2468635 1.2451112
0.22477329 0.2485435 1.2444999
0.23451617 0.24769974 1.2445999
0.24494489 0.2466242 1.2451111
0.25379226 0.2458615 1.2455001
0.2648634 0.24540403 1.245
0.27222162 0.24619249 1.2490001
0.28533435 0.24657194 1.24
0.29434332 0.24690336 1.2416668
0.30528581 0.24628735 1.2467501
0.31620166 0.24563994 1.2437779
0.32471892 0.24376184 1.2458334
0.33416522 0.24478416 1.2465714
0.34520569 0.24481243 1.2451428
0.35454008 0.24320933 1.2448334
0.36649624 0.24396941 1.2440001
0.37520576 0.24409935 1.24525
0.38439557 0.24271828 1.2423334
0.39572006 0.24271645 1.2447777
0.40090996 0.24098292 1.2445
0.41561908 0.24011154 1.24
0.42536899 0.24075702 1.2433333
0.43567324 0.24107973 1.2450001
0.44582018 0.24180147 1.2431667
0.45366684 0.24030519 1.2410001
0.46407208 0.24011156 1.24
0.47421074 0.24088609 1.244
0.48259076 0.24075702 1.2433333
0.50580066 0.24049881 1.242
0.51144832 0.24011154 1.24
-0.54159689 0.25949275 1.24
-0.53944343 0.25949275 1.24
-0.52113891 0.258416 1.24
-0.51740199 0.25775772 1.244625
-0.46573234 0.25893217 1.2456
-0.45761168 0.25949275 1.24
-0.41104382 0.25920707 1.2490001
-0.33271062 0.25949275 1.24
-0.32698867 0.25921246 1.2428
-0.29499716 0.25920707 1.2490001
-0.28526211 0.2592642 1.2472
-0.26426828 0.25920707 1.2490001
-0.25344902 0.25921154 1.2438333
-0.24339125 0.25852868 1.24575
-0.23785149 0.25564495 1.24225
-0.12382434 0.25410908 1.24
-0.113057 0.25518581 1.24
-0.10578036 0.25763384 1.2456
-0.096059084 0.25712278 1.2476667
-0.085843876 0.25284579 1.2461667
-0.074739359 0.25367472 1.2474
-0.065341718 0.2550351 1.2452857
-0.055041045 0.25364453 1.243
-0.044699632 0.25379315 1.2455
-0.034624793 0.2542567 1.2460001
-0.024894683 0.25284106 1.2465003
-0.016151 0.25087887 1.24
-0.0059493855 0.25070477 1.2445
0.0054032044 0.25138468 1.2425001
0.012920801 0.25087887 1.24
0.03595471 0.25137606 1.2440001
0.04324995 0.25087339 1.2453334
0.10444313 0.25087887 1.24
0.12859626 0.25070477 1.2445
0.18842834 0.25087887 1.24
-0.68218094 0.26788345 1.2490001
-0.67458993 0.26691222 1.247
-0.66525429 0.26576313 1.2434286
-0.54240882 0.26419231 1.2432858
-0.53595561 0.26420215 1.2428999
-0.52006221 0.26164621 1.24
-0.51521641 0.26247758 1.2460001
-0.50652754 0.26330945 1.2438
-0.49455404 0.26354524 1.2490001
-0.48470804 0.26291224 1.2460001
-0.47482204 0.26118717 1.2446666
-0.46161905 0.26053908 1.245
-0.45248389 0.26371026 1.2446666
-0.44605777 0.26533303 1.2438334
-0.43463069 0.26380542 1.2451251
-0.42460176 0.262898 1.2442501
-0.41464049 0.26200294 1.2426363
-0.40508386 0.26177168 1.2447
-0.39395332 0.26443788 1.243
-0.38425991 0.26325417 1.2442223
-0.37478915 0.26190692 1.2446667
-0.36602566 0.26190788 1.2446668
-0.35446531 0.26244491 1.2438
-0.34524396 0.26148164 1.2437779
-0.33625561 0.26109266 1.2425001
-0.32107928 0.26053908 1.245
-0.31482947 0.26163849 1.2450999
-0.30520383 0.26261139 1.2453847
-0.294689 0.26122451 1.243125
-0.28574964 0.26119727 1.243
-0.2747497 0.26308867 1.2468462
-0.26633087 0.26157138 1.2458
-0.25703797 0.26137614 1.2490001
-0.2475992 0.26098192 1.2429999
-0.12086679 -0.17095573 1.2540001
-0.08199238 -0.17382383 1.2590001
-0.078712679 -0.17382383 1.2590001
-0.12355699 -0.1642943 1.2539999
-0.11542236 -0.16442239 1.2539999
-0.10517966 -0.16260487 1.2556666
-0.097297624 -0.16507798 1.2590001
-0.08242967 -0.16595256 1.2590001
-0.12159272 -0.15716313 1.2540001
-0.11868902 -0.15680017 1.2540001
-0.10562234 -0.15788905 1.2540001
-0.13228104 -0.1104164 1.2590001
-0.12421209 -0.11291143 1.2558181
-0.11677703 -0.11459055 1.2589999
-0.1426446 -0.10780011 1.2540001
-0.13440406 -0.10550582 1.2543333
-0.12761474 -0.10595714 1.256143
-0.1169758 -0.1067723 1.2590001
-0.13228105 -0.099484086 1.2590001
-0.12790811 -0.099484086 1.2590001
-0.11352494 -0.097012706 1.2584444
-0.10866693 -0.096656576 1.25775
-0.32382584 -0.082502678 1.2556667
-0.31711969 -0.083477579 1.2550001
-0.32400486 -0.075120352 1.2576844
-0.31496143 -0.074452862 1.2539999
-0.30597812 -0.073266745 1.2540002
-0.32277668 -0.067233749 1.2589999
-0.31438103 -0.06595847 1.2547693
-0.30738965 -0.067944311 1.258
-0.42089421 0.14867952 1.2590001
-0.41530266 0.14787127 1.2540001
-0.43182653 0.1585186 1.2590001
-0.42516214 0.15519956 1.2586876
-0.41660935 0.15505795 1.2540001
-0.43367663 0.16558257 1.2589999
-0.42602429 0.164946 1.2580001
-0.41525611 0.16468763 1.2546248
-0.40833375 0.16442239 1.2540001
-0.44275886 0.17273059 1.2590001
-0.43286678 0.17118296 1.2556667
0.10290011 0.21832244 1.2540001
0.68750447 0.21897478 1.25775
0.69201565 0.21755311 1.2590001
0.036051322 0.23743868 1.2581667
0.041014858 0.23774099 1.2540001
0.095111161 0.23941775 1.2590001
0.40449572 0.23941775 1.2590001
0.42636037 0.23941775 1.2590001
0.4349784 0.23879027 1.258
0.44439867 0.23941775 1.2590001
0.45308766 0.23910081 1.2573335
0.46837267 0.23910081 1.2573335
0.47573105 0.23840995 1.2560002
0.48551992 0.23784912 1.2565
0.49304751 0.23941775 1.2590001
0.51652712 0.23807319 1.2568572
0.52542329 0.23704286 1.258
0.53506964 0.23778425 1.2550001
0.54261684 0.23691724 1.2573334
-0.022866691 0.24935582 1.2540001
0.036187943 0.2467569 1.2565
0.043831773 0.24490403 1.2557501
0.096926846 0.24613449 1.2573333
0.10585533 0.24845052 1.2567776
0.11409891 0.24675383 1.2567778
0.12532394 0.24781071 1.2550001
0.13310508 0.24875972 1.2565001
0.14529972 0.24870408 1.2554287
0.15548159 0.24603097 1.2565
0.16547467 0.24512428 1.2565001
0.17558917 0.24473421 1.2559999
0.18448485 0.24555111 1.2558181
0.19516891 0.24641478 1.2556667
0.20580022 0.24717805 1.2540001
0.22453819 0.24742442 1.2552501
0.2348564 0.24752919 1.258
0.24488391 0.24597713 1.2590001
0.25452241 0.24578176 1.258
0.26377296 0.24524447 1.2552501
0.2751236 0.24677774 1.2556667
0.28493953 0.24714217 1.2556667
0.29492089 0.2469779 1.2548335
0.30711359 0.24677774 1.2556667
0.3152245 0.2447942 1.256143
0.32535034 0.24237472 1.2573333
0.33656982 0.24364531 1.2559999
0.3444041 0.2443103 1.2568573
0.354168 0.24301612 1.2550001
0.36492267 0.24277246 1.256
0.37407976 0.24320976 1.2560002
0.38437817 0.24282248 1.2540001
0.39502811 0.24233519 1.256
0.40150821 0.24112445 1.2565
0.42575604 0.24064469 1.2540001
0.4377338 0.24064469 1.2540001
0.44592083 0.241404 1.2547144
0.45188937 0.24064469 1.2540001
0.49960688 0.24160421 1.2590001
0.50495845 0.2410285 1.2560002
-0.43182653 0.25909591 1.2590001
-0.42964005 0.25909591 1.2590001
-0.34477523 0.25858143 1.2565
-0.33452889 0.25909591 1.2590001
-0.32250339 0.25909591 1.2590001
-0.3141948 0.25865862 1.2590001
-0.30495042 0.25776154 1.2564999
-0.2945821 0.25858143 1.2565001
-0.28533348 0.25909591 1.2590001
-0.27521759 0.25883865 1.25775
-0.26567745 0.2575075 1.25525
-0.25491881 0.25819561 1.2581667
-0.24641624 0.25659078 1.2556667
-0.11478933 0.25690946 1.2590001
-0.10292196 0.25712383 1.2565
-0.09533266 0.25390586 1.2574614
-0.085017003 0.25178432 1.25525
-0.075689666 0.25193304 1.2559999
-0.06623733 0.25365695 1.2573333
-0.055579413 0.2539137 1.2550001
-0.044732049 0.25348836 1.2565
-0.03491395 0.25312394 1.2565
-0.027579883 0.2513375 1.256143
-0.00326667 0.2515336 1.2540001
0.0054661585 0.25253654 1.2590001
0.0149061 0.25186795 1.2556667
0.02365919 0.25074458 1.2573335
0.10385701 0.25035006 1.2590001
-0.68336642 0.26730844 1.2565
-0.67427778 0.26512778 1.2565
-0.66748959 0.26568916 1.2540001
-0.51324439 0.26240548 1.2560002
-0.50406796 0.26294565 1.2565
-0.49384958 0.26384598 1.2573335
-0.48532715 0.26240373 1.2559999
-0.47584495 0.26024473 1.2540001
-0.4606005 0.2624225 1.2540001
-0.45430332 0.26313424 1.2556669
-0.44449472 0.26381591 1.2565001
-0.43445987 0.26198328 1.257125
-0.42636037 0.26128238 1.2590001
-0.41623431 0.26076356 1.2565
-0.40459168 0.26220125 1.2581668
-0.39585811 0.26390377 1.255875
-0.385506 0.26185247 1.2565001
-0.37437758 0.26086733 1.2570001
-0.36417267 0.26204249 1.2556667
-0.35654318 0.26277128 1.2556667
-0.34345335 0.26059061 1.2556667
-0.33691713 0.26059061 1.2556667
-0.32448924 0.26024473 1.2540001
-0.31468922 0.26024473 1.2540001
-0.3048892 0.26024473 1.2540001
-0.28202251 0.26024473 1.2540001
-0.27621514 0.26060769 1.2540002
-0.26351139 0.26024473 1.2540001
-0.25806695 0.26024473 1.2540001
-0.091386877 -0.17066224 1.268
-0.085679077 -0.1721378 1.2672858
-0.073943943 -0.17368796 1.2646668
-0.065787725 -0.17547859 1.2674443
-0.057621446 -0.1787366 1.268
-0.095356166 -0.1645529 1.2637899
-0.084660999 -0.16504863 1.264389
-0.07482563 -0.16540447 1.2652222
-0.067604266 -0.1649368 1.268
-0.094805226 -0.15923208 1.2646668
-0.085724346 -0.15902261 1.2680001
-0.073770128 -0.15965179 1.268
-0.068264894 -0.15965177 1.268
-0.082578503 -0.12001409 1.268
-0.12173426 -0.11076721 1.263
-0.1127169 -0.11296061 1.2630001
-0.10672989 -0.11223368 1.2671669
-0.080376409 -0.117812 1.268
-0.12311443 -0.1040769 1.2646669
-0.11476696 -0.10496111 1.2630002
-0.10426774 -0.10531924 1.2665714
-0.095791064 -0.10381299 1.268
-0.086668104 -0.10381299 1.268
-0.01816727 -0.10184682 1.268
-0.12374293 -0.097343862 1.26675
-0.1182248 -0.098484114 1.263
-0.10423376 -0.097648717 1.2635555
-0.095595688 -0.097799957 1.2655001
-0.085881643 -0.097259127 1.2680001
-0.018717794 -0.097993158 1.268
-0.32279685 -0.085908562 1.263
-0.31517261 -0.085291758 1.2646668
-0.33010823 -0.071285829 1.263
-0.3279148 -0.071285829 1.263
-0.33076164 -0.065928213 1.2655001
-0.32547772 -0.063730754 1.2630001
-0.43350762 0.14779772 1.2655001
-0.42661828 0.14805518 1.263
-0.44246349 0.15650593 1.2680001
-0.434944 0.15454587 1.2646668
-0.42661828 0.15024859 1.263
-0.46133858 0.1673591 1.268
-0.45378858 0.16720182 1.2680001
-0.44491369 0.16621631 1.2647649
-0.43904757 0.16523689 1.263
-0.46322611 0.17349352 1.2680001
-0.45537084 0.1726014 1.2675453
-0.44690728 0.17273104 1.263
-0.43977872 0.17218269 1.263
0.68589646 0.21817784 1.2644286
0.67934579 0.22131039 1.268
0.40564018 0.23855029 1.266
0.41126439 0.23798499 1.263
0.42774129 0.2386131 1.2663335
0.43460321 0.23735502 1.2655001
0.44504258 0.23735502 1.2655001
0.45415667 0.23751253 1.2648752
0.47659811 0.23719946 1.2646668
0.4863914 0.23543422 1.2663332
0.49372014 0.23787907 1.2663335
0.50684851 0.23892716 1.268
0.51537061 0.23680668 1.2655001
0.52544188 0.2347917 1.2655001
0.53482652 0.23652272 1.263
0.54328823 0.23616324 1.2650001
-0.080376409 0.24993759 1.268
-0.075972222 0.24993759 1.268
-0.029728262 0.24993759 1.268
0.029728262 0.24993759 1.268
0.033675708 0.24561909 1.2646668
0.098251708 0.24315786 1.26425
0.10440774 0.244407 1.2656922
0.11447827 0.24423102 1.2663332
0.12432189 0.24709971 1.2670001
0.13557224 0.2486479 1.26425
0.14257166 0.24895205 1.263
0.15467361 0.24667731 1.2663335
0.16487134 0.24456522 1.263
0.17532374 0.24203277 1.2663332
0.18497455 0.24321568 1.2655001
0.19664577 0.24466434 1.265143
0.20352229 0.24635021 1.2646668
0.21339141 0.24749129 1.26675
0.22571459 0.2477355 1.268
0.23494439 0.24704286 1.2663335
0.25654387 0.24553341 1.268
0.26480174 0.24553341 1.268
0.27587703 0.2458628 1.2646667
0.28418499 0.24523349 1.2636249
0.29504707 0.24614599 1.2655001
0.30480731 0.24597035 1.2652223
0.31329209 0.24456522 1.263
0.32455263 0.24225858 1.2670001
0.33482498 0.24151284 1.26425
0.34392601 0.24211343 1.2665715
0.35479146 0.24275561 1.2650001
0.36535597 0.24157585 1.2652222
0.37581554 0.24175052 1.2655001
0.38471743 0.24232464 1.2646668
0.39523694 0.2416618 1.2658572
0.40139404 0.24017841 1.263
0.42113471 0.24017841 1.263
0.44855237 0.24017841 1.263
0.49790406 0.24237181 1.263
0.50514865 0.24049537 1.2646668
0.51216125 0.24017841 1.263
-0.48145351 0.25991911 1.263
-0.45032811 0.25874597 1.268
-0.44454122 0.25924873 1.2658572
-0.43746787 0.25962582 1.26425
-0.42881167 0.25991911 1.263
-0.38055664 0.25991911 1.263
-0.37397641 0.25991911 1.263
-0.36520278 0.25991911 1.263
-0.34208795 0.25903925 1.2667501
-0.33572826 0.25921521 1.2660002
-0.32444146 0.25768423 1.2654999
-0.31560048 0.25690588 1.265143
-0.30565625 0.25733179 1.2646668
-0.29669213 0.25823584 1.2655001
-0.28604254 0.25877652 1.266
-0.27664208 0.25798076 1.26425
-0.2621125 0.25772569 1.263
-0.25693494 0.25840589 1.2663333
-0.24715112 0.25461742 1.2650001
-0.12431668 0.25678024 1.2670001
-0.11350342 0.25596008 1.2663332
-0.10606804 0.25495493 1.2645
-0.096703246 0.25273928 1.2655001
-0.072111033 0.25220799 1.2646668
-0.064873479 0.25290787 1.2663335
-0.05499915 0.25409105 1.26675
-0.042771496 0.25333887 1.263
-0.035094563 0.25114545 1.263
-0.020837396 0.25114545 1.263
-0.016450576 0.25114545 1.263
-0.0044031013 0.2524395 1.26675
0.0065954267 0.25273928 1.2655001
0.015388604 0.25164258 1.2655001
0.025285002 0.25180829 1.2663335
-0.68432397 0.26648089 1.2650001
-0.67714369 0.26535225 1.268
-0.50484991 0.26430592 1.263
-0.49617696 0.26338133 1.2670001
-0.48563129 0.26178968 1.26675
-0.46354067 0.26315016 1.268
-0.45471409 0.26187697 1.2657272
-0.44562781 0.2621125 1.263
-0.4039858 0.26182139 1.26425
-0.39469126 0.26165998 1.2661252
-0.38595945 0.26133621 1.2663335
-0.37545693 0.26094806 1.268
-0.36314031 0.26164672 1.2650001
-0.35529959 0.26226434 1.2655001
-0.33141506 0.26094806 1.268
-0.053016961 -0.18114129 1.2720001
-0.045833934 -0.1809032 1.275
-0.061853126 -0.17340964 1.2720002
-0.055005103 -0.17429325 1.2720002
-0.045318317 -0.17465267 1.2730001
-0.037479531 -0.17586546 1.2770001
-0.025986515 -0.1764787 1.2764446
-0.062773556 -0.16494165 1.2720003
-0.055521298 -0.16611281 1.2736669
-0.046194412 -0.16657308 1.2726668
-0.037921857 -0.16825521 1.2720001
-0.083943523 -0.15794636 1.2720001
-0.07318487 -0.15856722 1.2770001
-0.069584765 -0.15794636 1.2720001
-0.087257087 -0.12039268 1.2720001
-0.072898321 -0.12039268 1.2720001
-0.065166682 -0.12102384 1.2720002
-0.055277016 -0.120511 1.2732501
-0.048789915 -0.12086593 1.2770001
-0.10350061 -0.11455256 1.2725558
-0.095036492 -0.11492815 1.2726251
-0.085280567 -0.11469569 1.272
-0.075107358 -0.11487009 1.2720001
-0.065166675 -0.11487009 1.272
-0.055304151 -0.11503777 1.273875
-0.048789915 -0.11532161 1.2770001
-0.033265851 -0.11421275 1.2770001
-0.027707279 -0.11414887 1.2762859
-0.12481076 -0.10051132 1.2720001
-0.092411511 -0.10677027 1.2720002
-0.082638182 -0.10593351 1.2720003
-0.075121477 -0.10494915 1.2722499
-0.065247267 -0.10505722 1.2736001
-0.056003917 -0.1061797 1.2746669
-0.048789915 -0.10977731 1.2770001
-0.022491861 -0.10433634 1.2736669
-0.12591529 -0.098302282 1.2720001
-0.082265466 -0.095541418 1.2745001
-0.075947218 -0.096539043 1.2750001
-0.06616208 -0.098319076 1.2770001
-0.020985881 -0.098302282 1.2720001
-0.4517487 0.1491102 1.2720001
-0.4448843 0.14829549 1.2745
-0.452748 0.15599793 1.2763751
-0.44568229 0.15398401 1.2724549
-0.47311315 0.16730526 1.276
-0.46491885 0.16456039 1.2744999
-0.45581311 0.16339822 1.2738184
-0.44953966 0.16125992 1.2720001
-0.47436106 0.17511603 1.2763752
-0.46612906 0.17572585 1.2740836
-0.45616677 0.17782773 1.2720001
-0.4745928 0.18074445 1.2770001
0.67817533 0.21979949 1.2720001
0.68516129 0.21878418 1.27575
0.69599557 0.21844575 1.2770002
0.70190948 0.21844575 1.2770001
0.51562071 0.22953437 1.2770001
0.3358444 0.23925565 1.2736667
0.36780518 0.23968084 1.2720001
0.3744323 0.23968084 1.2720002
0.38105941 0.23968084 1.2720001
0.40094078 0.23968084 1.2720001
0.41546831 0.23925565 1.2736667
0.42651099 0.23831955 1.2748573
0.43543792 0.2364444 1.276
0.44459307 0.23557103 1.2736669
0.45640057 0.23650861 1.27575
0.46636051 0.23895195 1.2748573
0.47454691 0.23749411 1.2745003
0.48251721 0.23517072 1.2745001
0.49523872 0.23627524 1.2745001
0.50478506 0.23653187 1.2742224
0.51467294 0.23446579 1.2750771
0.52338272 0.23396982 1.2770001
0.5453828 0.23496735 1.2740002
0.55334759 0.23793854 1.2745001
-0.25171161 0.24727616 1.2770001
-0.24949388 0.24949388 1.2770001
-0.068749428 0.24949388 1.2770001
0.029939266 0.24949388 1.2770001
0.032809399 0.24441877 1.2736667
0.10312414 0.24284071 1.2770001
0.11818364 0.24409893 1.2720001
0.12500875 0.24625345 1.2740002
0.13514978 0.24869524 1.27575
0.1449765 0.24789658 1.2745003
0.15272117 0.24679206 1.2745001
0.16678253 0.24520345 1.2720001
0.18961535 0.24505843 1.2770001
0.20474215 0.24568754 1.2745001
0.21179259 0.24727616 1.2770001
0.22509892 0.24816325 1.2770001
0.23550823 0.2462142 1.2753334
0.24428736 0.24605806 1.2730001
0.25377634 0.24536633 1.2740002
0.26523548 0.24494684 1.2745001
0.27566892 0.24467464 1.2750001
0.28496617 0.24354668 1.2720001
0.29438195 0.24457869 1.2745001
0.30397829 0.24429083 1.2730001
0.31430236 0.24457869 1.2745001
0.32314938 0.24291973 1.2745001
0.33376738 0.24062298 1.2770001
0.34638989 0.24125645 1.2745001
0.35538712 0.2424604 1.275
0.36434227 0.24104528 1.2753334
0.38768649 0.24188989 1.2720001
0.39422473 0.24087636 1.276
0.40029907 0.24062298 1.2770001
0.42164922 0.24125645 1.2745001
0.50034755 0.24188989 1.2720001
-0.50674981 0.25836477 1.2770001
-0.4548499 0.25768331 1.2756366
-0.44439897 0.25840196 1.2750001
-0.40535885 0.25956219 1.2720001
-0.38547748 0.25956219 1.2720001
-0.3746776 0.25936267 1.2728336
-0.36499998 0.25932273 1.2730001
-0.34263825 0.25836477 1.2770002
-0.33413348 0.25840196 1.275
-0.32520878 0.25618091 1.2753334
-0.31520355 0.25547844 1.2736669
-0.30493698 0.25836477 1.2770001
-0.29438195 0.25896347 1.2745001
-0.28586003 0.25751659 1.2750001
-0.27667487 0.25785896 1.2745001
-0.25350201 0.25508112 1.2748573
-0.2476567 0.25207692 1.2732501
-0.13143788 0.25735316 1.2720001
-0.12579677 0.25601378 1.2745003
-0.11571515 0.25377461 1.274
-0.1049294 0.25293508 1.2720001
-0.0938842 0.25293508 1.2720001
-0.089466125 0.25293508 1.2720001
-0.074739188 0.25072604 1.2720001
-0.065217912 0.25180677 1.2730001
-0.055334542 0.25343221 1.2745001
-0.044637978 0.25343075 1.2745001
-0.035344642 0.25072604 1.2720001
-0.013848832 0.25201747 1.2757502
-0.0055381069 0.25206119 1.2755716
0.004802173 0.25211942 1.2753334
0.015135629 0.2513831 1.2753334
0.024394957 0.25171161 1.2770001
-0.69525635 0.2672357 1.2770002
-0.68725288 0.26560366 1.2745001
-0.6792798 0.26618934 1.2720001
-0.52161956 0.26154506 1.2745
-0.51512045 0.26263905 1.2742729
-0.5044843 0.26238191 1.2740836
-0.49358195 0.26117688 1.2745001
-0.48551965 0.26137501 1.2736667
-0.47476169 0.26339459 1.2745001
-0.46480799 0.26228356 1.2745
-0.43800038 0.26058251 1.2770001
-0.42136747 0.26280022 1.2770001
-0.4141686 0.26170737 1.276
-0.40476948 0.26117685 1.2745001
-0.39475477 0.26058251 1.2770001
-0.38605732 0.2608797 1.27575
