# .PCD v0.7 - Point Cloud Data file format
VERSION 0.7
FIELDS x y z
SIZE 4 4 4
TYPE F F F
COUNT 1 1 1
WIDTH 1402
HEIGHT 1
VIEWPOINT 0 0 0 1 0 0 0
POINTS 1402
DATA ascii
0.076255068 0.26614699 0.9442668
0.084781073 0.26581958 0.94426674
0.094479449 0.26555952 0.94450009
0.1050363 0.26409644 0.94422227
0.11464179 0.26373553 0.94342113
0.12489857 0.26409549 0.94422227
0.13596292 0.26372167 0.94516677
0.1433118 0.26328877 0.94312507
0.15458094 0.26430115 0.94554549
0.16361973 0.26495424 0.94687504
0.17728393 0.26470557 0.94525003
0.18605724 0.26301566 0.94287503
0.19368623 0.26361072 0.94484627
0.20616734 0.26296696 0.94520009
0.21415396 0.26184478 0.94333333
0.2247148 0.26281509 0.94362503
0.23530672 0.26156309 0.94481826
0.24450257 0.26231048 0.94561535
0.25513783 0.26242569 0.94411111
0.26464829 0.26116151 0.94468749
0.27502877 0.2606616 0.94330776
0.3167246 0.26020768 0.94333339
0.34302959 0.26048294 0.94433343
-0.51190811 0.27784714 0.9425
-0.50429457 0.27776414 0.94250011
-0.49539956 0.27861252 0.94426668
-0.48335141 0.27682295 0.94133341
-0.4756918 0.27423012 0.94160002
-0.46215308 0.27238402 0.94200003
-0.45469105 0.27404732 0.94350004
-0.44501796 0.27371892 0.94210017
-0.43486512 0.27247703 0.94314307
-0.4255189 0.27330199 0.94361115
-0.41476846 0.27332768 0.94468409
-0.40503934 0.27390844 0.94292307
-0.39533979 0.27286229 0.94323087
-0.38546491 0.27267143 0.94300008
-0.37477931 0.27195889 0.94280005
-0.36237234 0.27346301 0.94460005
-0.35486957 0.27409238 0.94383359
-0.34500438 0.27235916 0.94262499
-0.33514118 0.27168417 0.94258839
-0.32587919 0.27316678 0.94228572
-0.31914723 0.27343819 0.94000006
-0.30236363 0.27195325 0.9436667
-0.29562065 0.27426609 0.94586676
-0.28592721 0.27391642 0.94600004
-0.27584183 0.27301231 0.94263637
-0.26488334 0.27267316 0.94300008
-0.25478232 0.27410662 0.94306695
-0.24540034 0.27214864 0.94308341
-0.23471224 0.27191877 0.94380009
-0.22518428 0.27307624 0.94400001
-0.21515861 0.27353257 0.94478941
-0.20556082 0.27187592 0.94358826
-0.19444144 0.27226278 0.94087505
-0.18499056 0.27302074 0.94388247
-0.17597897 0.27183253 0.94350004
-0.16459809 0.2713533 0.94411117
-0.15417503 0.27275464 0.94479996
-0.14642601 0.2726151 0.9459092
-0.12161877 0.27017325 0.94000006
-0.11611017 0.27074221 0.94388896
-0.08424744 0.27033651 0.94200003
-0.062771529 0.27048671 0.94300008
-0.05592414 0.27026656 0.94114292
-0.048157766 0.27017325 0.94000006
-0.0269357 0.27017325 0.94000006
-0.51614165 0.28063405 0.94500005
-0.49323592 0.28056371 0.94200003
-0.072145477 -0.39058071 0.9550001
-0.066549063 -0.39097577 0.95800012
-0.083477579 -0.38446543 0.9534446
-0.075358719 -0.38539743 0.95587188
-0.067380928 -0.38748196 0.95800012
-0.091601245 -0.37362725 0.95037496
-0.08536645 -0.37464502 0.95497805
-0.07847245 -0.37544769 0.95800012
-0.09208712 -0.36463606 0.95258331
-0.085225508 -0.3648681 0.95729423
-0.079027019 -0.36352429 0.95800006
-0.093708843 -0.3537927 0.95290333
-0.085444249 -0.35536402 0.95800012
-0.079027019 -0.3568694 0.95800006
-0.10146476 -0.34069058 0.95000005
-0.09498959 -0.34450278 0.95258981
-0.086777806 -0.34382558 0.95785725
-0.10245466 -0.33458617 0.94999993
-0.095073193 -0.33472511 0.95214301
-0.085515618 -0.33381009 0.9574002
-0.079027019 -0.33191347 0.95800006
-0.1020147 -0.32510886 0.94999993
-0.095166668 -0.32487935 0.95269793
-0.085173525 -0.32489219 0.95790017
-0.079027019 -0.32442671 0.95800006
-0.10146476 -0.31511816 0.95000005
-0.095067501 -0.31487355 0.95248771
-0.085456587 -0.31445616 0.95725012
-0.079027027 -0.31444436 0.95800012
-0.09435872 -0.30493984 0.95079434
-0.084668107 -0.30471021 0.95708835
-0.078789346 -0.30434316 0.95800018
-0.094315469 -0.2958701 0.95000017
-0.085328341 -0.29473969 0.9550752
-0.0777198 -0.29459846 0.95800018
-0.092862047 -0.28624606 0.94999993
-0.085426927 -0.28530553 0.95426327
-0.076495267 -0.2846781 0.95800012
-0.085192353 -0.27528599 0.95115387
-0.075013287 -0.27431801 0.95659393
-0.092848957 -0.26424831 0.94999993
-0.084976755 -0.26540551 0.95140034
-0.074888609 -0.26480129 0.95743275
-0.069044657 -0.26037323 0.95800006
-0.093215585 -0.25943631 0.95000005
-0.085144624 -0.25545213 0.95160025
-0.074632592 -0.25463393 0.95629412
-0.069044657 -0.25455019 0.95800012
-0.084801465 -0.24523617 0.9507677
-0.074913807 -0.24527632 0.95575762
-0.06842076 -0.24352801 0.95800012
-0.084190935 -0.23442054 0.95058358
-0.074489497 -0.23525926 0.95462185
-0.067380928 -0.23458548 0.95800006
-0.092555657 -0.22124267 0.94999999
-0.084731571 -0.22428906 0.95015043
-0.074575283 -0.22509322 0.95544738
-0.068331636 -0.22638567 0.95800018
-0.093932897 -0.21429904 0.95000011
-0.085008785 -0.21459049 0.95050031
-0.075600788 -0.21535112 0.9561289
-0.092717752 -0.20420644 0.95018739
-0.084951654 -0.20507139 0.95370477
-0.077428222 -0.20548974 0.9576667
-0.10503939 -0.19151817 0.94999993
-0.094682731 -0.19476894 0.95257181
-0.085122727 -0.19510449 0.95763165
-0.11334356 -0.18214159 0.94999993
-0.10479173 -0.18476091 0.95147395
-0.095444135 -0.18572097 0.95675015
-0.087068371 -0.18689197 0.95800012
-0.13281158 -0.17075776 0.95000005
-0.12456243 -0.1731147 0.95000005
-0.11471815 -0.17448951 0.95217103
-0.10533661 -0.17709526 0.95573348
-0.097993501 -0.17785239 0.95800012
-0.15260959 -0.16085875 0.95000005
-0.14375746 -0.16221358 0.9523685
-0.13482243 -0.16439909 0.95432514
-0.12522277 -0.16595723 0.95539486
-0.11678752 -0.16786356 0.95643759
-0.18230659 -0.15095976 0.95000005
-0.17452881 -0.15119545 0.94999999
-0.16406509 -0.15202397 0.9517619
-0.15484284 -0.15475404 0.95310032
-0.14569575 -0.15646099 0.95600003
-0.13698018 -0.15833132 0.95800012
-0.2032045 -0.14133574 0.94999999
-0.19381541 -0.14239204 0.95240909
-0.18513538 -0.14525247 0.95416147
-0.17524058 -0.14748038 0.95420849
-0.16606894 -0.14764576 0.95580006
-0.15722218 -0.14890353 0.95800006
-0.3401114 -0.13157594 0.95300007
-0.33709872 -0.13136885 0.95150006
-0.25332108 -0.13223994 0.95183337
-0.24518545 -0.13303849 0.95218182
-0.23456058 -0.13367499 0.95277423
-0.22480953 -0.13398233 0.95313174
-0.21489656 -0.13672704 0.95475006
-0.20514382 -0.13783923 0.95472747
-0.19685006 -0.13875367 0.9558183
-0.33641991 -0.1292004 0.95075005
-0.32914177 -0.12951192 0.95000005
-0.30934376 -0.12621225 0.95000005
-0.28294644 -0.12786208 0.95000005
-0.27964675 -0.12786208 0.95000005
-0.2614986 -0.12786208 0.95000005
-0.25562647 -0.12880036 0.95130771
-0.24531861 -0.12903555 0.95380014
-0.23493814 -0.12689453 0.9530555
-0.22672039 -0.12783502 0.95700002
-0.14264373 0.16954608 0.95620012
-0.13464251 0.16848218 0.9552002
-0.12673524 0.16631153 0.95226669
-0.1526548 0.17639762 0.95543754
-0.14624298 0.17260547 0.95293343
-0.13858601 0.17075776 0.95000005
-0.12951192 0.17075776 0.95000005
-0.48134181 0.18895078 0.95300007
-0.47288585 0.18564934 0.95237511
-0.46503562 0.18724377 0.95454544
-0.45835671 0.18883298 0.95800006
-0.16038203 0.18863414 0.95700014
-0.15588711 0.18488824 0.95334792
-0.4827652 0.19567992 0.95406669
-0.47477791 0.19486326 0.95090008
-0.46469018 0.19507967 0.9524585
-0.16144998 0.19276431 0.95628577
-0.15734085 0.19150862 0.95200008
-0.48277861 0.20438166 0.95166671
-0.47408298 0.20426328 0.95128584
-0.46476391 0.2052319 0.95330244
-0.48277229 0.21517116 0.95183343
-0.47445685 0.21483199 0.9519251
-0.46469194 0.215422 0.95428216
-0.45837569 0.21808508 0.95587504
-0.49009168 0.22970456 0.95500004
-0.48442394 0.22551082 0.95445007
-0.47508976 0.2245217 0.95072734
-0.46439806 0.22352259 0.95144427
-0.45604551 0.22575243 0.95459449
-0.49247357 0.23533538 0.9558183
-0.48493192 0.23429607 0.95182759
-0.47534844 0.23392278 0.95000005
-0.46434107 0.23556158 0.95042884
-0.45482364 0.23464517 0.95396161
-0.44732174 0.23285092 0.95733345
-0.49238449 0.24494573 0.95766681
-0.48452723 0.24474621 0.95220822
-0.47387838 0.24576135 0.95210016
-0.46470869 0.24419799 0.95396543
-0.45604944 0.24225214 0.95433342
0.4339062 0.24994975 0.95000005
0.52325332 0.24916695 0.95650005
-0.50222492 0.25816941 0.95600003
-0.49379411 0.25321922 0.95800012
-0.48454216 0.25465286 0.95550007
-0.4763447 0.25363511 0.95578271
0.26591 0.25916162 0.95261538
0.27298924 0.25923583 0.95557147
0.29355747 0.25955787 0.95500004
0.30102077 0.25955787 0.95500004
0.31609794 0.25911176 0.95430773
0.32430103 0.25782812 0.95547062
0.33345887 0.25698212 0.95530003
0.34475482 0.25700215 0.95336372
0.35571316 0.25674921 0.95409095
0.36470869 0.2571851 0.95577794
0.37604827 0.2570352 0.95180005
0.3853766 0.25613558 0.95408714
0.39433387 0.2544044 0.95227784
0.40494436 0.25458673 0.95420015
0.41320625 0.25481844 0.95363647
0.42599371 0.25432295 0.95314288
0.43218741 0.25257844 0.95200002
0.51782465 0.25305542 0.95371437
0.52232486 0.25117165 0.95285726
-0.48514271 0.26153788 0.95800012
-0.47859871 0.26175967 0.95800012
-0.4220925 0.26950896 0.95500004
-0.38810769 0.26894456 0.95300007
-0.35553908 0.26974776 0.95000005
-0.22461222 0.26936787 0.95450008
-0.21473305 0.26930636 0.95233345
-0.20820723 0.26934618 0.95150006
-0.15141158 0.26877612 0.9563334
-0.14685775 0.26876655 0.95120013
-0.12387982 0.26808512 0.95322227
-0.11376834 0.26944107 0.95360005
-0.10863285 0.26950896 0.95500004
-0.085169509 0.26857302 0.95462501
-0.078367084 0.26974776 0.95000005
-0.061349705 0.26860785 0.95475006
-0.055196997 0.26722541 0.95160002
-0.044752944 0.26653448 0.95090002
-0.035765547 0.26917243 0.95381826
-0.025381673 0.26954037 0.95316666
-0.015216849 0.26943514 0.95240003
-0.0046511944 0.26913896 0.95415395
0.0047843838 0.26893353 0.95523083
0.014789164 0.26715606 0.9550001
0.025985036 0.26819509 0.95409095
0.035272975 0.26670119 0.9550001
0.044639431 0.26545039 0.95483345
0.054881789 0.26417106 0.95335287
0.064491585 0.26657173 0.9550001
0.074926145 0.26405871 0.95460892
0.084531888 0.26464525 0.95441669
0.094478309 0.26458138 0.95443755
0.10406359 0.26517743 0.95533341
0.11516122 0.2628988 0.95290905
0.1242229 0.26397812 0.95375001
0.13384686 0.26397771 0.95300007
0.14639136 0.26376322 0.954889
0.15513723 0.26381701 0.9554168
0.16559042 0.26405087 0.95446676
0.17550428 0.26417723 0.9537307
0.1848236 0.26271728 0.95544457
0.19586389 0.26315081 0.95375001
0.20416963 0.26390186 0.95545471
0.21458507 0.2623474 0.95490009
0.22549945 0.26277944 0.95546675
0.23388761 0.26224253 0.95545471
0.24554269 0.26162931 0.95469999
0.25524333 0.26245803 0.95350003
0.26086318 0.26086318 0.95675004
0.2761448 0.26074106 0.9550001
0.28317466 0.26061416 0.95714295
0.29447961 0.26037323 0.95800006
0.30563721 0.26043245 0.95700008
0.31195483 0.26047194 0.9563334
0.32107842 0.26066932 0.95300007
-0.51462275 0.2777285 0.95333332
-0.5048331 0.27736717 0.95387506
-0.49521413 0.276894 0.95486969
-0.48512295 0.27477598 0.95472747
-0.47495541 0.27550057 0.95533341
-0.46527016 0.27452901 0.95300007
-0.45348188 0.27556473 0.95300007
-0.44429716 0.27323642 0.95322227
-0.43460464 0.27276888 0.95480007
-0.42452115 0.27199513 0.95326674
-0.41459206 0.27251631 0.95353341
-0.40526557 0.27340063 0.95508337
-0.39394665 0.27271497 0.95333332
-0.3854053 0.27210423 0.95282352
-0.37588239 0.27405339 0.95350003
-0.36413476 0.27241766 0.95400006
-0.3552734 0.27211797 0.95253336
-0.34563103 0.27251893 0.95200008
-0.33613706 0.27156997 0.95350003
-0.32504919 0.27338791 0.95350009
-0.31677669 0.27252424 0.95250005
-0.30419752 0.27139753 0.95457149
-0.29499179 0.27199358 0.95338899
-0.28464705 0.27256238 0.95230776
-0.27542639 0.27322429 0.95349997
-0.26478848 0.27362719 0.95433342
-0.25552729 0.27252614 0.95290917
-0.24499209 0.27163482 0.95457155
-0.23464337 0.27132154 0.95330769
-0.22474702 0.27162749 0.95217651
-0.21597323 0.27104294 0.95133334
-0.2039461 0.27233866 0.95475006
-0.19500338 0.27320015 0.954
-0.18536314 0.27142453 0.95300001
-0.17455477 0.27241006 0.95500004
-0.16468376 0.27154455 0.954
-0.15499985 0.27110511 0.95300001
-0.14871944 0.2709986 0.95150006
-0.11565325 0.27085808 0.95445472
-0.081626289 0.27071041 0.95340008
-0.074156858 0.27190655 0.95687509
-0.065322593 0.27208447 0.95663643
-0.058754042 0.2705996 0.95300007
-0.030698624 0.27047759 0.95550007
0.034106396 0.27035558 0.95800006
-0.52187657 0.28043389 0.95550007
-0.061609119 -0.39186168 0.96140003
-0.055450365 -0.39322251 0.9676249
-0.04880207 -0.39462364 0.96900004
-0.072042435 -0.38246465 0.96100008
-0.064564057 -0.38476005 0.96285719
-0.057392929 -0.38651642 0.96883327
-0.074248135 -0.37510678 0.9614377
-0.065590896 -0.37535706 0.96580493
-0.059740465 -0.37611255 0.96900004
-0.083029598 -0.36174202 0.96100003
-0.074804448 -0.36528805 0.96226478
-0.065652125 -0.36536005 0.96835136
-0.08428131 -0.35409278 0.96100026
-0.074951708 -0.35514799 0.96355885
-0.06628909 -0.35562053 0.96879995
-0.082389846 -0.34619313 0.96100026
-0.075306252 -0.34531236 0.96366674
-0.066169605 -0.3450301 0.96728563
-0.081499748 -0.33740339 0.96100008
-0.074964523 -0.33490929 0.96265715
-0.066668458 -0.33523864 0.9680624
-0.080943428 -0.32377374 0.96100003
-0.074954808 -0.32521114 0.96387506
-0.066471793 -0.32550746 0.96899998
-0.059740465 -0.32899326 0.96900004
-0.081277221 -0.3169311 0.96100008
-0.07428062 -0.31473222 0.96196449
-0.067802072 -0.3143636 0.96799988
-0.07435137 -0.30523148 0.9612965
-0.065758094 -0.30483341 0.96812886
-0.059740465 -0.30038518 0.96900004
-0.073281497 -0.29532585 0.96100032
-0.065363996 -0.29492906 0.96588212
-0.058975548 -0.29411277 0.96899998
-0.07176429 -0.28538823 0.96100014
-0.065298386 -0.28473592 0.96344119
-0.056989461 -0.28399241 0.96857136
-0.07092981 -0.27787799 0.96100008
-0.065133885 -0.27474111 0.96170592
-0.055557456 -0.27454367 0.96776456
-0.049643487 -0.27345988 0.96900004
-0.065015562 -0.26503944 0.96202797
-0.055675402 -0.26510492 0.96754533
-0.049643487 -0.26756996 0.96900004
-0.064347312 -0.25489637 0.96244818
-0.055448659 -0.25541747 0.96758336
-0.048878562 -0.25586668 0.96899998
-0.064283445 -0.24545139 0.96146178
-0.05542941 -0.24524885 0.96724975
-0.049082547 -0.24597365 0.96899998
-0.062656321 -0.23559137 0.96211129
-0.05540162 -0.23504983 0.96674985
-0.047783513 -0.23555197 0.96899998
-0.064230122 -0.22501394 0.96236688
-0.055678047 -0.22554001 0.96811754
-0.049082544 -0.22774301 0.96900004
-0.071645074 -0.21326628 0.96100008
-0.065111734 -0.21517618 0.96240544
-0.05652209 -0.21498221 0.9684642
-0.07286226 -0.20470823 0.96100026
-0.065354891 -0.20550814 0.96537834
-0.058316536 -0.20653501 0.96899998
-0.080943428 -0.1927622 0.96100003
-0.075029641 -0.1952154 0.96154064
-0.065785162 -0.19533281 0.96678942
-0.092292204 -0.18174721 0.96100008
-0.083917953 -0.18403293 0.96144021
-0.07594844 -0.18570839 0.96533328
-0.067389704 -0.18778853 0.96899998
-0.10430853 -0.17237733 0.9610002
-0.094452493 -0.1742923 0.96397442
-0.085662022 -0.17654809 0.96629018
-0.078972809 -0.17753857 0.96900004
-0.12377948 -0.16133055 0.96100008
-0.11432029 -0.16347143 0.96419346
-0.10538384 -0.16564743 0.96538454
-0.096838281 -0.16807418 0.96699995
-0.15187323 -0.15103877 0.96100003
-0.14344822 -0.15180023 0.96176946
-0.13460426 -0.15380134 0.96251339
-0.12542497 -0.15571074 0.96468425
-0.1161718 -0.15871042 0.96810001
-0.10854254 -0.15902744 0.96900004
-0.18266685 -0.14184748 0.9615556
-0.17496856 -0.14218988 0.96252185
-0.1647501 -0.1427485 0.96382153
-0.15536919 -0.14556742 0.96466643
-0.14553662 -0.14805382 0.96604997
-0.13546781 -0.14893046 0.96900004
-0.22113411 -0.13101153 0.96100003
-0.21432976 -0.13202085 0.96264714
-0.20492795 -0.13325694 0.96404767
-0.19487891 -0.13408889 0.96552777
-0.18593417 -0.13602431 0.9661715
-0.17591645 -0.13828097 0.96750003
-0.16828302 -0.13883348 0.96900004
-0.22195971 -0.12781261 0.96460009
-0.2156508 -0.12866855 0.9632501
-0.20821506 -0.12961178 0.96300006
-0.19604969 -0.1287365 0.96900004
-0.18847696 -0.1287365 0.96900004
-0.15261245 0.16867338 0.96642864
-0.1453554 0.16728441 0.9644286
-0.13603444 0.1662901 0.96384615
-0.12961178 0.1647324 0.96300006
-0.47245583 0.17978407 0.96300006
-0.46374178 0.17746654 0.96322739
-0.45813677 0.17835568 0.9653334
-0.16193266 0.17621328 0.96750003
-0.15665722 0.17401718 0.9632858
-0.47147462 0.18358305 0.96100003
-0.46471998 0.18279044 0.96122247
-0.45524669 0.18581985 0.96450007
-0.44847423 0.18763554 0.96900004
-0.16337131 0.18465355 0.96482354
-0.15938346 0.18107964 0.96100003
-0.46212861 0.1950987 0.96100008
-0.45481002 0.19514205 0.96236938
-0.44712839 0.19644101 0.96626079
-0.16616616 0.19157359 0.96483338
-0.15938346 0.19693454 0.96100003
-0.4619379 0.20539843 0.96100008
-0.45507553 0.20541137 0.96161908
-0.44509697 0.20544492 0.96606666
-0.43853742 0.20750779 0.96750003
-0.49252477 0.21824951 0.96300006
-0.48983294 0.21946518 0.96100003
-0.46212861 0.21245566 0.96100008
-0.45457938 0.21548302 0.96262777
-0.44469857 0.21461867 0.96490884
-0.43869418 0.21221547 0.96600008
-0.50198823 0.22836004 0.96900004
-0.49475357 0.22583111 0.96444446
-0.48983294 0.22363752 0.96100003
-0.45357254 0.22297873 0.96176487
-0.44593272 0.22554117 0.9626109
-0.50404644 0.23474225 0.9659999
-0.49842763 0.23542222 0.96236378
-0.45101255 0.23700486 0.96275002
-0.44796154 0.23425011 0.96140003
-0.51295388 0.24743712 0.96654546
-0.50430137 0.24572662 0.96388233
-0.49730361 0.24536505 0.9611252
-0.4629893 0.2486596 0.96420002
0.51922339 0.24744895 0.96600002
0.52518702 0.24897735 0.96728575
0.53261572 0.24990027 0.96900004
-0.51181841 0.25199947 0.96416676
-0.50538987 0.25440413 0.96269691
-0.4969233 0.2557447 0.96144468
-0.47230908 0.25284392 0.96100003
-0.4666048 0.25131631 0.96475005
0.12537085 0.25999725 0.96900004
0.20951234 0.25915581 0.96900004
0.212878 0.25999725 0.96900004
0.25410736 0.25999725 0.96900004
0.27544925 0.25903636 0.9648
0.28338233 0.2594997 0.9684
0.29464751 0.25991768 0.96766663
0.30569041 0.25922251 0.96716678
0.31465316 0.25872841 0.96288896
0.32862878 0.25746539 0.96425003
0.33636281 0.25835088 0.96600008
0.34552374 0.25809091 0.96440011
0.35536623 0.25620681 0.96400023
0.36562356 0.25592214 0.96542871
0.37524912 0.25630498 0.96462506
0.3845776 0.25536996 0.96543765
0.39325079 0.25396529 0.96400005
0.40724355 0.25499564 0.96600008
0.41515663 0.25438395 0.96544445
0.42568585 0.25540948 0.96554554
0.43296286 0.25399262 0.96537507
0.5198738 0.25284392 0.96100003
0.52370852 0.25154802 0.96500009
-0.50527281 0.26447842 0.96355009
-0.49583182 0.26489392 0.96166664
-0.48630428 0.26664439 0.96204787
-0.24689642 0.26916277 0.9616667
-0.17106602 0.26786435 0.96100003
-0.15350224 0.26925802 0.96600002
-0.12347893 0.26719743 0.96550006
-0.11543768 0.26780099 0.96177799
-0.10931536 0.26869881 0.96100003
-0.09114635 0.2684218 0.96300006
-0.084485143 0.2686733 0.96491671
-0.076335616 0.2688373 0.96600002
-0.066516072 0.26939565 0.96350002
-0.055361465 0.26925802 0.96600002
-0.033640102 0.26869619 0.96450019
-0.024593199 0.26794341 0.96340001
-0.01549797 0.26831841 0.96475011
-0.0045079524 0.26789275 0.96525007
0.0051416503 0.26650405 0.96385723
0.01462658 0.26645863 0.96628577
0.025304452 0.26671258 0.96500009
0.034412745 0.26501116 0.9643001
0.04469192 0.26405647 0.96425003
0.053285029 0.26378739 0.96528578
0.065899506 0.2652187 0.96393341
0.073282711 0.26331112 0.96266669
0.086049177 0.26338184 0.96333355
0.094905742 0.26296046 0.96357167
0.10518908 0.2637853 0.96505266
0.11474863 0.26369798 0.96637499
0.12573472 0.2633976 0.96605557
0.13325582 0.26398933 0.96759993
0.14444101 0.26399907 0.96600008
0.15507045 0.26320225 0.96533346
0.16562749 0.26263788 0.96518743
0.17412697 0.26216263 0.96408355
0.18606038 0.26092735 0.96277791
0.19505394 0.26233688 0.96562511
0.20523086 0.26301497 0.96618754
0.21527231 0.26200658 0.96566671
0.22500116 0.26146096 0.96438479
0.23405284 0.26147613 0.96437502
0.24582642 0.26183724 0.96563637
0.25527331 0.26119122 0.96338475
0.2642293 0.26086995 0.96600008
0.28618041 0.26051798 0.96366668
0.29453954 0.26038384 0.96420002
0.30455172 0.26024792 0.96266669
-0.52506298 0.27818778 0.96439999
-0.51530343 0.27743056 0.9657501
-0.50534314 0.27369547 0.9648
-0.4953022 0.2729724 0.96170604
-0.483944 0.27302542 0.96425009
-0.47577882 0.27500415 0.96636367
-0.46526238 0.27620098 0.9644118
-0.45617411 0.27612644 0.9647693
-0.44423494 0.27352282 0.96545464
-0.43512255 0.27282897 0.96439999
-0.42597505 0.27172956 0.96542859
-0.41424677 0.27193567 0.96480006
-0.40537995 0.27300888 0.96571428
-0.39661965 0.27307612 0.96566671
-0.38369119 0.27290624 0.96430784
-0.37583333 0.27375078 0.96442103
-0.36560079 0.27117106 0.96237504
-0.35462788 0.27355954 0.96460003
-0.33323878 0.27379096 0.96425009
-0.32510126 0.27334118 0.9642728
-0.31538945 0.27344951 0.96600002
-0.30412206 0.27191728 0.96749997
-0.2941381 0.27157852 0.96233338
-0.28479782 0.2720654 0.96446669
-0.27616212 0.27281773 0.96277791
-0.26471025 0.27179852 0.96382368
-0.25498813 0.27194244 0.96437502
-0.24384816 0.27126282 0.96240008
-0.23609272 0.27233315 0.96620005
-0.21507783 0.27182934 0.96680003
-0.20448676 0.27320233 0.96512508
-0.19604808 0.2720696 0.96453851
-0.18578225 0.27164942 0.9659375
-0.17586443 0.2719166 0.96473336
-0.16516826 0.27078092 0.96426678
-0.15785024 0.27041078 0.96328574
-0.12124973 0.27009422 0.96300006
-0.074844018 0.27072564 0.96254551
-0.067982689 0.27075902 0.96180004
-0.058057636 0.27009422 0.96900004
-0.014215485 0.27009422 0.96300006
-0.0091982549 0.27009422 0.96300006
-0.051485222 -0.39078128 0.97200006
-0.04571661 -0.39490899 0.97369242
-0.038418669 -0.39836639 0.97700012
-0.054252349 -0.38385671 0.97245848
-0.047921658 -0.38592261 0.97476208
-0.054909423 -0.37476954 0.97291684
-0.047797568 -0.37497222 0.97643763
-0.055310298 -0.36497357 0.97312832
-0.048092272 -0.36693636 0.97657162
-0.06205089 -0.35373446 0.9722501
-0.056686055 -0.35545328 0.97441381
-0.061613467 -0.3448666 0.97200006
-0.055778518 -0.34391904 0.9751175
-0.062336914 -0.33555827 0.97200012
-0.054840315 -0.33414859 0.973975
-0.048356615 -0.33679959 0.97700006
-0.062564962 -0.32295766 0.97222221
-0.055138461 -0.32476583 0.97465795
-0.048356619 -0.32492253 0.97700006
-0.062876925 -0.31616643 0.97231597
-0.054552052 -0.31513542 0.97431445
-0.048577052 -0.31484804 0.97657162
-0.061613463 -0.30891132 0.97200006
-0.055674374 -0.30534771 0.9723531
-0.046993144 -0.30452827 0.97584617
-0.054307446 -0.29545739 0.97216678
-0.04684284 -0.29511583 0.9758215
-0.052783716 -0.2863825 0.97200006
-0.045978997 -0.28490344 0.97421443
-0.039873 -0.28335279 0.97700006
-0.051485222 -0.27937064 0.97200006
-0.044921573 -0.27545124 0.97258085
-0.039090633 -0.27440709 0.97672743
-0.045041349 -0.26522321 0.9732123
-0.039024636 -0.26723394 0.97700012
-0.044199329 -0.25492877 0.97266686
-0.038627893 -0.25420681 0.97672743
-0.044278588 -0.2450255 0.97200006
-0.037352115 -0.24448262 0.97482634
-0.043148261 -0.23440906 0.97222233
-0.03768554 -0.23535948 0.97535002
-0.052835654 -0.22096443 0.97200006
-0.045153819 -0.22441298 0.97318763
-0.03944882 -0.22651258 0.97700012
-0.052118231 -0.21332607 0.97200006
-0.045682121 -0.21490031 0.97436112
-0.054621983 -0.20355423 0.97238469
-0.046124838 -0.20522954 0.97554553
-0.039873 -0.20784861 0.97700006
-0.061613463 -0.19159254 0.97200006
-0.055055495 -0.19484761 0.9740001
-0.046999235 -0.19868632 0.97700006
-0.071952701 -0.18251933 0.97200006
-0.063828059 -0.18416445 0.9732002
-0.057930857 -0.1875166 0.97540009
-0.083557986 -0.17189874 0.972
-0.074268706 -0.17513032 0.97354293
-0.066935763 -0.17802532 0.97577786
-0.10178882 -0.16188304 0.97200006
-0.094393782 -0.16438745 0.97371447
-0.084917113 -0.16710679 0.97470367
-0.077831149 -0.16871925 0.97640008
-0.12231202 -0.15188637 0.97312504
-0.11491328 -0.15375148 0.97372741
-0.10538223 -0.15632036 0.97425014
-0.098591149 -0.1590451 0.97600007
-0.1535524 -0.14192137 0.97222221
-0.14501232 -0.14339852 0.97300023
-0.13569711 -0.14600287 0.97450006
-0.12645373 -0.14877339 0.97500008
-0.119619 -0.14846329 0.97700006
-0.20475927 -0.13149832 0.97200006
-0.18277723 -0.13269871 0.972
-0.1755203 -0.1340102 0.97337061
-0.16576652 -0.13646285 0.97420013
-0.15504143 -0.13979547 0.97571445
-0.14591821 -0.13997968 0.97700006
-0.20343725 -0.1285812 0.97328585
-0.19493312 -0.12777168 0.97287512
-0.1846699 -0.12815621 0.97272736
-0.17701271 -0.12958677 0.97540009
-0.13954985 0.15984802 0.97400004
-0.45924589 0.16915134 0.97400004
-0.16118872 0.16882397 0.97700006
-0.15514061 0.16655931 0.9743126
-0.14464043 0.1631486 0.97411776
-0.13728043 0.16342989 0.97427285
-0.46186239 0.17340836 0.97416675
-0.45590401 0.17661056 0.97540009
-0.44759178 0.17801854 0.97625005
-0.16495474 0.17467952 0.97418761
-0.45340842 0.18172827 0.97266674
-0.44524431 0.18481903 0.97359538
-0.43856326 0.1859308 0.97550005
-0.17136906 0.18748793 0.97700006
-0.16840595 0.18530981 0.97360003
-0.44377685 0.19431852 0.97282779
-0.43785334 0.19478889 0.97533345
-0.17186314 0.19161832 0.97500008
-0.1699971 0.19198677 0.97400004
-0.441681 0.20135659 0.97257149
-0.43626103 0.20380913 0.97421461
-0.44291472 0.21617723 0.97250003
-0.51364505 0.22827394 0.97314292
-0.50562 0.22565679 0.97405022
-0.49881583 0.22197726 0.97200006
-0.5200457 0.23754127 0.97700006
-0.51372606 0.23436402 0.9727729
-0.50810003 0.23041746 0.97200006
-0.52061129 0.24461097 0.97700012
-0.51473862 0.24344803 0.97488248
-0.50894409 0.24307777 0.97200006
-0.46093741 0.24780671 0.97400004
-0.45655972 0.24394915 0.97550005
-0.44793499 0.24008636 0.97700006
0.43843868 0.24884328 0.97475004
0.4411481 0.24772161 0.97700006
0.52786595 0.24848184 0.97500002
0.53262162 0.24860194 0.97580004
-0.51738429 0.25067395 0.97200006
-0.46499696 0.25276688 0.9754287
0.17338012 0.25964731 0.97400004
0.21228492 0.25964731 0.97400004
0.27825394 0.25964731 0.97400004
0.28493744 0.25871083 0.97430009
0.29457617 0.259022 0.97483343
0.30474195 0.25862867 0.97441685
0.31546789 0.25858817 0.9740001
0.32506952 0.25886974 0.97490007
0.33471507 0.25823963 0.97587508
0.34566092 0.25894919 0.97520012
0.3544755 0.25712946 0.97487509
0.36552241 0.25549763 0.97466671
0.37592593 0.25409433 0.97433347
0.38429669 0.25403625 0.97411114
0.39516246 0.25554746 0.97450006
0.40475059 0.25657123 0.97516674
0.41632614 0.25429812 0.97490007
0.42474696 0.25445145 0.97408342
0.43438259 0.25241897 0.97533327
0.44063923 0.25118974 0.97400004
0.52728879 0.2505382 0.97366679
-0.51493579 0.26888093 0.97375005
-0.48287672 0.26904792 0.97333336
-0.42220134 0.2677995 0.97700012
-0.41558629 0.26894563 0.97475004
-0.38371781 0.26936352 0.97550005
-0.35944659 0.26979637 0.97400004
-0.32899934 0.26979637 0.97400004
-0.30795529 0.26893064 0.97700006
-0.29116368 0.26915708 0.97475004
-0.28840303 0.26979637 0.97400004
-0.26249021 0.26924238 0.97200006
-0.25880155 0.26979637 0.97400004
-0.21397644 0.26979637 0.97400004
-0.20721039 0.26979637 0.97400004
-0.1852207 0.26979637 0.97400004
-0.17845467 0.26979637 0.97400004
-0.15420964 0.26923257 0.9740001
-0.091366254 0.26901856 0.97425002
-0.085230187 0.26737973 0.97341675
-0.07694497 0.26888007 0.97375005
-0.053141136 0.2688565 0.97585732
-0.04538735 0.26893064 0.97700006
-0.035072159 0.26820508 0.97560006
-0.025385728 0.26654795 0.97450012
-0.014686754 0.26659012 0.97409105
-0.0057523614 0.26675045 0.9740001
0.0047940682 0.26537514 0.97433347
0.015464544 0.26533034 0.97454548
0.024505816 0.26507315 0.97322232
0.036292862 0.26417828 0.97200006
0.047371276 0.26351985 0.97425008
0.054387517 0.26432335 0.97487503
0.063641407 0.26499981 0.97433335
0.07184127 0.26454067 0.97333336
0.084669009 0.26414526 0.97500002
0.095065311 0.26351643 0.97580004
0.104577 0.26270255 0.97383344
0.11519619 0.26371121 0.97481823
0.12744702 0.26080218 0.97200006
0.13661446 0.26265049 0.97416681
0.14452335 0.26266503 0.9743638
0.15523481 0.26274934 0.97385722
0.16603047 0.26198223 0.97500008
0.17597064 0.26165336 0.97377789
0.18512477 0.26205042 0.97350001
0.19434516 0.26087481 0.97480011
0.20498146 0.26117659 0.97466683
0.21566767 0.26077324 0.97400016
0.22524612 0.26165184 0.97516674
0.2363686 0.26203567 0.97450012
0.24418281 0.26195255 0.97440004
0.25466275 0.26058909 0.97500008
0.2645348 0.26114941 0.97487509
0.27486917 0.26044703 0.97700006
0.28949887 0.26080218 0.97200006
0.294563 0.26080218 0.97200006
0.31728727 0.26044703 0.97700006
0.34471768 0.26044703 0.97700012
-0.53198093 0.27656245 0.97400004
-0.52337217 0.27676687 0.9739334
-0.51549518 0.2744216 0.97311771
-0.48218581 0.27269232 0.97281826
-0.47528258 0.27287975 0.97421062
-0.46513626 0.2742095 0.97433347
-0.45531625 0.27383694 0.9728334
-0.44486281 0.27266952 0.9740001
-0.43761292 0.27272511 0.97480005
-0.42313835 0.27165255 0.97460014
-0.41436598 0.2710278 0.97387511
-0.40476996 0.27210024 0.9731667
-0.39504626 0.27291867 0.97670013
-0.38498315 0.27169251 0.97363651
-0.37689927 0.27249381 0.97414291
-0.36334851 0.27267367 0.97488892
-0.35503355 0.27327365 0.9746089
-0.34547192 0.27404115 0.97466677
-0.33415458 0.27287313 0.97341675
-0.32462454 0.27283075 0.974154
-0.31564128 0.27305526 0.97528577
-0.30552313 0.27139521 0.97507709
-0.29549375 0.27228197 0.97354555
-0.28513327 0.27160963 0.97357154
-0.2745479 0.27406412 0.9754287
-0.26443875 0.27092233 0.9740001
-0.25584194 0.27104193 0.97240013
-0.24178308 0.27345526 0.97700012
-0.23579332 0.27225393 0.97328579
-0.2234455 0.2727564 0.97350013
-0.21436064 0.27154079 0.97420013
-0.20494826 0.27207243 0.97376937
-0.19475543 0.2715303 0.97516674
-0.18347365 0.27116463 0.97371441
-0.17582491 0.27134854 0.97350001
-0.16515234 0.27081072 0.97537506
-0.1573915 0.27077889 0.97450006
-0.072110742 0.27062738 0.97700012
-0.064487837 0.27104083 0.97577786
-0.055421203 0.270688 0.97600001
-0.044478394 0.27135456 0.97700012
-0.039811783 0.27105764 0.97550005
-0.033187702 -0.40080532 0.98000002
-0.024936076 -0.4017832 0.98483336
-0.042264681 -0.39257932 0.98000002
-0.035206299 -0.39419621 0.98074263
-0.026626844 -0.3955659 0.98537511
-0.04317566 -0.38475868 0.98074979
-0.03514855 -0.38481659 0.98376924
-0.028942768 -0.3879267 0.98620003
-0.042627454 -0.37514076 0.98187488
-0.035576105 -0.37473351 0.98592007
-0.050774347 -0.36222816 0.98000002
-0.043603335 -0.36493641 0.98209989
-0.034649972 -0.36476108 0.98503047
-0.05168204 -0.35496655 0.97999984
-0.044311322 -0.35541975 0.98197132
-0.035783261 -0.35551196 0.98634797
-0.0514227 -0.34828857 0.98000008
-0.044219427 -0.34515777 0.98199999
-0.037150487 -0.34531313 0.98733342
-0.044341031 -0.33495039 0.98211759
-0.035479441 -0.33361745 0.98742867
-0.043451041 -0.32462788 0.98124117
-0.034240764 -0.3244808 0.9859708
-0.026595315 -0.32257542 0.98800004
-0.043503918 -0.31502092 0.98099977
-0.034907486 -0.31502873 0.98558635
-0.042089179 -0.30616942 0.98033333
-0.035145357 -0.30494159 0.9833889
-0.027718935 -0.30244899 0.9873333
-0.042122848 -0.294009 0.98000002
-0.035921264 -0.29482731 0.98171419
-0.02669467 -0.29510248 0.9865002
-0.041697368 -0.28847772 0.98000002
-0.034964286 -0.28529319 0.98217219
-0.026032351 -0.28553328 0.98591197
-0.034365639 -0.27547988 0.98054522
-0.025965601 -0.27491823 0.98532265
-0.019732008 -0.27453229 0.98800004
-0.034960084 -0.26494515 0.98048353
-0.025954405 -0.26490197 0.98437154
-0.019045677 -0.26372257 0.98800004
-0.034124792 -0.25567096 0.98027247
-0.025604805 -0.25435731 0.98297226
-0.017977975 -0.25514069 0.98599994
-0.032533117 -0.24540572 0.9799999
-0.025610043 -0.2450082 0.98313332
-0.018636972 -0.24519426 0.986
-0.03308133 -0.2341222 0.97999978
-0.025439236 -0.23539613 0.98352641
-0.018224988 -0.23545861 0.98699999
-0.034962434 -0.2244859 0.98049974
-0.025636982 -0.22507007 0.98430568
-0.019732008 -0.22477332 0.98800004
-0.035759486 -0.21457085 0.98058319
-0.025882758 -0.21514666 0.98534304
-0.019732008 -0.21619417 0.98800004
-0.041697368 -0.20338105 0.98000002
-0.03546305 -0.20471308 0.9816969
-0.027230285 -0.20546727 0.98525012
-0.051058002 -0.19146751 0.98000002
-0.043909315 -0.19457117 0.98168552
-0.035024967 -0.19542228 0.98532373
-0.028961003 -0.19827943 0.98680001
-0.060418636 -0.18125591 0.98000002
-0.05364627 -0.18434507 0.98163617
-0.044824682 -0.18504399 0.98465741
-0.036441781 -0.18764453 0.98749995
-0.071197554 -0.17161161 0.98000002
-0.063966699 -0.1742951 0.9822579
-0.055491686 -0.17583214 0.98539305
-0.048472106 -0.17801702 0.98800004
-0.092329882 -0.16125819 0.98000002
-0.084602594 -0.16222706 0.98019987
-0.074782051 -0.1648331 0.98329407
-0.066169314 -0.16735429 0.98585016
-0.059196021 -0.16900893 0.98800004
-0.11147664 -0.1506211 0.98000002
-0.10372706 -0.1520424 0.98186666
-0.095361568 -0.15519862 0.98367649
-0.085911699 -0.15736155 0.98469579
-0.078521796 -0.15875724 0.98650002
-0.14097682 -0.14097682 0.98000002
-0.13378365 -0.1424066 0.98135275
-0.12468386 -0.14431565 0.98306674
-0.11504831 -0.14621758 0.98353565
-0.10617644 -0.14787707 0.98512495
-0.16305016 -0.13328531 0.98153836
-0.1555309 -0.13501947 0.98416692
-0.14525567 -0.13585214 0.98400027
-0.13524805 -0.13610409 0.98403579
-0.12742223 -0.1382706 0.98633331
-0.2067849 -0.12849598 0.98000002
-0.15356649 -0.12954491 0.98800004
-0.14786935 0.15983441 0.9843334
-0.45040452 0.16900893 0.98800004
-0.44715089 0.16789703 0.98650002
-0.17046556 0.16789442 0.98650002
-0.16465542 0.16613455 0.9838261
-0.15603669 0.16286038 0.98262501
-0.14773893 0.16171043 0.98120004
-0.46095622 0.17225331 0.98366678
-0.45424074 0.17315239 0.98371446
-0.44466531 0.17519692 0.98450017
-0.43592957 0.17669502 0.98576194
-0.42981461 0.1793039 0.98800004
-0.17260754 0.17494036 0.98627275
-0.16853721 0.17322274 0.98150009
-0.44210064 0.18087181 0.98100007
-0.4350394 0.18454279 0.98313069
-0.42909762 0.18572426 0.98766667
-0.17425446 0.1853105 0.98394746
-0.4335959 0.19529784 0.98282057
-0.42769763 0.19667378 0.98707688
-0.1759754 0.19132997 0.98280013
-0.43295833 0.20534438 0.98216659
-0.42594525 0.20286758 0.98576921
-0.52105618 0.22444913 0.98533338
-0.51536942 0.22494793 0.98253322
-0.50854552 0.22232895 0.98100007
-0.5230276 0.24390674 0.98100007
-0.51994067 0.2425255 0.98000002
-0.46129009 0.24757531 0.98316669
-0.45388758 0.24551401 0.98157132
-0.4490636 0.24478817 0.98225003
0.43909883 0.24848229 0.98000002
0.44182539 0.24965279 0.98800004
0.53521031 0.2489022 0.98214298
0.54168499 0.24816316 0.98550004
-0.47294533 0.2580094 0.98225003
-0.46319866 0.25536045 0.98122555
-0.45741245 0.25344786 0.98376924
0.15185067 0.25994775 0.98800004
0.19620658 0.25924063 0.98100007
0.20520353 0.25889185 0.98399997
0.21359542 0.25962543 0.98159999
0.22563122 0.25994775 0.98800009
0.23163661 0.25994775 0.98800004
0.24707904 0.25994775 0.98800004
0.2551243 0.25888264 0.98353332
0.26374426 0.25934401 0.98385721
0.27755892 0.25971991 0.98528582
0.2855933 0.25696778 0.98317653
0.29463208 0.25671005 0.98255551
0.30544212 0.25725541 0.98276919
0.31536111 0.25746405 0.98246658
0.32500198 0.25684264 0.98373687
0.33594885 0.25762796 0.98369235
0.34557083 0.25746846 0.98331827
0.35469756 0.25610608 0.9850527
0.36516711 0.25504175 0.98421437
0.37391651 0.25423855 0.982889
0.38556147 0.25375086 0.98454547
0.39396942 0.2548877 0.98466671
0.40588284 0.25638244 0.98474997
0.41396978 0.25398079 0.98452389
0.4252592 0.25300866 0.98342848
0.43384233 0.25141639 0.98400003
0.53860372 0.2500965 0.98300004
-0.47315064 0.26570159 0.98494434
-0.46518329 0.26523328 0.98461288
-0.38232285 0.26942214 0.98500007
-0.37719336 0.2687507 0.98725009
-0.32081443 0.26975644 0.98000002
-0.31260332 0.26940694 0.9818334
-0.30416951 0.26933098 0.98200011
-0.29547143 0.2695893 0.98250008
-0.22172025 0.2695336 0.98333347
-0.21619168 0.26954752 0.98312509
-0.19329968 0.26942214 0.98500007
-0.18356761 0.26936898 0.98325008
-0.15783045 0.2695893 0.98250008
-0.092045508 0.26675853 0.98150003
-0.085974552 0.26635244 0.98420006
-0.074423306 0.26854405 0.98388875
-0.064725012 0.26794419 0.98335999
-0.054888565 0.26631138 0.98211974
-0.044516295 0.26632491 0.98279154
-0.035838366 0.2664617 0.98411763
-0.026507417 0.26650932 0.98477775
-0.014782798 0.26551855 0.98216653
-0.0054041599 0.26551747 0.98279995
0.005987376 0.26543689 0.98449993
0.015628366 0.26388538 0.98388225
0.025243478 0.2649273 0.98390913
0.03454423 0.26600814 0.98644447
0.043997902 0.2653015 0.98645455
0.055128925 0.26356632 0.98486662
0.064941928 0.26374733 0.98405564
0.07442008 0.26431981 0.98512495
0.084684469 0.26446128 0.98310006
0.094909929 0.26336572 0.98474997
0.1050229 0.26270154 0.98333329
0.11448139 0.26313293 0.98387504
0.12283182 0.26389781 0.98100007
0.1350852 0.26155481 0.98290908
0.14569633 0.26185799 0.98476928
0.15518588 0.2626299 0.98519993
0.16380623 0.26226398 0.98530757
0.17408456 0.26112413 0.98275006
0.18493211 0.26247939 0.98506671
0.19538775 0.26195765 0.98266667
0.20315006 0.26033938 0.98300004
0.21561889 0.26079309 0.98150003
0.22452018 0.26169273 0.98518181
0.23488928 0.26215672 0.98571432
0.24472313 0.26092547 0.98200005
0.25265723 0.26033938 0.98300004
0.26685086 0.26088136 0.98183334
0.27322483 0.26078856 0.98285723
-0.53328884 0.27774149 0.98316669
-0.52579552 0.27440202 0.98139995
-0.48153859 0.27113274 0.98500007
-0.47467795 0.27160683 0.98259997
-0.46379608 0.27211347 0.98305541
-0.45478624 0.27308258 0.98492312
-0.44509417 0.27241397 0.98627275
-0.43824786 0.27145839 0.98000002
-0.41243598 0.27090976 0.98420012
-0.40531927 0.27163401 0.98328567
-0.39531803 0.2716026 0.98258328
-0.38421348 0.27095771 0.98171431
-0.37504098 0.27192628 0.98479187
-0.36700982 0.27174297 0.98457152
-0.35486805 0.27160656 0.98390913
-0.3445859 0.27212462 0.98318738
-0.33540183 0.27200514 0.98486662
-0.32437548 0.2717723 0.98281831
-0.31636363 0.27221376 0.98150009
-0.30329219 0.27086478 0.98280001
-0.29696605 0.27104002 0.98220009
-0.28521693 0.27267632 0.98491663
-0.27578583 0.27355298 0.98330772
-0.26401719 0.27128297 0.98400003
-0.25421175 0.27400181 0.98644447
-0.24501432 0.27258193 0.98406661
-0.23463093 0.27250105 0.9837777
-0.2261792 0.27226484 0.98292309
-0.21253936 0.27058226 0.98300004
-0.20415221 0.27106389 0.98290008
-0.19534868 0.27099404 0.98307693
-0.18519847 0.27052373 0.98512495
-0.17461181 0.27150691 0.98354548
-0.16544573 0.27109525 0.98383349
-0.1596179 0.27058223 0.98300004
-0.065524437 0.27145839 0.98000002
-0.0433993 0.27145839 0.98000002
-0.015498448 -0.40302667 0.99174988
-0.0079074167 -0.4041931 0.99614292
-0.022851544 -0.39344808 0.99100006
-0.01516848 -0.39526588 0.99338216
-0.0087809591 -0.39687464 0.9970001
-0.032412861 -0.38120967 0.99100006
-0.024628734 -0.38476282 0.99129003
-0.016608033 -0.38569066 0.99409086
-0.030548401 -0.37604654 0.99100012
-0.02525359 -0.37529951 0.993586
-0.019207187 -0.37774831 0.99640006
-0.030548403 -0.36184797 0.99100006
-0.025395626 -0.3652437 0.99495977
-0.031606346 -0.35357901 0.99142873
-0.025066422 -0.35529625 0.99555165
-0.032060012 -0.34491739 0.99118763
-0.025057675 -0.3449724 0.9951998
-0.018180296 -0.3419627 0.99700004
-0.031971566 -0.33752179 0.99100012
-0.025006715 -0.33478239 0.99315983
-0.019262457 -0.33482045 0.9970001
-0.024908368 -0.32511607 0.99177766
-0.019021492 -0.32510862 0.99575007
-0.030118143 -0.31494972 0.99100006
-0.025078213 -0.31486744 0.99120665
-0.017227322 -0.31438059 0.99478954
-0.023922412 -0.3055701 0.991
-0.015913591 -0.30492908 0.99428111
-0.0095230117 -0.30127347 0.99700004
-0.021799799 -0.29573148 0.99100012
-0.015491426 -0.29519212 0.99470568
-0.021512961 -0.28311056 0.99100006
-0.015735473 -0.28501892 0.99334359
-0.0095230117 -0.28309318 0.99700004
-0.021512961 -0.2762264 0.99100006
-0.014718445 -0.27486768 0.99351591
-0.0083109923 -0.2737433 0.99700004
-0.014718647 -0.26533642 0.99237502
-0.0059889266 -0.26486599 0.9962222
-0.012917181 -0.25492719 0.99183339
-0.006580831 -0.25516719 0.99561536
-0.013663414 -0.24473569 0.99165213
-0.0070652333 -0.24493697 0.99481821
-0.013577067 -0.23453906 0.99100006
-0.0065702111 -0.2345567 0.99423069
-0.01462994 -0.22547843 0.99109977
-0.0051793908 -0.22454411 0.99458337
-0.021512959 -0.21168751 0.99100006
-0.014849657 -0.2149528 0.9919998
-0.0069193142 -0.21659262 0.99625003
-0.022979239 -0.20350708 0.99146169
-0.016237831 -0.20562473 0.99458051
-0.030548403 -0.19146533 0.99100006
-0.024751315 -0.19458543 0.99282134
-0.017478988 -0.19660349 0.9965499
-0.040444363 -0.18242988 0.99100006
-0.033952836 -0.18376245 0.99322206
-0.026373785 -0.18656825 0.99587494
-0.053256527 -0.17219929 0.99100006
-0.044918094 -0.17515382 0.99309081
-0.036129504 -0.17848906 0.99662513
-0.072283544 -0.16091694 0.99100006
-0.064859204 -0.16303307 0.99342865
-0.055371474 -0.166844 0.99399984
-0.048719868 -0.16807055 0.99600005
-0.093058921 -0.15108246 0.99100018
-0.083892167 -0.1530394 0.99295008
-0.075001791 -0.1561214 0.99386358
-0.068576485 -0.15847677 0.99550003
-0.12237726 -0.14047679 0.99250007
-0.11513871 -0.14188923 0.99378598
-0.1046889 -0.14389488 0.99375987
-0.095330626 -0.14731281 0.99445003
-0.086580172 -0.14865942 0.99600011
-0.12346929 -0.13815151 0.99437505
-0.10380871 -0.1376508 0.99700004
-0.099558763 -0.13332216 0.99700004
-0.15104659 0.15967782 0.99400002
-0.44565505 0.16784894 0.99512511
-0.17313051 0.16582195 0.99423081
-0.16523264 0.16193943 0.99345464
-0.1558394 0.16063455 0.99400014
-0.44346267 0.1708477 0.99442869
-0.43405724 0.17458633 0.99412507
-0.4259207 0.17735064 0.99535
-0.41987824 0.17920578 0.99700004
-0.18093723 0.17747432 0.9970001
-0.17719883 0.17417401 0.9936251
-0.42563051 0.18510272 0.99483329
-0.4194454 0.18829592 0.99700004
-0.18226098 0.18634593 0.99563634
-0.17835842 0.1840177 0.99228579
-0.42519578 0.19501264 0.99456757
-0.41829342 0.1948642 0.99680001
-0.18214306 0.19074824 0.99100006
-0.42250064 0.20351505 0.99340016
-0.4157455 0.20419936 0.99575007
-0.52233464 0.22287425 0.99100006
0.5368588 0.24900979 0.99400008
0.54460514 0.24911645 0.99500006
0.14569263 0.25910914 0.99400008
0.15429407 0.25820684 0.99175012
0.16226719 0.25980014 0.99400002
0.20701878 0.25870201 0.99200004
0.21837021 0.25980014 0.99400002
0.22469749 0.25941539 0.99400002
0.23451252 0.25934687 0.99475002
0.24527311 0.25887623 0.99266666
0.25278684 0.25820702 0.99357152
0.26617143 0.25891811 0.99460012
0.27478355 0.25922844 0.99512506
0.28415552 0.25770959 0.9933334
0.29429728 0.25557396 0.99100006
0.30516604 0.25719851 0.99433351
0.31533343 0.25681606 0.99433351
0.32338279 0.25591817 0.99100012
0.33452651 0.25643447 0.99100012
0.3449257 0.25576872 0.99271441
0.3549076 0.25507465 0.99325007
0.3654027 0.25482863 0.99481827
0.37573236 0.25442761 0.99550003
0.38385639 0.25331464 0.99430007
0.39538237 0.25383389 0.99400014
0.40532634 0.25436985 0.99387491
0.41352865 0.2534309 0.99340004
0.42556855 0.25274852 0.995125
0.43380997 0.25216156 0.9952001
0.44194174 0.25167429 0.99600005
-0.48338825 0.26675922 0.99550009
-0.47844821 0.26503965 0.99100006
-0.46505982 0.26883382 0.99550003
-0.38465172 0.26934224 0.99100006
-0.34023124 0.26924151 0.99700004
-0.33661813 0.26843137 0.99400002
-0.23703179 0.26903898 0.99625003
-0.19427811 0.26905027 0.99550009
-0.1881533 0.26860613 0.99625003
-0.17227994 0.26924151 0.99700004
-0.16246836 0.26924151 0.9970001
-0.15810701 0.2692751 0.99500006
-0.082369529 0.26754713 0.99500006
-0.075739071 0.26735052 0.99400008
-0.065309666 0.26593614 0.99400014
-0.055757768 0.26497889 0.99400008
-0.044885021 0.26497889 0.99400008
-0.034281723 0.26474687 0.99372727
-0.026466511 0.26612884 0.99400008
-0.015855189 0.26724178 0.99600005
-0.0077715842 0.26555258 0.99400008
0.0060462053 0.26610947 0.99500006
0.015541865 0.26338506 0.99450004
0.024624102 0.26394507 0.99300003
0.035653234 0.26484329 0.99400008
0.045072529 0.26267412 0.9925884
0.05421266 0.26196638 0.99100018
0.064887367 0.26214579 0.9920001
0.076215141 0.2639488 0.99175
0.084565036 0.26404697 0.99375004
0.095204629 0.26297122 0.99590909
0.10469218 0.26388824 0.99640006
0.11582915 0.26408014 0.99550003
0.12568492 0.26520452 0.99550009
0.13475466 0.26271802 0.99571437
0.14456709 0.26073706 0.99100012
0.15540962 0.26073706 0.99100012
0.16456012 0.26139697 0.99220008
0.17551079 0.26305398 0.99325001
0.1856779 0.26157376 0.99550003
0.19377315 0.26109219 0.99400008
0.21577564 0.26066065 0.99400008
0.22459531 0.26073706 0.99100006
0.23664254 0.26073706 0.99100006
0.24180566 0.26073706 0.99100006
0.26491287 0.26058424 0.99700004
0.27361271 0.26066065 0.99400008
-0.5422141 0.27740577 0.99400008
-0.53653449 0.27723646 0.9934001
-0.48663968 0.27199885 0.99442869
-0.46177015 0.27101898 0.99400008
-0.45465282 0.2717548 0.9935385
-0.44680411 0.27159354 0.99400008
-0.4216097 0.27270442 0.99700004
-0.4146257 0.27186581 0.9952001
-0.40477595 0.27153146 0.99271446
-0.39463577 0.27130669 0.99400014
-0.38667142 0.27101812 0.99400008
-0.37353474 0.2710048 0.99500006
-0.36494005 0.2722584 0.99357152
-0.35527903 0.27315727 0.99550003
-0.34456033 0.27115488 0.9945001
-0.33547634 0.27093813 0.99370015
-0.32712376 0.27188385 0.99400008
-0.31547421 0.271451 0.99400002
-0.30295631 0.27015764 0.99400008
-0.29237676 0.27124584 0.99325001
-0.28459948 0.2718204 0.99420017
-0.27573311 0.27266768 0.99266666
-0.26369873 0.27167612 0.99325007
-0.25539923 0.27195248 0.99300021
-0.2453521 0.27155563 0.99280006
-0.23490188 0.27064338 0.99290931
-0.22824334 0.27102715 0.9934001
-0.21296918 0.27097297 0.99700004
-0.20585492 0.27166611 0.99400008
-0.19592901 0.27050182 0.99400008
-0.18614049 0.27036142 0.99475002
-0.17512593 0.27088267 0.99349999
-0.1651455 0.27080083 0.99290919
-0.15795158 0.27015761 0.99400002
-0.0017418767 -0.41021198 1.003
0.0051222984 -0.41111407 1.0064286
0.01137864 -0.4113816 1.008
-0.0029585853 -0.4044604 1.0030001
0.0039196243 -0.40531486 1.0067039
-0.0047684778 -0.39457759 1.0049412
0.001749981 -0.39549428 1.0076668
-0.012908244 -0.38292849 1.0013847
-0.0052365381 -0.38520825 1.0059377
0.0015755041 -0.38599849 1.008
-0.022287223 -0.37193614 1
-0.015264036 -0.37438038 1.0021819
-0.0051665837 -0.3751328 1.005892
0.00087528001 -0.37199402 1.008
-0.022866113 -0.36441058 1
-0.015671911 -0.36495256 1.0030884
-0.0062372088 -0.36518961 1.006552
-0.015539327 -0.35512522 1.0029093
-0.0071519101 -0.35553613 1.0069093
-0.015681101 -0.34514341 1.0018183
-0.007128743 -0.34513837 1.0065265
-0.014255661 -0.33483887 1.0021925
-0.006745561 -0.33514586 1.0064801
-0.013918214 -0.3249549 1.0019501
-0.0059958114 -0.32526544 1.006483
-0.012718479 -0.31641164 1.0008183
-0.0052591013 -0.31467915 1.0052124
0.0019691631 -0.31261671 1.00775
-0.011288334 -0.30912668 1
-0.0049514771 -0.30489174 1.0033106
0.0027283039 -0.30467665 1.0074117
-0.011288334 -0.29349667 1
-0.0052911076 -0.29484555 1.0030812
0.0023919691 -0.29527876 1.0074668
0.01137864 -0.29584467 1.008
-0.0050725043 -0.2851232 1.0035175
0.003745226 -0.28484568 1.0073599
0.01137864 -0.28971767 1.008
-0.0034771224 -0.27555537 1.0016365
0.0050949301 -0.27511269 1.0062414
0.012689682 -0.27420944 1.0078335
-0.00086876762 -0.26410317 1.0005001
0.0052344594 -0.26502934 1.0040003
0.013717412 -0.26485822 1.0060002
-0.0016416326 -0.25465274 1.0016667
0.0054790513 -0.25523198 1.0050608
0.013002252 -0.25646788 1.0071335
-0.0017366669 -0.24486999 1
0.0052102236 -0.24514724 1.0040859
0.013218539 -0.245066 1.0068824
-0.0015195834 -0.23596959 1
0.005028212 -0.23506257 1.003706
0.014783634 -0.23487005 1.0055186
0.0052299718 -0.22466286 1.0028335
0.013590866 -0.22525258 1.0049049
-0.0036840492 -0.21384963 1.0017145
0.0048973486 -0.21510379 1.0053942
0.012793867 -0.21683373 1.0065457
-0.011288334 -0.20405833 1
-0.0051540043 -0.20521906 1.0036217
0.0031389738 -0.206036 1.0071765
-0.014030159 -0.19349895 1.001
-0.0061036046 -0.19566664 1.0048968
-0.030391667 -0.18148167 1
-0.022862436 -0.18352322 1.0012001
-0.015642006 -0.18569605 1.0050359
-0.0078711528 -0.18981014 1.0073334
-0.041506339 -0.172451 1
-0.03417271 -0.17441006 1.0023001
-0.025355119 -0.17631882 1.004536
-0.017925005 -0.17794235 1.007
-0.06171158 -0.16080232 1.001
-0.05480865 -0.16244118 1.0019287
-0.045392774 -0.16504113 1.0047716
-0.036073826 -0.16753428 1.0059503
-0.080755003 -0.15022168 1
-0.073913574 -0.15240189 1.0029377
-0.064195625 -0.15489691 1.0044245
-0.055663425 -0.15702735 1.0063503
-0.049890961 -0.15842569 1.008
-0.101595 -0.14153834 1
-0.095206767 -0.14262538 1.0024287
-0.085614823 -0.14468284 1.004643
-0.077026471 -0.14851925 1.0067778
-0.12188518 -0.1364909 1.0012001
-0.11458057 -0.13682255 1.0018216
-0.10615136 -0.1353112 1.0013847
-0.09513855 -0.1382491 1.0036365
-0.08781977 -0.13858601 1.0080001
-0.16323593 0.15842645 1.0066249
-0.15640898 0.15831794 1.0029
