# .PCD v0.7 - Point Cloud Data file format
VERSION 0.7
FIELDS x y z
SIZE 4 4 4
TYPE F F F
COUNT 1 1 1
WIDTH 1549
HEIGHT 1
VIEWPOINT 0 0 0 1 0 0 0
POINTS 1549
DATA ascii
0.13521622 0.23596808 1.4972501
0.14511588 0.23349717 1.4966668
0.15558898 0.23338094 1.4931668
0.16448024 0.23411396 1.4962001
0.17462483 0.23400815 1.4960001
0.18378064 0.23385099 1.4950001
0.19502138 0.2353203 1.4972501
0.20403403 0.23609233 1.4966668
0.2134676 0.23559535 1.4990001
0.22742693 0.23436086 1.4966668
0.23522457 0.23522863 1.4966668
0.2444226 0.2353203 1.4972501
0.25482655 0.23336783 1.4972501
0.26404816 0.2315803 1.4955001
0.27530468 0.23244807 1.4955001
0.28243065 0.23190406 1.4920001
0.29026386 0.23038881 1.4990001
0.37529933 0.23114643 1.4955001
0.38398135 0.23038881 1.4990001
0.39829928 0.23038881 1.4990001
0.40480745 0.23038881 1.4990001
0.41261727 0.23038881 1.4990001
0.43344337 0.23038881 1.4990001
0.47509557 0.23038881 1.4990001
-0.20340188 0.24745069 1.4920001
-0.13538216 0.24177963 1.4943335
-0.12207074 0.24543399 1.4955001
-0.079399534 0.24080187 1.4990001
-0.065798134 0.24109522 1.4976001
-0.054824311 0.24138851 1.4962001
-0.045344368 0.24226849 1.4920001
-0.80604124 0.25725767 1.4948001
-0.79659861 0.25902471 1.4990001
-0.7770741 0.25642145 1.4990001
-0.76606768 0.25518236 1.4948001
-0.75754964 0.25642145 1.4990001
-0.74258089 0.25381815 1.4990001
-0.73673594 0.25422478 1.4937501
-0.72555012 0.25297505 1.4940001
-0.71893466 0.25555369 1.4990001
-0.7086677 0.25522402 1.4920001
-0.7138499 0.26170176 1.4920001
0.80816483 0.19746421 1.506
0.58585411 0.2079259 1.506
0.59500808 0.2079259 1.506
0.60023892 0.2079259 1.506
0.6253469 0.20740283 1.506
0.63293165 0.20531048 1.506
0.78331834 0.2079259 1.506
0.7950877 0.20073348 1.506
0.80293393 0.20007963 1.506
0.81470335 0.20095144 1.506
0.82778043 0.20269506 1.506
0.48777586 0.21577215 1.506
0.4934426 0.21402854 1.506
0.50521201 0.21054134 1.506
0.51916087 0.21054132 1.506
0.52308404 0.21184903 1.506
0.53550726 0.21315673 1.506
0.54269969 0.21054132 1.506
0.57146931 0.21054132 1.506
0.61854684 0.21054132 1.506
0.78070289 0.21054132 1.506
0.34262002 0.22884926 1.506
0.35569713 0.22623384 1.506
0.37531278 0.22884926 1.506
0.38403088 0.22884926 1.506
0.39362073 0.22754155 1.506
0.40539008 0.22884926 1.506
0.41611335 0.2278031 1.506
0.42239034 0.22231071 1.506
0.43415976 0.22754157 1.506
0.44462141 0.22884926 1.506
0.45769852 0.22623384 1.506
0.46554476 0.22884926 1.506
0.47687829 0.22623384 1.506
0.4834168 0.22449023 1.506
-0.13861726 0.23800322 1.506
-0.094155125 0.23669551 1.506
-0.083693445 0.23669551 1.506
-0.075847179 0.2353878 1.506
-0.066693217 0.23826478 1.506
-0.02223107 0.23669551 1.506
-0.015692521 0.23669551 1.506
-0.0058846958 0.2353878 1.506
0.10723222 0.23669551 1.506
0.11638619 0.23408009 1.506
0.12684788 0.23669551 1.506
0.13207871 0.23669551 1.506
0.14515582 0.23408009 1.506
0.16607919 0.23320828 1.506
0.17523316 0.23211853 1.506
0.18569483 0.23211853 1.506
0.19484881 0.23408011 1.506
0.20400277 0.23473395 1.506
0.21490034 0.23582372 1.506
0.22361843 0.23582372 1.506
0.2353878 0.23408009 1.506
0.24584949 0.23408009 1.506
0.25500345 0.23233649 1.506
0.26415741 0.23146468 1.506
0.27592683 0.23146468 1.506
0.28508079 0.23146468 1.506
0.29423475 0.23146468 1.506
-0.13338642 0.24323407 1.506
-0.12554017 0.24584949 1.506
-0.1176939 0.24192636 1.506
-0.056231532 0.24192636 1.506
-0.81208795 0.25761887 1.506
-0.77677977 0.25631118 1.506
-0.76501036 0.25761887 1.506
-0.75324094 0.25761887 1.506
-0.74931782 0.25500345 1.506
-0.73624074 0.25238803 1.506
-0.72490728 0.25500345 1.506
0.80613291 0.19825092 1.5120001
0.4867104 0.20972075 1.5190001
0.4959434 0.20972075 1.5190001
0.50449562 0.20907645 1.5143335
0.54474634 0.20972075 1.5190001
0.5500679 0.20923752 1.5155001
0.58818817 0.20875429 1.5120001
0.6139406 0.20947914 1.5172501
0.62320918 0.20756295 1.5148001
0.63429534 0.20528659 1.5155001
0.78825349 0.2079246 1.5155001
0.7923736 0.20369308 1.5166668
0.82546353 0.20110928 1.5137501
0.83107841 0.20087677 1.5120001
0.48530957 0.21558391 1.5157337
0.49497089 0.21138012 1.5120001
0.50284839 0.21138012 1.5120001
0.51860344 0.21138012 1.5120001
0.52628034 0.21235874 1.5190001
0.53581238 0.21269062 1.5176001
0.54398656 0.2122554 1.5120001
0.55661732 0.21367773 1.5190001
0.56374842 0.21268819 1.5176001
0.57244527 0.21235874 1.5190001
0.62124825 0.21235874 1.5190001
0.16936669 0.229761 1.5120001
0.17987004 0.229761 1.5120001
0.24269569 0.22818671 1.5190001
0.25601941 0.229761 1.5120001
0.26561913 0.22923625 1.5143335
0.27702612 0.229761 1.5120001
0.31903958 0.229761 1.5120001
0.32429126 0.229761 1.5120001
0.34495553 0.22836098 1.5143335
0.3544884 0.22516578 1.5120001
0.36630473 0.22713517 1.5120001
0.37607461 0.22660635 1.5143335
0.38557303 0.22634195 1.5155001
0.39522907 0.2261833 1.5162001
0.40425479 0.22730842 1.5131668
0.41452411 0.22601372 1.5155001
0.42472965 0.22385287 1.5120001
0.43639243 0.22608209 1.5137501
0.44714046 0.22818671 1.5190001
0.45532495 0.22897387 1.5155001
0.46530709 0.22673854 1.5137501
0.47531304 0.22340563 1.5149168
0.48370922 0.2214808 1.5137501
-0.13432713 0.23705503 1.5166668
-0.12455115 0.23723128 1.5190002
-0.11653868 0.2370234 1.5148001
-0.07483644 0.23238684 1.5120001
-0.065968156 0.23628061 1.5134001
-0.055397931 0.2387387 1.5190001
-0.015768211 0.23431671 1.5131668
-0.0039387601 0.23763853 1.5120001
0.094826058 0.23749265 1.5166668
0.10431635 0.23625064 1.5143335
0.11440032 0.23449603 1.5143335
0.12483803 0.23470269 1.5134001
0.13473082 0.23462823 1.5137501
0.14332914 0.23362075 1.5143335
0.15623748 0.23238684 1.5120001
0.16436827 0.23274547 1.5143335
0.17340271 0.23134542 1.5166668
0.18597877 0.23082471 1.5190001
0.19461203 0.23186612 1.5143335
0.20598744 0.23334236 1.5148001
0.214939 0.2342377 1.5155001
0.22457448 0.23359817 1.5150001
0.2359442 0.23199631 1.5137501
0.24449925 0.23171736 1.5150001
0.25409988 0.23144956 1.5162001
0.27437192 0.23134542 1.5166668
0.28533927 0.23186612 1.5143335
0.29803285 0.23238684 1.5120001
0.3006587 0.23238684 1.5120001
0.33898258 0.23082471 1.5190001
-0.76897603 0.24929069 1.5190001
-0.75578612 0.24929069 1.5190001
-0.74705148 0.24814188 1.5120001
-0.71621609 0.24401471 1.5190001
-0.13244323 0.24198453 1.5162001
-0.12585798 0.24284008 1.5137501
-0.1181628 0.24026437 1.5120001
-0.055142641 0.24026437 1.5120001
0.097156085 0.24026437 1.5120001
-0.82188797 0.25864524 1.5120001
-0.81495011 0.25778338 1.5162001
-0.80392951 0.25819394 1.5190001
-0.79456466 0.25667709 1.5190001
-0.7848537 0.25621495 1.5131668
-0.77446395 0.2546466 1.5150001
-0.76557308 0.25556612 1.5160002
-0.75527668 0.25333521 1.5148001
-0.74604177 0.25218776 1.5146251
-0.73600107 0.25324768 1.5190001
-0.72451794 0.25485724 1.5176001
-0.7147429 0.255896 1.5184617
-0.7083022 0.25720471 1.5190001
-0.79431665 0.26127109 1.5120001
0.80909133 0.19995546 1.5250001
0.83557546 0.19995546 1.5250001
0.48863289 0.20790072 1.5250001
0.49657816 0.20790073 1.5250001
0.62767482 0.2052523 1.5250001
0.63429582 0.20525232 1.5250001
0.6435653 0.2052523 1.5250001
0.78525561 0.20790073 1.5250001
0.79055238 0.20657651 1.5250001
0.47803923 0.21717018 1.5250001
0.48227668 0.21425691 1.5250001
0.4912813 0.21054913 1.5250001
0.50982022 0.21054913 1.5250001
0.51644123 0.21054913 1.5250001
0.52438647 0.21054913 1.5250001
0.533656 0.21054913 1.5250001
0.54689807 0.21054913 1.5250001
0.55749172 0.21054913 1.5250001
0.56278855 0.21054915 1.5250001
0.5813275 0.21054913 1.5250001
0.23968172 0.22908805 1.5250001
0.24762696 0.22908805 1.5250001
0.25292379 0.22908805 1.5250001
0.26351747 0.22908805 1.5250001
0.27587676 0.22908805 1.5250001
0.28205639 0.22908805 1.5250001
0.32178265 0.22908805 1.5250001
0.3456184 0.22908805 1.5250001
0.35356364 0.22643963 1.5250001
0.3946141 0.22379121 1.5250001
0.40388355 0.22643964 1.5250001
0.41580144 0.22379121 1.5250001
0.42242247 0.22379121 1.5250001
0.43301615 0.22379121 1.5250001
0.44493401 0.22643963 1.5250001
0.45552766 0.22776385 1.5250001
0.46567997 0.22555682 1.5250001
0.4722127 0.22326155 1.5250001
-0.13109663 0.23703329 1.5250001
-0.047671504 0.23968172 1.5250001
0.088721961 0.23703329 1.5250001
0.094018802 0.23615049 1.5250001
0.10858509 0.23438488 1.5250001
0.11785454 0.23438488 1.5250001
0.1257998 0.23438488 1.5250001
0.13506925 0.23438488 1.5250001
0.1416903 0.23438488 1.5250001
0.15360817 0.23438488 1.5250001
0.16420183 0.23306067 1.5250001
0.17876813 0.23173647 1.5250001
0.18671338 0.23173647 1.5250001
0.19598284 0.23173647 1.5250001
0.20525229 0.23173647 1.5250001
0.22776383 0.23173647 1.5250001
0.23438488 0.23173647 1.5250001
0.24762696 0.23173647 1.5250001
0.28735322 0.23173647 1.5250001
0.29265004 0.23173647 1.5250001
0.31648582 0.23173647 1.5250001
0.33502471 0.23173647 1.5250001
-0.77201349 0.24630275 1.5250001
-0.75612301 0.24696486 1.5250001
-0.72275299 0.24444886 1.5250001
-0.71407944 0.24530961 1.5250001
-0.70845145 0.24630275 1.5250001
-0.82630599 0.25822064 1.5250001
-0.81438816 0.25689644 1.5250001
-0.80485392 0.25398317 1.5250001
-0.79452503 0.25292379 1.5250001
-0.78525561 0.25292379 1.5250001
-0.77598608 0.25159958 1.5250001
-0.76715803 0.25204098 1.5250001
-0.7248717 0.25239411 1.5250001
-0.71418977 0.25115818 1.5250001
-0.70547199 0.25457907 1.5250001
-0.6978578 0.25292379 1.5250001
0.81679606 0.19821271 1.5320001
0.84324634 0.19911839 1.539
0.47841868 0.20980932 1.539
0.486258 0.20908391 1.5376
0.49443111 0.20710342 1.5348001
0.50417864 0.20752473 1.5320001
0.51450056 0.20980932 1.539
0.52786422 0.20980932 1.539
0.53187329 0.20980932 1.539
0.55592787 0.20980932 1.539
0.56533611 0.20870219 1.5348001
0.574637 0.20914114 1.539
0.5813188 0.20980932 1.539
0.61858332 0.20885502 1.5320001
0.62508035 0.20835851 1.5362
0.63210064 0.20446385 1.539
0.64680064 0.20446385 1.539
0.78619945 0.2070813 1.5320001
0.79641861 0.2044315 1.5337501
0.8048234 0.2008733 1.5320001
0.8101446 0.20087329 1.5320001
0.82743835 0.20087329 1.5320001
0.83624291 0.20117924 1.5343335
0.46772775 0.2178275 1.539
0.474922 0.21585506 1.5344999
0.48222893 0.21218073 1.5320001
0.53610551 0.21151559 1.5320001
0.54408729 0.21151559 1.5320001
0.57468385 0.21151559 1.5320001
0.58533615 0.21199882 1.5355
0.20891842 0.22762752 1.539
0.23920934 0.22851843 1.539
0.2766276 0.22851843 1.539
0.28598213 0.22851843 1.539
0.29266393 0.22851843 1.539
0.31939125 0.22851843 1.539
0.32473671 0.22851843 1.539
0.34879127 0.22851843 1.539
0.35280037 0.22851843 1.539
0.36582884 0.22747903 1.5320001
0.37551859 0.22851843 1.539
0.38578314 0.22481845 1.5320001
0.3963027 0.22372147 1.5366668
0.40486762 0.22507527 1.5337501
0.41333407 0.22399572 1.5355
0.42523137 0.22210388 1.539
0.43632481 0.22283462 1.5366668
0.4439975 0.22399573 1.5355
0.45450956 0.22558583 1.53725
0.46556658 0.22337988 1.5370909
0.47199431 0.22132906 1.5355
0.089332834 0.23466231 1.5355
0.096000478 0.23466432 1.5355
0.10377955 0.23450263 1.5362
0.11455679 0.23418324 1.5376
0.12695467 0.23386388 1.539
0.13701953 0.23546074 1.5320001
0.14299107 0.23386388 1.539
0.15333855 0.23466231 1.5355
0.16411965 0.2335093 1.5366668
0.19732919 0.23066539 1.5355
0.20557076 0.23092827 1.53725
0.21423121 0.2323693 1.5362
0.22436814 0.2323693 1.5362
0.23413046 0.2301396 1.5320001
0.25408477 0.2301396 1.5320001
0.26132882 0.23066539 1.5355
0.27536935 0.2301396 1.5320001
0.28734192 0.2301396 1.5320001
0.29566252 0.23106764 1.5337501
0.30532858 0.23199564 1.5355
0.31453869 0.23130265 1.5362
0.3250334 0.2301396 1.5320001
0.33533296 0.23133053 1.5355
0.34240037 0.23049013 1.5343335
-0.80850083 0.24990027 1.539
-0.78132594 0.24799559 1.5355
-0.77356172 0.24809848 1.5320001
-0.76665938 0.24799559 1.5355
-0.75427258 0.24876362 1.5320001
-0.73032743 0.24876362 1.5320001
-0.72766685 0.24876362 1.5320001
-0.71228254 0.24990027 1.539
-0.70960981 0.24990027 1.539
-0.83389175 0.25791845 1.539
-0.8263191 0.25791845 1.539
-0.81588709 0.25561094 1.5348001
-0.80362171 0.25188372 1.5348001
-0.79513729 0.25257298 1.539
-0.78681654 0.25307691 1.5366668
-0.77023602 0.25541505 1.5320001
-0.76757544 0.25674534 1.5320001
-0.75294232 0.25142419 1.5320001
-0.74932611 0.2519986 1.5355
-0.732988 0.25275448 1.5320001
-0.72766685 0.25142419 1.5320001
-0.70671481 0.25508249 1.5320001
-0.83790088 0.26059118 1.539
0.48596451 0.20807873 1.5460001
0.4953616 0.20673628 1.5460001
0.50073135 0.20539384 1.5460001
0.5597989 0.20807873 1.5460001
0.56651115 0.20807873 1.5460001
0.5772506 0.20807873 1.5460001
0.58396292 0.20807873 1.5460002
0.60812682 0.20807873 1.5460001
0.6134966 0.20807873 1.5460002
0.62602609 0.20807873 1.5460002
0.63497573 0.20539384 1.5460001
0.64034551 0.20539384 1.5460001
0.82828754 0.20002407 1.5460001
0.83902711 0.20002407 1.5460001
0.841712 0.20002407 1.5460001
0.46582788 0.21792333 1.5460002
0.47321129 0.21344849 1.5460001
0.52489537 0.2107636 1.5460001
0.53831977 0.2107636 1.5460001
0.54503202 0.21143484 1.5460001
0.55174422 0.2107636 1.5460001
0.58799016 0.2107636 1.5460001
0.59470242 0.21165857 1.5460002
0.60409951 0.2107636 1.5460001
0.61439157 0.21076362 1.5460002
0.20431988 0.22848387 1.5460001
0.21523842 0.22866285 1.5460002
0.23627004 0.22955781 1.5460001
0.2443247 0.22955781 1.5460001
0.26983112 0.22955781 1.5460001
0.27251601 0.22955781 1.5460001
0.29802242 0.22955781 1.5460001
0.30473465 0.22955781 1.5460002
0.31413174 0.22955781 1.5460001
0.32621375 0.22687294 1.5460001
0.33426842 0.22955781 1.5460002
0.34500799 0.22955781 1.5460002
0.35843238 0.22687294 1.5460001
0.37991148 0.22955781 1.5460001
0.38528126 0.22508302 1.5460002
0.39467835 0.22418804 1.5460001
0.40676033 0.22418806 1.5460002
0.41347256 0.22418804 1.5460001
0.42018476 0.22418804 1.5460001
0.4456912 0.22150315 1.5460001
0.45508832 0.22239813 1.5460002
0.46247175 0.22217438 1.5460001
0.087258816 0.23627004 1.5460001
0.10605302 0.23492759 1.5460001
0.12216235 0.23492759 1.5460001
0.13558678 0.23492759 1.5460001
0.15527596 0.23492759 1.5460002
0.17049031 0.2322427 1.5460001
0.19465429 0.2322427 1.5460001
0.2228456 0.2322427 1.5460001
-0.77593231 0.24835202 1.5460001
0.087258816 0.24029736 1.5460001
-0.84305441 0.25909159 1.5460001
-0.83499974 0.25640669 1.5460001
-0.82426023 0.25506425 1.5460001
-0.81620562 0.25103691 1.5460001
-0.80815089 0.25103691 1.5460001
-0.74639857 0.25640669 1.5460001
-0.73968631 0.25237936 1.5460001
0.84417456 0.1982327 1.5530001
0.85361421 0.1982327 1.5530001
0.48277077 0.20902087 1.5530001
0.49760452 0.20632382 1.5530001
0.53671169 0.20902087 1.5530001
0.54615134 0.20902088 1.5530002
0.55559093 0.20902087 1.5530001
0.56503057 0.20902087 1.5530001
0.58525842 0.20632382 1.5530001
0.59469807 0.20767236 1.5530002
0.60413772 0.20767236 1.5530002
0.61357737 0.20632383 1.5530002
0.62571406 0.20699808 1.5530001
0.63245666 0.20632382 1.5530001
0.64729047 0.20632382 1.5530001
0.80641603 0.20362678 1.5530001
0.81046152 0.20362678 1.5530001
0.84012902 0.20092973 1.5530001
0.85091722 0.20092973 1.5530001
0.45714888 0.21980904 1.5530002
0.46524 0.21801101 1.5530002
0.47333115 0.21261692 1.5530002
0.51648384 0.2117179 1.5530001
0.52592349 0.2117179 1.5530001
0.54884833 0.2117179 1.5530001
0.59739512 0.2117179 1.5530001
0.61897147 0.2117179 1.5530001
0.62436557 0.2117179 1.5530001
0.20362678 0.22790016 1.5530001
0.21441495 0.22790016 1.5530001
0.27644694 0.22790016 1.5530001
0.28993216 0.22790016 1.5530001
0.29532626 0.22790018 1.5530002
0.30476591 0.22790016 1.5530001
0.31555408 0.22790016 1.5530001
0.3236452 0.22790016 1.5530001
0.33443338 0.22790016 1.5530001
0.34549126 0.22736076 1.5530001
0.35398698 0.2272259 1.5530001
0.36544937 0.22790018 1.5530002
0.37488902 0.22790016 1.5530001
0.38298017 0.22655165 1.5530001
0.39241982 0.22520313 1.5530001
0.40590504 0.22250608 1.5530001
0.41264763 0.22250608 1.5530001
0.43692103 0.22250608 1.5530001
0.44546169 0.22250609 1.5530002
0.4598459 0.22250608 1.5530001
0.087653913 0.23329425 1.5530001
0.094396517 0.23329425 1.5530001
0.10383617 0.23329425 1.5530002
0.11462434 0.23329425 1.5530002
0.12451351 0.23329425 1.5530002
0.1362007 0.2359913 1.5530001
0.1496859 0.2359913 1.5530001
0.16856521 0.23329425 1.5530001
0.17530783 0.23329425 1.5530001
0.18744452 0.23329425 1.5530001
0.19373763 0.23239523 1.5530002
0.21980904 0.23194572 1.5530001
0.2238546 0.23059721 1.5530001
0.23194572 0.23059721 1.5530001
0.24947652 0.23059721 1.5530001
0.25217357 0.23059721 1.5530001
0.26565877 0.23059721 1.5530001
0.341176 0.23059721 1.5530001
0.37488902 0.23059721 1.5530001
-0.79158223 0.24947652 1.5530001
-0.74168694 0.24947652 1.5530001
-0.84417462 0.25621912 1.5530001
-0.83473492 0.25487059 1.5530002
-0.82664382 0.25307259 1.5530002
-0.80506748 0.2521736 1.5530002
-0.79697633 0.2521736 1.5530002
-0.74708104 0.25487059 1.5530001
0.66781783 0.1991262 1.5600001
0.84662503 0.19641702 1.5600002
0.8537907 0.19639911 1.5642
0.86130941 0.19729836 1.567
0.46943405 0.2081838 1.567
0.4751707 0.20907341 1.5635002
0.48060125 0.20907339 1.5635
0.49256557 0.2081838 1.567
0.50255662 0.2072538 1.5600001
0.51610261 0.20996301 1.5600001
0.54531431 0.20771676 1.5635002
0.55467451 0.20623018 1.5640002
0.56332088 0.2081838 1.567
0.5745312 0.20781179 1.5642
0.58541995 0.20545359 1.5628
0.59464824 0.20382319 1.5628
0.60369539 0.20313963 1.5631113
0.61519921 0.20377167 1.5630002
0.62644565 0.20532326 1.5630002
0.63590342 0.20382319 1.5628
0.64264256 0.20424938 1.5646667
0.65524638 0.20485055 1.5623335
0.66598326 0.20387535 1.56525
0.812325 0.20274107 1.567
0.83545649 0.2013804 1.567
0.84281588 0.20153207 1.5646667
0.3782686 0.21906921 1.567
0.38561627 0.21798067 1.567
0.3905147 0.21906921 1.567
0.44766319 0.21906921 1.567
0.45629883 0.21687189 1.5649003
0.4647038 0.21380752 1.5637693
0.47125077 0.21290775 1.5617501
0.52693939 0.2126722 1.5600001
0.53746796 0.21090515 1.567
0.093886808 0.22995465 1.567
0.20183541 0.2289274 1.5600001
0.21906921 0.22723329 1.567
0.22562492 0.22969784 1.56525
0.23434582 0.22892742 1.5600002
0.24465011 0.22969782 1.56525
0.25444686 0.22995465 1.567
0.2639716 0.22995465 1.567
0.27485704 0.22995465 1.567
0.28553772 0.22858858 1.5614001
0.29629207 0.22697952 1.56525
0.3052412 0.22553426 1.5646667
0.31426722 0.22621821 1.5600001
0.32311511 0.22672576 1.5635
0.33494028 0.22628298 1.5642
0.3439678 0.22456089 1.5626252
0.35524687 0.22536509 1.5635002
0.36503902 0.22607997 1.5628
0.3760443 0.22447596 1.5646669
0.38422623 0.22353826 1.5623336
0.39506999 0.22264978 1.5635002
0.4052538 0.2226498 1.5635
0.41589803 0.2222202 1.56525
0.42579597 0.22350901 1.5600002
0.44530261 0.22129519 1.5635
0.45175242 0.22113006 1.5623335
0.095037788 0.23215631 1.5635
0.10589586 0.23283362 1.5635
0.11429699 0.232676 1.567
0.12363736 0.23323262 1.5646667
0.13431004 0.23469633 1.5623335
0.14287125 0.23539737 1.5670002
0.15476479 0.23487158 1.5635
0.16474506 0.23367789 1.5628
0.17416683 0.232676 1.567
0.18307614 0.23392835 1.5617501
0.196417 0.23163661 1.5600001
0.2289274 0.23163661 1.5600001
0.25737399 0.23163661 1.5600001
0.26279241 0.23163661 1.5600001
0.27077499 0.232676 1.567
-0.7878328 0.24900414 1.567
-0.85123372 0.25523314 1.5635
-0.84733939 0.25497106 1.5646667
-0.83619988 0.25267631 1.5628
-0.82618129 0.25097585 1.5623335
-0.81629926 0.25127569 1.5642
-0.80552161 0.25172549 1.567
-0.76061922 0.2571682 1.567
-0.75551939 0.25334826 1.5658334
-0.74909383 0.2533102 1.5600001
-0.72200185 0.25060099 1.5600001
-0.718723 0.25316492 1.5646667
0.8487559 0.19817972 1.5740001
0.85558969 0.19544621 1.5740001
0.86242348 0.19544621 1.5740001
0.46606407 0.20911378 1.5740001
0.49066564 0.20911378 1.5740001
0.50980026 0.20638026 1.5740001
0.51526725 0.20911378 1.5740001
0.52210104 0.20911378 1.5740001
0.53713536 0.20911378 1.5740001
0.54533595 0.20706365 1.5740001
0.56857079 0.20774701 1.5740001
0.58360511 0.20638026 1.5740001
0.59727269 0.20364675 1.5740001
0.60547322 0.20091324 1.5740001
0.61367381 0.20182441 1.5740001
0.6246078 0.20364675 1.5740001
0.63280833 0.20364675 1.5740001
0.66561055 0.20364675 1.5740001
0.67107755 0.20091324 1.5740001
0.81868726 0.20364675 1.5740001
0.82552105 0.20364675 1.5740001
0.83782184 0.20091324 1.5740001
0.8432889 0.20091324 1.5740001
0.39225918 0.21731432 1.5740001
0.44966295 0.21731432 1.5740001
0.45458326 0.2151275 1.5740002
0.46059701 0.21184729 1.5740001
0.52620137 0.21184729 1.5740001
0.53440189 0.21184729 1.5740001
0.20911378 0.22824837 1.5740001
0.21184729 0.22824837 1.5740001
0.22551486 0.22824839 1.5740001
0.23508216 0.22824837 1.5740001
0.26515079 0.22824837 1.5740001
0.28838566 0.22824837 1.5740001
0.29931971 0.22551486 1.5740001
0.30478677 0.22369252 1.5740001
0.31435406 0.22483149 1.5740001
0.32528812 0.22688162 1.5740001
0.33758891 0.22551486 1.5740001
0.34396714 0.22278135 1.5740001
0.35535675 0.22278135 1.5740001
0.36629081 0.22551486 1.5740001
0.37380797 0.22278135 1.5740001
0.39499268 0.22004783 1.5740001
0.40319324 0.22278135 1.5740001
0.41139376 0.22278135 1.5740001
0.42506135 0.22414809 1.5740001
0.44556269 0.2214146 1.5740001
0.097039729 0.23098189 1.5740001
0.10524027 0.23098189 1.5740001
0.11754107 0.23098189 1.5740001
0.12574162 0.23234865 1.5740001
0.13530892 0.2337154 1.5740001
0.15717702 0.2337154 1.5740001
0.16264404 0.2337154 1.5740001
0.17084458 0.23098189 1.5740001
0.18633449 0.2337154 1.5740001
0.19544622 0.23280424 1.5740001
0.20091324 0.23098189 1.5740001
0.25558349 0.23098189 1.5740001
0.26515079 0.23098189 1.5740001
-0.85604525 0.25467235 1.5740001
-0.8432889 0.25285 1.5740001
-0.79681915 0.25011647 1.5740001
-0.7858851 0.25011647 1.5740001
-0.76538372 0.25558349 1.5740001
-0.7230143 0.25285 1.5740001
-0.71426708 0.25667691 1.5740002
0.67406201 0.19906108 1.5810001
0.84789371 0.1981615 1.5826002
0.85487789 0.19545436 1.5874002
0.86706388 0.19543231 1.585
0.87064224 0.19454922 1.5890001
0.46577403 0.20808481 1.5870001
0.47442234 0.20764774 1.5836668
0.48430336 0.20834704 1.5890001
0.49534163 0.20834704 1.5890001
0.50828046 0.20799738 1.5863335
0.51611221 0.20644277 1.5850002
0.52491134 0.20571981 1.5858001
0.53576392 0.20449933 1.5867144
0.54398108 0.2039472 1.587
0.55446571 0.2041091 1.5867144
0.56429428 0.20615768 1.5863335
0.57456577 0.20687044 1.5830002
0.58493453 0.20644277 1.5850002
0.59268534 0.20489745 1.5836668
0.60194814 0.20248753 1.5863335
0.61933529 0.20093755 1.585
0.62535232 0.20111139 1.5842001
0.63256693 0.20168492 1.5836668
0.64235681 0.20156768 1.5863335
0.65704674 0.20707753 1.5863335
0.66531616 0.20432262 1.5863335
0.67266107 0.20156768 1.5863335
0.81820965 0.20180675 1.5810001
0.82611763 0.20137215 1.5830002
0.83488691 0.20149808 1.5840002
0.84304667 0.20006835 1.5890001
0.39875692 0.2193853 1.5890001
0.40427604 0.2193853 1.5890001
0.44585422 0.21793801 1.5860002
0.4555546 0.2126379 1.5850002
0.46264541 0.21004376 1.5810001
0.48735645 0.21004376 1.5810001
0.49258208 0.2111066 1.5890001
0.52854151 0.21004376 1.5810001
0.53266001 0.21004376 1.5810001
0.11835904 0.22846371 1.585
0.12450077 0.22834949 1.5855715
0.13074929 0.22846371 1.585
0.20455243 0.22926345 1.5810001
0.21828078 0.22926345 1.5810001
0.23396549 0.22709088 1.585
0.24466856 0.22886357 1.5830002
0.25534731 0.22926345 1.5810001
0.26437679 0.22798388 1.5874002
0.27456701 0.22926345 1.5810001
0.28443593 0.22846371 1.5850003
0.29498649 0.22617105 1.5850003
0.3044154 0.22360712 1.5863335
0.31505015 0.22398457 1.5890001
0.32838804 0.22766398 1.5890001
0.33581579 0.22709088 1.585
0.34450603 0.22255515 1.5870001
0.35340905 0.22139925 1.5836668
0.36472231 0.22398457 1.5890001
0.37297609 0.22296195 1.585
0.39949501 0.22102644 1.5810001
0.40567407 0.22139925 1.5836668
0.41531432 0.22214486 1.5890001
0.42379269 0.22268729 1.5863335
0.43474552 0.22357415 1.5874002
0.44273478 0.22284622 1.5855715
0.095204942 0.23042354 1.5890001
0.10486341 0.23042354 1.5890001
0.11374211 0.23105779 1.5858002
0.12492799 0.23200913 1.5810001
0.13488171 0.23167627 1.5850003
0.14508924 0.23508447 1.5863335
0.15403491 0.23235318 1.5854446
0.16515699 0.23121636 1.5850002
0.176164 0.23121634 1.5850003
0.18508019 0.23110309 1.5855716
0.19405949 0.23121634 1.5850003
0.20374778 0.23042354 1.5890001
0.21662574 0.23042354 1.5890001
0.27319416 0.23200913 1.5810001
-0.72300559 0.2497405 1.5890001
-0.71610677 0.24974051 1.5890001
-0.86214042 0.2539745 1.5810001
-0.85527623 0.2539745 1.5810001
-0.83056521 0.25122881 1.5810001
-0.82370102 0.25122881 1.5810001
-0.81490958 0.25148305 1.5826001
-0.80585414 0.25122881 1.5810001
-0.79212582 0.25122881 1.5810001
-0.7866345 0.25122881 1.5810001
-0.77348185 0.25461245 1.585
-0.76356673 0.25223303 1.5830002
-0.75833899 0.25186443 1.585
-0.73478115 0.25165257 1.5836668
-0.72402763 0.25308985 1.5858002
-0.71449977 0.25438029 1.5854445
-0.70975572 0.25672016 1.5810001
-0.72438538 0.26077875 1.5890001
0.83567369 0.19817799 1.5960001
0.84537458 0.19817799 1.5960001
0.85507566 0.19540627 1.5960001
0.86616254 0.19540627 1.5960001
0.87517065 0.19402042 1.5960001
0.45871967 0.20926486 1.5960001
0.46149141 0.20926486 1.5960001
0.47257829 0.20649314 1.5960001
0.48643687 0.20926486 1.5960001
0.5030672 0.20926486 1.5960001
0.51692581 0.20510727 1.5960001
0.52385509 0.20372142 1.5960001
0.5335561 0.20094971 1.5960001
0.55295813 0.20372142 1.5960001
0.56681675 0.20510727 1.5960001
0.57513195 0.20556924 1.5960001
0.5834471 0.20649314 1.5960001
0.60423493 0.20233557 1.5960001
0.61670774 0.2009497 1.5960001
0.62502289 0.2009497 1.5960001
0.63610977 0.2009497 1.5960001
0.64534885 0.2018736 1.5960001
0.66659868 0.20510727 1.5960001
0.67491382 0.2009497 1.5960001
0.82597256 0.2009497 1.5960001
0.83013016 0.2009497 1.5960001
0.43931764 0.21758002 1.5960001
0.44486105 0.21619415 1.5960001
0.45248333 0.2127295 1.5960001
0.50583893 0.21203658 1.5960001
0.097010203 0.2286669 1.5960001
0.10578732 0.2286669 1.5960001
0.11364052 0.2286669 1.5960001
0.12472741 0.22589518 1.5960001
0.13581428 0.2286669 1.5960001
0.14274359 0.2286669 1.5960001
0.15660219 0.2286669 1.5960001
0.16491735 0.2286669 1.5960001
0.17508033 0.2286669 1.5960001
0.1862596 0.22644953 1.596
0.19540629 0.22728103 1.5960001
0.2037214 0.2286669 1.5960001
0.2286669 0.2286669 1.5960001
0.24668309 0.2286669 1.5960001
0.25499827 0.2286669 1.5960001
0.27578616 0.2286669 1.5960001
0.28687304 0.22681908 1.5960001
0.29518819 0.22589518 1.5960001
0.30211747 0.22312346 1.5960001
0.31459022 0.22312346 1.5960001
0.3256771 0.22589518 1.5960001
0.33491617 0.22681908 1.5960001
0.34369329 0.22173759 1.5960001
0.36586705 0.22312346 1.5960001
0.37279636 0.22312346 1.5960001
0.406057 0.22035174 1.5960001
0.41714388 0.22312346 1.5960001
0.42684489 0.22173759 1.5960001
0.43488288 0.22146045 1.5960001
0.13997187 0.23143862 1.5960001
0.14620823 0.23213154 1.5960001
0.15105875 0.23143862 1.5960001
-0.7358917 0.24806894 1.5960001
-0.87170595 0.25222653 1.5960001
-0.86477667 0.2536124 1.5960001
-0.85507572 0.2536124 1.5960001
-0.84537458 0.2536124 1.5960001
-0.83567363 0.2536124 1.5960001
-0.82458675 0.25084066 1.5960001
-0.79132611 0.2536124 1.5960001
-0.78522837 0.25527543 1.5960001
-0.77192402 0.25084066 1.5960001
-0.76776648 0.25084066 1.5960001
-0.74143511 0.25084066 1.5960001
-0.73450583 0.2517646 1.5960001
-0.71233201 0.2536124 1.5960001
-0.70817447 0.25084066 1.5960001
0.67648208 0.19904719 1.603
0.83377111 0.19904719 1.603
0.84629852 0.19626331 1.603
0.85325825 0.19626331 1.603
0.87552923 0.19347943 1.603
0.45794773 0.20739882 1.603
0.46490741 0.20739882 1.603
0.47186711 0.20739882 1.603
0.4830026 0.20739882 1.603
0.49692202 0.20647085 1.603
0.5052737 0.20739882 1.603
0.51455325 0.20647088 1.603
0.52754462 0.20183106 1.603
0.53032851 0.20183106 1.603
0.54981565 0.20183106 1.603
0.55538344 0.20183106 1.603
0.5693028 0.20461494 1.603
0.57347858 0.20461494 1.603
0.5846141 0.20461494 1.603
0.59574962 0.20461494 1.603
0.60688514 0.20183106 1.603
0.61523676 0.20183106 1.603
0.62219644 0.20183106 1.603
0.65838683 0.20739882 1.603
0.66673851 0.20554291 1.603
0.67369819 0.20183106 1.603
0.34937653 0.21853432 1.603
0.42732507 0.21853432 1.603
0.43637267 0.21783835 1.603
0.44514188 0.21408013 1.603
0.45516384 0.21018271 1.603
0.49553007 0.2101827 1.603
0.10717925 0.22827789 1.603
0.11553089 0.22688596 1.603
0.13223414 0.22688596 1.603
0.14522557 0.22966985 1.603
0.15450516 0.22827789 1.603
0.16564067 0.22966984 1.603
0.17677617 0.22827789 1.603
0.18373588 0.22410208 1.603
0.19626331 0.22410208 1.603
0.20322299 0.22688596 1.603
0.21157464 0.22966984 1.603
0.22688596 0.22966984 1.603
0.23523758 0.22688596 1.603
0.24498114 0.22688596 1.603
0.25472474 0.22688596 1.603
0.26446828 0.22688596 1.603
0.2756038 0.22688596 1.603
0.28395543 0.22688596 1.603
0.293699 0.22410208 1.603
0.31457806 0.22410208 1.603
0.32710552 0.22688596 1.603
0.33684909 0.22688596 1.603
0.34659266 0.2213182 1.603
0.35494429 0.2213182 1.603
0.36190397 0.2213182 1.603
0.37582338 0.22271013 1.603
0.41340569 0.2213182 1.603
0.42314929 0.2213182 1.603
0.43150091 0.2213182 1.603
-0.83098722 0.24915697 1.603
-0.74413025 0.24804342 1.603
-0.73494351 0.24846099 1.603
-0.72798377 0.24915697 1.603
-0.71545631 0.24915697 1.603
-0.87274534 0.25194085 1.603
-0.86856955 0.25194085 1.603
-0.84212273 0.25194085 1.603
-0.835163 0.25194085 1.603
-0.82541943 0.25194085 1.603
-0.81150007 0.25194085 1.603
-0.80314845 0.25194085 1.603
-0.79618871 0.25194085 1.603
-0.78505325 0.25333279 1.603
-0.77809358 0.25194085 1.603
-0.76417416 0.25194085 1.603
-0.75025481 0.25194085 1.603
-0.74747092 0.25194085 1.603
-0.70849663 0.25194085 1.603
0.60272926 0.19809984 1.618
0.67859733 0.19809984 1.618
0.68281221 0.19809984 1.618
0.83314329 0.19809984 1.618
0.8439554 0.19673467 1.6145
0.85421777 0.19528991 1.618
0.86405247 0.19669488 1.618
0.87710094 0.19444501 1.6110001
0.88512695 0.19247998 1.618
0.44537339 0.20933954 1.618
0.45525852 0.2084153 1.6152
0.4654358 0.20608285 1.6145
0.47665119 0.2067823 1.6145
0.4854131 0.20843387 1.6110001
0.49584538 0.20724522 1.615375
0.50639641 0.2056361 1.6110001
0.51528883 0.20561023 1.6152
0.52721095 0.2021955 1.6133335
0.53248113 0.20090976 1.618
0.54136848 0.20004056 1.6110001
0.56058037 0.20371969 1.618
0.58485341 0.20336716 1.6152
0.5958178 0.20187405 1.6145
0.60422933 0.20187405 1.6145
0.6130836 0.20062003 1.6156667
0.63478899 0.20038824 1.6138
0.6434871 0.20004056 1.6110001
0.65468645 0.20327294 1.6145
0.66591096 0.20538037 1.6145
0.67292064 0.20187607 1.6145
0.82953882 0.20004056 1.6110001
0.83260149 0.2003303 1.6133335
0.42851382 0.21776932 1.618
0.4353002 0.21542536 1.61625
0.44423196 0.2123172 1.6121668
0.45183986 0.21123163 1.6110001
0.096658818 0.22834854 1.6133335
0.10506834 0.22834854 1.6133335
0.11801692 0.22619911 1.618
0.12450077 0.22522049 1.6110001
0.13469067 0.22653532 1.6124001
0.1445066 0.22867879 1.6156667
0.15280366 0.22851366 1.6145
0.16646734 0.22801827 1.6110001
0.17486063 0.22801827 1.6110001
0.18045618 0.22522049 1.6110001
0.20593393 0.22647929 1.6133335
0.21495941 0.22900903 1.618
0.22479413 0.22900903 1.618
0.23367567 0.22665389 1.61625
0.24586861 0.22619912 1.618
0.25570333 0.22619911 1.618
0.26568097 0.22443564 1.6140001
0.27546176 0.22417402 1.6150001
0.28502679 0.22504996 1.6138
0.30281866 0.22430483 1.6145
0.31471181 0.22338918 1.618
0.32534614 0.22391242 1.6160001
0.33465031 0.22375543 1.6166
0.34228659 0.22367749 1.6133335
0.35671568 0.22242272 1.6110001
0.37711456 0.22220346 1.6145
0.38355502 0.22151589 1.618
0.3947947 0.22245255 1.618
0.41826662 0.22242272 1.6110001
0.42509407 0.22119376 1.6156667
0.21822608 0.23081604 1.6110001
0.22382161 0.23081604 1.6110001
-0.88231701 0.24867852 1.618
-0.87669718 0.24867852 1.618
-0.86686242 0.24867852 1.618
-0.85281277 0.24867854 1.618
-0.844383 0.24867854 1.618
-0.83554381 0.24814059 1.6145
-0.78256458 0.24867852 1.618
-0.77553976 0.24867852 1.618
-0.76710999 0.24867852 1.618
-0.75322187 0.24702464 1.6133335
-0.74341148 0.24562576 1.6133335
-0.73460221 0.24814059 1.6145
-0.7249611 0.24867852 1.618
-0.71689689 0.24831991 1.6156667
-0.87570202 0.25040042 1.6110001
-0.86414784 0.25176474 1.6117779
-0.85490191 0.25229669 1.6124001
-0.84539288 0.25133303 1.6110001
-0.83447069 0.25076312 1.6133335
-0.82432842 0.2537483 1.6145
-0.8173157 0.2537483 1.6145
-0.80557215 0.25191587 1.61625
-0.79433435 0.2522212 1.6150001
-0.78337562 0.25040042 1.6110001
-0.77498233 0.25040042 1.6110001
-0.76417154 0.25117761 1.6124001
-0.75679678 0.25179932 1.6110001
-0.72602141 0.25040042 1.6110001
-0.71305978 0.25076312 1.6133335
-0.70856988 0.25336173 1.618
0.59723794 0.19907932 1.626
0.60382688 0.19907932 1.6260002
0.61276895 0.19907932 1.626
0.64524287 0.19907932 1.6260002
0.67912871 0.19907932 1.626
0.68477637 0.19625549 1.626
0.83443886 0.19907932 1.626
0.84403986 0.19682026 1.626
0.85138178 0.19343168 1.626
0.86691278 0.19625549 1.626
0.88244379 0.19625549 1.626
0.89373904 0.19343168 1.626
0.44475168 0.20755079 1.6260002
0.45463502 0.20755078 1.626
0.46593031 0.20472695 1.626
0.47440177 0.20472695 1.626
0.48569703 0.20684482 1.626
0.49699235 0.20472695 1.626
0.50546378 0.20472695 1.626
0.51252335 0.20472695 1.626
0.52805436 0.20331505 1.626
0.5379377 0.20190313 1.626
0.54217345 0.20190313 1.626
0.58029503 0.20472695 1.626
0.5930022 0.20190313 1.626
0.62265235 0.20190313 1.626
0.63112378 0.20190313 1.626
0.66642153 0.20472695 1.626
0.67348111 0.20190313 1.626
0.26685101 0.21884605 1.626
0.32615122 0.21884605 1.6260002
0.33518744 0.21771653 1.626
0.34874177 0.21884605 1.626
0.37980381 0.21884605 1.626
0.38545144 0.21884605 1.6260002
0.39957055 0.21884605 1.626
0.42780873 0.21743414 1.626
0.43402115 0.21263365 1.626
0.44192785 0.21037459 1.626
0.11436471 0.22731751 1.626
0.12848382 0.2244937 1.626
0.13554338 0.22519965 1.626
0.14542675 0.22731751 1.6260002
0.17507684 0.22731751 1.626
0.1835483 0.2244937 1.626
0.19907932 0.2244937 1.626
0.21461034 0.22731751 1.626
0.22562324 0.22562324 1.626
0.23014134 0.22731751 1.626
0.24614298 0.22543499 1.6260002
0.25555572 0.22449371 1.6260002
0.26590973 0.22261116 1.6260002
0.28661773 0.2244937 1.626
0.2965011 0.2244937 1.626
0.30450195 0.22449371 1.6260002
0.3242687 0.22166988 1.6260002
0.33744651 0.22166988 1.626
0.34450606 0.22166988 1.626
0.3515656 0.22166988 1.626
0.37415618 0.22355244 1.6260002
0.38827527 0.22166988 1.626
0.3939229 0.22261116 1.6260002
0.40521821 0.22166988 1.6260002
0.41086581 0.22166988 1.626
0.42498493 0.22166988 1.626
0.15389819 0.23014134 1.626
0.16236965 0.23014134 1.626
-0.8739723 0.24990807 1.626
-0.86550087 0.24990807 1.6260002
-0.84291029 0.24708426 1.626
-0.8344388 0.24990807 1.626
-0.82737929 0.24990807 1.626
-0.8132602 0.24990807 1.626
-0.80478871 0.24990807 1.626
-0.79490536 0.24990807 1.6260002
-0.78925771 0.24990807 1.626
-0.7638433 0.24896681 1.6260002
-0.74125278 0.24708426 1.626
-0.73278129 0.24990807 1.626
-0.72430986 0.24708426 1.6260002
-0.71442652 0.24920213 1.626
-0.70548439 0.24802554 1.6260002
-0.69748354 0.24567235 1.626
-0.83302695 0.25273189 1.626
-0.82455546 0.25273189 1.626
-0.81608403 0.25273189 1.626
-0.71019077 0.25273189 1.626
0.6853078 0.19722109 1.6340001
0.83712542 0.19722109 1.6340001
0.84516567 0.19627517 1.6340002
0.85840833 0.19438337 1.6340001
0.86408377 0.19438337 1.6340002
0.87614399 0.1950928 1.6340001
0.88394779 0.19551846 1.6340001
0.43842673 0.20857194 1.6340001
0.44466969 0.20630179 1.6340001
0.45545301 0.20573422 1.6340001
0.46396613 0.20478833 1.6340002
0.4880867 0.20573422 1.6340001
0.49518102 0.20478833 1.6340002
0.50369418 0.20289652 1.6340002
0.52497697 0.20573422 1.6340001
0.53632784 0.2000588 1.6340001
0.55335414 0.20289651 1.6340001
0.58456898 0.20431536 1.6340001
0.59450096 0.20147765 1.6340001
0.63139123 0.20289651 1.6340001
0.6427421 0.2000588 1.6340001
0.65693069 0.20147765 1.6340001
0.66544378 0.20573422 1.6340001
0.67679465 0.20147765 1.6340001
0.34194446 0.2199228 1.6340001
0.37883475 0.2199228 1.6340001
0.39727989 0.2199228 1.6340001
0.40721187 0.2199228 1.6340001
0.42802176 0.21708509 1.6340002
0.43417016 0.21140964 1.6340001
0.096482255 0.22843593 1.6340001
0.1049954 0.22843593 1.6340001
0.11208968 0.22843593 1.6340001
0.14188567 0.22559822 1.6340001
0.15181766 0.22843593 1.6340001
0.16884395 0.22843593 1.6340001
0.17735709 0.22559822 1.6340001
0.18870795 0.22559822 1.6340001
0.19722109 0.22559822 1.6340001
0.20289651 0.22559822 1.6340001
0.21595 0.22503066 1.6340001
0.22417936 0.22559822 1.6340001
0.23553021 0.22559822 1.6340001
0.24546222 0.22465232 1.6340002
0.25681308 0.2227605 1.6340002
0.26390734 0.2227605 1.6340001
0.27667707 0.2227605 1.6340002
0.29228449 0.22559822 1.6340001
0.30647305 0.2227605 1.6340001
0.37457818 0.2227605 1.6340001
0.39302331 0.2227605 1.6340001
0.41572502 0.2227605 1.6340001
0.42423815 0.2227605 1.6340001
-0.70233405 0.23694907 1.6340001
-0.88962317 0.24829993 1.6340001
-0.87543458 0.24829993 1.6340001
-0.86337429 0.24617165 1.6340001
-0.85557067 0.24829993 1.6340002
-0.84516567 0.24829993 1.6340002
-0.83357835 0.24652636 1.6339999
-0.82435578 0.24688107 1.6340001
-0.8144238 0.24688107 1.6339999
-0.80449182 0.246273 1.6340001
-0.79881632 0.24829993 1.6340001
-0.7718581 0.24829993 1.6340001
-0.76760149 0.24829993 1.6340001
-0.74206203 0.24829993 1.6340001
-0.73638672 0.24829993 1.6340002
-0.72503579 0.24546222 1.6340002
-0.71571189 0.24667837 1.6340001
-0.70588118 0.24546221 1.6340001
-0.69949633 0.24262449 1.6340001
-0.88111001 0.25113764 1.6340001
-0.83854431 0.25113764 1.6340001
-0.82435578 0.25113767 1.6340002
-0.70800948 0.25113764 1.6340001
0.86628842 0.1875765 1.649
0.88919854 0.1875765 1.649
0.54697883 0.19903156 1.649
0.5541383 0.19903156 1.649
0.59898359 0.1987097 1.6463335
0.60561955 0.19759142 1.6429999
0.6113553 0.19711688 1.645
0.64864242 0.19903156 1.649
0.65349507 0.19783282 1.645
0.66152936 0.19903156 1.649
0.68625033 0.1975026 1.6458
0.83928674 0.1952161 1.641
0.84624207 0.19473591 1.649
0.85431445 0.19407164 1.6458
0.86631727 0.19235615 1.6458
0.8752622 0.19331315 1.6429999
0.88387698 0.19139966 1.6467143
0.89348501 0.1931137 1.6474001
0.43709296 0.20854415 1.645
0.44424194 0.20568734 1.645
0.45422345 0.20568734 1.645
0.46280086 0.20426241 1.645
0.47735325 0.20376571 1.641
0.48732778 0.20376571 1.641
0.4969728 0.20379479 1.6470001
0.50463688 0.20156884 1.6463335
0.51359659 0.20329812 1.6430001
0.52380562 0.2050468 1.6436667
0.53279287 0.20283401 1.645
0.54575014 0.20091586 1.6410002
0.5564037 0.20187317 1.6430001
0.56508416 0.20301755 1.6442
0.57706845 0.20607446 1.6458
0.58493018 0.20401406 1.6430001
0.59421092 0.20140558 1.645
0.63705969 0.20283747 1.645
0.64134842 0.20140558 1.645
0.65974492 0.20091584 1.641
0.66706324 0.20283051 1.645
0.6749894 0.20214988 1.6444286
0.32916 0.21801506 1.641
0.33343479 0.21801506 1.641
0.37709635 0.21854648 1.645
0.38188261 0.21801506 1.641
0.4080863 0.2190779 1.649
0.41557062 0.21769877 1.6478573
0.42558351 0.21550541 1.6458
0.43190208 0.21165971 1.6470001
0.097367957 0.22766919 1.649
0.10569875 0.22806691 1.6450002
0.11440639 0.22667712 1.6470001
0.12363835 0.22586098 1.6442002
0.13889253 0.22480543 1.649
0.14855099 0.22711694 1.645
0.15674286 0.22941454 1.641
0.16556108 0.22835779 1.6436667
0.17520972 0.22550912 1.6458
0.18332472 0.22469993 1.6430001
0.19553797 0.22597826 1.6436666
0.20599213 0.22597826 1.6436666
0.21478225 0.22480543 1.649
0.22656468 0.2237148 1.641
0.23912424 0.22480543 1.649
0.24628365 0.22480543 1.649
0.25221351 0.2237148 1.641
0.26489812 0.22194166 1.649
0.28641194 0.2237148 1.6410002
0.29639953 0.22480544 1.649
0.30400902 0.22312376 1.6436667
0.31463367 0.22381684 1.6470001
0.32217339 0.22480543 1.649
0.34768414 0.22086494 1.641
0.36542544 0.22336018 1.6426001
0.37377045 0.22186561 1.6442
0.39470699 0.22086494 1.641
0.4061065 0.22086494 1.641
0.4146561 0.22086494 1.6410002
0.42263576 0.22200489 1.641
-0.83478701 0.23912424 1.649
-0.82142282 0.23816966 1.649
-0.8161726 0.23769236 1.649
-0.80793816 0.23796415 1.641
-0.7345553 0.23912424 1.649
-0.72023648 0.23912424 1.649
-0.71307707 0.23912424 1.649
-0.89343429 0.24936363 1.641
-0.88366777 0.24801275 1.6455715
-0.87371993 0.24766171 1.6423334
-0.86351061 0.24651377 1.641
-0.85436267 0.24618137 1.6425999
-0.84524041 0.24561141 1.6426001
-0.83546197 0.24232297 1.6439999
-0.82607347 0.24299355 1.6442002
-0.81506288 0.24223894 1.6409999
-0.80401248 0.24453716 1.6436666
-0.79938859 0.24936363 1.641
-0.78347677 0.2485396 1.645
-0.77562231 0.24711117 1.645
-0.76469082 0.24681422 1.6429999
-0.75460166 0.24771553 1.649
-0.74457848 0.24628365 1.649
-0.73580289 0.24395737 1.6429999
-0.72456974 0.24220312 1.6421429
-0.71511388 0.24244252 1.641
-0.70724273 0.24176398 1.6410002
-0.80042189 0.2505793 1.649
-0.7918306 0.2505793 1.649
0.8733688 0.18848652 1.6570001
0.89063478 0.18848652 1.6570001
0.53956062 0.19999714 1.6570001
0.54387712 0.19999714 1.6570001
0.55538774 0.19711949 1.6570001
0.56545955 0.19999716 1.6570001
0.59711379 0.19999714 1.6570001
0.60574675 0.19711949 1.6570001
0.6143797 0.19711949 1.6570001
0.62013501 0.19999714 1.6570001
0.646034 0.19999716 1.6570001
0.65754455 0.19711949 1.6570001
0.66905522 0.19999714 1.6570001
0.67481059 0.19999716 1.6570001
0.68200469 0.19999714 1.6570001
0.85610288 0.19424184 1.6570001
0.86473584 0.19136417 1.6570001
0.87528723 0.19136417 1.6570001
0.88200182 0.19136417 1.6570001
0.89926773 0.19136417 1.6570001
0.91077834 0.19424184 1.6570001
0.42589319 0.20863011 1.6570001
0.4340466 0.20719132 1.6569999
0.44603679 0.20575246 1.6570001
0.45754743 0.20575246 1.6570001
0.46186391 0.20575246 1.6570001
0.47049689 0.20575246 1.6570001
0.48632398 0.20575246 1.6570001
0.51797819 0.20287479 1.6570001
0.52517241 0.20383403 1.6570001
0.53380531 0.20287479 1.6570001
0.57265365 0.20287479 1.6570001
0.58560312 0.20431364 1.6570001
0.62876803 0.20287479 1.6570001
0.63164568 0.20287479 1.6570001
0.64027864 0.20287479 1.6570001
0.37841186 0.21726309 1.6570001
0.38128951 0.21726309 1.6570001
0.41438258 0.21438542 1.6569998
0.42387882 0.21265884 1.6569999
0.094483063 0.2278145 1.6570001
0.10503447 0.22589606 1.6570001
0.1165451 0.22589606 1.6570001
0.12805572 0.22589606 1.6570001
0.13237222 0.22589606 1.6570001
0.15683231 0.22877371 1.6570001
0.16546527 0.22733489 1.6570001
0.17122057 0.22589606 1.6570001
0.18560886 0.22301839 1.6570001
0.19424185 0.22589606 1.6570001
0.20719129 0.22589606 1.6570001
0.21150777 0.22589606 1.6570001
0.23596784 0.22589606 1.6570001
0.24603967 0.22397763 1.6570001
0.25467262 0.22301839 1.6570001
0.26906091 0.22301839 1.6570001
0.27625504 0.22301839 1.6570001
0.28201038 0.22301839 1.6570001
0.29639864 0.22301839 1.6570001
0.3035928 0.22301839 1.6570001
0.31798106 0.22301839 1.6570001
0.3237364 0.22086015 1.6570001
0.35826826 0.22157957 1.6570001
0.36546242 0.22229898 1.6570001
0.37409538 0.22014074 1.6570001
0.40431079 0.22014074 1.6570001
-0.72277153 0.23644745 1.6570001
-0.90502304 0.24891731 1.6570001
-0.89495122 0.24891731 1.6570001
-0.88775712 0.24603966 1.6570001
-0.85898054 0.24603966 1.6570001
-0.83020395 0.24028434 1.6570001
-0.81197882 0.24220279 1.6570001
-0.80286622 0.24891731 1.6570001
-0.79567212 0.24891731 1.6570001
-0.78588802 0.24661517 1.6569999
-0.76401788 0.24891731 1.6570001
-0.75538492 0.24747849 1.6570001
-0.74771112 0.24412122 1.6570001
-0.72373068 0.24028434 1.6570001
-0.80142742 0.25179496 1.6570001
-0.79854977 0.25179496 1.6570001
0.88770586 0.18939653 1.6650001
0.89204317 0.18939653 1.6650001
0.55228609 0.19807118 1.6650001
0.56385225 0.19807118 1.6650001
0.59999663 0.19807118 1.6650001
0.604334 0.19807118 1.6650001
0.64770722 0.19807118 1.6650001
0.65493608 0.19807118 1.6650002
0.66794807 0.19807118 1.6650001
0.67806852 0.19807118 1.6650001
0.68096006 0.19807118 1.6650001
0.85541695 0.19614349 1.6650002
0.86601925 0.19228809 1.6650001
0.87180233 0.19228809 1.6650001
0.91517562 0.19228809 1.6650001
0.41782898 0.20963739 1.6650001
0.42553982 0.20722777 1.6650002
0.43373251 0.20530006 1.6650001
0.44385296 0.20481813 1.6650002
0.45252758 0.20385428 1.6650001
0.49590084 0.20385428 1.6650001
0.50168395 0.20385428 1.6650001
0.53445488 0.20289044 1.6650002
0.57975578 0.20385428 1.6650001
0.58553886 0.20385429 1.6650002
0.59421355 0.20168562 1.6650001
0.62891215 0.20096274 1.6650001
0.63662291 0.20192659 1.6650002
0.64192414 0.20240851 1.6650001
0.37590152 0.21831203 1.6650001
0.41493744 0.21252893 1.6650001
0.09542115 0.22698668 1.6650001
0.10698736 0.22409514 1.6650001
0.115662 0.22409514 1.6650001
0.12289088 0.22409514 1.6650001
0.16337258 0.22698669 1.6650002
0.17638455 0.22409514 1.6650001
0.18216765 0.22264937 1.6650001
0.19517963 0.22409515 1.6650002
0.20481813 0.22409515 1.6650002
0.21397471 0.22409514 1.6650001
0.22698668 0.22698668 1.6650001
0.24722753 0.22120358 1.6650001
0.25011909 0.22120358 1.6650001
0.26457685 0.22313128 1.6650002
0.28770924 0.22409514 1.6650001
0.29349235 0.22409514 1.6650001
0.32529938 0.22409514 1.6650001
0.36578107 0.2212036 1.6650002
0.39180502 0.22120358 1.6650001
0.40047967 0.22120358 1.6650001
-0.88336855 0.23855288 1.6650001
-0.83999532 0.23855288 1.6650001
-0.73228502 0.2371071 1.6650001
-0.89493477 0.24722753 1.6650001
-0.88915163 0.24289021 1.6650001
-0.86168194 0.24433598 1.6650001
-0.83854949 0.24144444 1.6650001
-0.80529678 0.24722753 1.6650002
-0.79565823 0.24626368 1.6650002
-0.77493542 0.24722753 1.6650001
-0.75614041 0.24433598 1.6650002
-0.73589957 0.24144444 1.6650002
-0.90505517 0.25011909 1.6650001
0.4285529 0.19902287 1.6730001
0.57091963 0.19902287 1.6730001
0.59852135 0.19902287 1.6730001
0.61304855 0.19611743 1.6730001
0.63774484 0.19902287 1.6730001
0.64529902 0.1978607 1.6730002
0.65517747 0.19611745 1.6730001
0.67696834 0.19902287 1.6730001
0.68713737 0.19902287 1.6730001
0.69440097 0.19829652 1.6730001
0.86436939 0.193212 1.6730001
0.87018031 0.19030654 1.6730001
0.88616025 0.19030654 1.6730001
0.91434306 0.19437417 1.6730002
0.41838384 0.2077392 1.6730001
0.42661595 0.20483375 1.6730001
0.43436378 0.20338103 1.6730001
0.44308013 0.20483376 1.6730001
0.4547019 0.20483376 1.6730001
0.46487093 0.20483376 1.6730001
0.47213456 0.20483376 1.6730001
0.48520905 0.20628648 1.6730001
0.49537811 0.20386527 1.6730001
0.50603139 0.2028968 1.6730001
0.51716888 0.20192832 1.6730001
0.52733797 0.20192832 1.6730001
0.53750706 0.20192832 1.6730001
0.57818323 0.20192832 1.6730001
0.58544683 0.20192832 1.6730001
0.59125775 0.20192832 1.6730001
0.63483942 0.20192832 1.6730001
0.6435557 0.20192832 1.6730001
0.32976782 0.21936098 1.6730001
0.33557874 0.21936099 1.6730001
0.3413896 0.21936098 1.6730001
0.37334949 0.21936098 1.6730001
0.41402566 0.21355009 1.6730001
0.091521464 0.22807731 1.6730001
0.10459596 0.22371913 1.6730001
0.1133123 0.22226642 1.6730001
0.12522462 0.22342861 1.6730002
0.13800856 0.22807731 1.6730001
0.14672491 0.22807732 1.6730001
0.15544122 0.22807732 1.6730001
0.19611743 0.22226642 1.6730001
0.20483376 0.22371915 1.6730001
0.21936098 0.22517186 1.6730001
0.22371915 0.22662458 1.6730001
0.23969908 0.22517186 1.6730001
0.24405724 0.22517186 1.6730001
0.2542263 0.22226642 1.6730001
0.26003718 0.22226642 1.6730001
0.27165896 0.22226642 1.6730001
0.28328073 0.22226642 1.6730001
0.2949025 0.22371915 1.6730001
0.30071339 0.22226642 1.6730001
0.31814605 0.22517186 1.6730001
0.32105151 0.22226642 1.6730001
0.33267328 0.22226642 1.6730001
0.39804575 0.22226642 1.6730001
-0.90359294 0.24841541 1.6730001
-0.89778197 0.24550997 1.6730001
-0.81352413 0.24550997 1.6730001
-0.80480784 0.24550997 1.6730001
-0.79463875 0.24550997 1.6730001
-0.7888279 0.24550997 1.6730001
-0.77139521 0.24841541 1.6730001
-0.76558435 0.24744694 1.6730001
-0.75977343 0.24260452 1.6730001
0.90061539 0.18829723 1.6810001
0.42768285 0.19997457 1.6810001
0.54591596 0.19997457 1.6810001
0.55175465 0.19997457 1.6810001
0.57656902 0.19997457 1.6810001
0.58824635 0.19997457 1.6810001
0.59700435 0.19997457 1.6810001
0.60576236 0.19705525 1.6810001
0.61160105 0.19705524 1.6810001
0.6247381 0.19778506 1.6810001
0.63495576 0.19997458 1.6810001
0.64546537 0.19588749 1.6810001
0.6553911 0.19413589 1.6810001
0.66706842 0.19705525 1.6810001
0.67582649 0.19705525 1.6810001
0.6845845 0.19705525 1.6810001
0.69042313 0.19705524 1.6810001
0.85974467 0.19413589 1.6810001
0.86266398 0.19413589 1.6810001
0.87726068 0.19121656 1.6810001
0.92251039 0.19121656 1.6810001
0.42549336 0.2050834 1.6810001
0.43790051 0.2028939 1.6810001
0.44227952 0.2028939 1.6810001
0.45979553 0.2028939 1.6810001
