# .PCD v0.7 - Point Cloud Data file format
VERSION 0.7
FIELDS x y z
SIZE 4 4 4
TYPE F F F
COUNT 1 1 1
WIDTH 1508
HEIGHT 1
VIEWPOINT 0 0 0 1 0 0 0
POINTS 1508
DATA ascii
-0.048297137 0.25159222 1.2934999
-0.034886163 0.25095528 1.296
-0.015755041 0.25208065 1.296
-0.70394313 0.26599079 1.2943333
-0.69525194 0.26591343 1.2934999
-0.6878475 0.26705959 1.2922499
-0.53004456 0.26220888 1.296
-0.52427483 0.26269764 1.2928751
-0.51745379 0.26340431 1.2926667
-0.48378557 0.26377943 1.2926667
-0.47555807 0.26273623 1.2938572
-0.44056022 0.26119727 1.291
-0.43450099 0.26160192 1.293
-0.42598698 0.26119727 1.291
-0.37228346 0.26228184 1.2926667
-0.36545199 0.26175779 1.291
-0.31052208 0.26119727 1.291
-0.27240747 0.26119727 1.291
-0.26792338 0.26119727 1.291
-0.50610638 0.15853482 1.3010001
-0.47221529 0.15476914 1.3010001
-0.51231009 0.16573851 1.3043336
-0.5064829 0.16556406 1.3010002
-0.52052593 0.17577672 1.3060001
-0.51530576 0.17516185 1.3038573
-0.50758362 0.17475618 1.3010004
-0.52214599 0.18387704 1.3060002
-0.51691926 0.18478695 1.3010001
-0.52234042 0.19482866 1.3060001
-0.51796818 0.1943087 1.3010001
0.7067827 0.20902312 1.3040003
0.71171206 0.20899482 1.3010001
0.69857073 0.21546823 1.3060001
0.70490539 0.21269082 1.3021113
0.71058238 0.21238393 1.3010001
0.55726707 0.22667621 1.3030837
0.56285185 0.22417164 1.303273
0.29825342 0.23928314 1.3060001
0.3059082 0.23843259 1.3060001
0.31434485 0.23819271 1.3050002
0.32320237 0.23928314 1.3060001
0.36581624 0.23811164 1.303143
0.37523174 0.23761593 1.3037779
0.38445795 0.2379185 1.3038573
0.39388946 0.23882511 1.3035002
0.40582553 0.23863511 1.3060002
0.41505986 0.23928314 1.3060001
0.42461672 0.23800948 1.3040003
0.43576875 0.23656136 1.3035002
0.44341096 0.23701507 1.3060001
0.45471752 0.23829442 1.3026669
0.46492273 0.23710398 1.3040003
0.47560441 0.23497796 1.3010001
0.48464203 0.23309514 1.3010001
0.49518594 0.23535453 1.3010001
0.50707453 0.23656136 1.3035002
0.51175487 0.23610766 1.3010001
0.5298301 0.23384826 1.3010001
0.54512739 0.23375414 1.3030002
0.55233878 0.23166755 1.3040003
-0.28581452 0.24966408 1.3010001
-0.2722581 0.24966408 1.3010001
-0.26886898 0.24966408 1.3010001
-0.053095981 0.2496641 1.3010001
-0.046495777 0.24835549 1.3060001
-0.0041422397 0.2496641 1.3010001
0.0079079121 0.24966408 1.3010001
0.016327893 0.24780971 1.3031431
0.025021413 0.2458131 1.3032224
0.032131229 0.2430633 1.3060001
0.11534138 0.24764238 1.3022501
0.12781695 0.2447062 1.3026669
0.13443451 0.24288587 1.3010001
0.14425483 0.2434442 1.3040003
0.15521307 0.24698375 1.3047502
0.16541295 0.24698375 1.3047501
0.17460205 0.24480334 1.3040003
0.18456773 0.24253872 1.3040001
0.19599737 0.24188489 1.3047502
0.20599864 0.24448231 1.3035002
0.21527609 0.24438763 1.3038573
0.22442007 0.24434972 1.3040003
0.23467129 0.24523835 1.3035002
0.24506854 0.24348347 1.3030001
0.25500962 0.2419389 1.302667
0.26523256 0.24297461 1.3035002
0.27504286 0.24221854 1.3035002
0.28330001 0.2420851 1.3040001
0.29503784 0.24146543 1.3035002
0.30501944 0.24062647 1.3010001
0.31744617 0.24062648 1.3010001
0.32547045 0.24155125 1.3060001
0.33541009 0.241842 1.3035002
0.34376037 0.24085766 1.3022501
0.35178444 0.24093473 1.3026669
0.40556294 0.24062648 1.3010001
0.41347083 0.24062647 1.3010001
0.45301038 0.24062647 1.3010001
-0.47856629 0.25969592 1.3060001
-0.45021522 0.25969592 1.3060001
-0.44511318 0.25936449 1.3043336
-0.43380547 0.25870168 1.3010001
-0.4264003 0.25969592 1.3060001
-0.40031731 0.25969592 1.3060001
-0.39427045 0.25888032 1.3047502
-0.38522828 0.25644228 1.3010001
-0.37507921 0.25904346 1.3050002
-0.36516196 0.25969592 1.3060001
-0.3548246 0.25815576 1.303143
-0.34380588 0.25794858 1.3010001
-0.33000663 0.25515977 1.3060001
-0.32361466 0.25657827 1.3040003
-0.31452593 0.25445527 1.3033081
-0.29259273 0.25192347 1.3010001
-0.28474554 0.25434485 1.3035002
-0.27613139 0.25353733 1.3010001
-0.26886898 0.25305319 1.3010001
-0.14383972 0.25634331 1.3043336
-0.13695441 0.25353727 1.3035002
-0.1231375 0.25418288 1.3010001
-0.11431696 0.25353727 1.3035002
-0.1047377 0.25360897 1.3032224
-0.095045827 0.25458699 1.3030834
-0.086158283 0.25362951 1.303143
-0.07546737 0.2531499 1.3050002
-0.064246997 0.251643 1.3045716
-0.057836212 0.25062358 1.3060001
-0.032385018 0.25204906 1.3040003
-0.024910748 0.25431365 1.3040001
-0.014714777 0.25114354 1.3040003
-0.0056702169 0.25062358 1.3060001
0.01020639 0.25062358 1.3060001
-0.71164697 0.26464805 1.3043334
-0.70502454 0.26314932 1.3038573
-0.69656485 0.26375365 1.3022501
-0.49330887 0.2642321 1.3060001
-0.48479477 0.26235926 1.303143
-0.47447473 0.26096109 1.3010001
-0.45075098 0.26096109 1.3010001
-0.44510245 0.26096109 1.3010001
-0.43154603 0.26096109 1.3010001
-0.42476785 0.26096109 1.3010001
-0.41911933 0.26096109 1.3010001
-0.4033035 0.26096112 1.3010001
-0.37242502 0.26171422 1.3010001
-0.36489365 0.26096109 1.3010001
-0.31970558 0.26096109 1.3010001
-0.5222261 0.15883902 1.3160001
-0.51765525 0.15883902 1.3160002
-0.52262366 0.16659659 1.3141251
-0.51824284 0.16451097 1.3126668
-0.5534606 0.17636083 1.3160002
-0.54466516 0.17795372 1.3160001
-0.53406948 0.17573772 1.3142143
-0.52660322 0.17458044 1.3126667
-0.55193698 0.18283626 1.3160001
-0.54557288 0.18489896 1.3144375
-0.53504097 0.18441835 1.3110001
-0.52821064 0.18441838 1.311
-0.55193698 0.19312081 1.3160001
-0.54566193 0.19537 1.3157501
-0.53518409 0.19454278 1.3117898
-0.52821064 0.19466387 1.311
0.70921385 0.20832446 1.3110001
0.56618339 0.21912931 1.3130001
0.68872297 0.21970831 1.3110001
0.69497508 0.21746525 1.3135002
0.70340765 0.21379873 1.3143334
0.55628204 0.22422506 1.3141251
0.56229401 0.22126567 1.3135002
0.6890642 0.22054626 1.3160001
0.28339624 0.23882988 1.3160001
0.30282259 0.23882988 1.3160001
0.32224894 0.23882988 1.3160001
0.36497569 0.23837617 1.3135002
0.3842158 0.23600519 1.3130001
0.3951813 0.23730999 1.3132223
0.40489516 0.23694885 1.3135
0.41463399 0.23576236 1.3128182
0.42345282 0.23720351 1.3124287
0.43423617 0.23654443 1.3160001
0.44578585 0.2369159 1.3130001
0.45706984 0.23822495 1.3126669
0.46534681 0.23723345 1.3135
0.47447121 0.23609507 1.3135002
0.48108795 0.23654443 1.3160001
0.49937156 0.23654443 1.3160001
0.50470436 0.23654443 1.3160002
0.51381719 0.23523803 1.3135
0.52356106 0.23746312 1.3126668
0.53149688 0.23609507 1.3135002
0.54603732 0.23352936 1.3135
0.55211675 0.23223054 1.3110001
-0.32671651 0.24930632 1.3110001
-0.053585719 0.24877249 1.3130001
-0.048950557 0.24930632 1.3110001
-0.033491965 0.24903941 1.3120002
-0.02526168 0.24854368 1.3138573
-0.014799005 0.24930632 1.3110001
-0.0056919251 0.24930632 1.3110001
0.001138385 0.24930632 1.3110001
0.014438359 0.24734215 1.3126668
0.025071606 0.24384558 1.3122501
0.030853622 0.24340078 1.3160001
0.10586981 0.24702957 1.3110001
0.11541539 0.2479717 1.3160001
0.12537675 0.24641199 1.3150002
0.13572398 0.24236703 1.3135002
0.14555764 0.24374096 1.3147501
0.15597294 0.24613403 1.3143334
0.16388427 0.24639656 1.3145716
0.17392935 0.24465032 1.3135
0.18626446 0.24340078 1.3160001
0.19694062 0.24247602 1.3110001
0.20510578 0.24270719 1.3122501
0.21452972 0.24300961 1.3118334
0.22646025 0.24241249 1.3124287
0.23409131 0.24275087 1.3125
0.24311982 0.24265924 1.3120002
0.25424191 0.24056569 1.3130001
0.26752049 0.24247603 1.3110001
0.27732801 0.24080996 1.3143334
0.28549898 0.24083781 1.3120002
0.29346663 0.24102104 1.3130001
0.32671648 0.24019924 1.3110001
0.33522254 0.24120425 1.3140001
0.34216458 0.24065728 1.3135002
0.35484272 0.24074888 1.3140001
0.36086807 0.24019924 1.3110001
-0.71648961 0.25939897 1.3160001
-0.70506239 0.259399 1.3160002
-0.50279975 0.25825626 1.3160001
-0.49450377 0.25639015 1.315643
-0.48472929 0.25660765 1.3123636
-0.47898555 0.25717813 1.3140001
-0.45406929 0.2569727 1.3152859
-0.44592011 0.25804201 1.3124287
-0.43561235 0.25817233 1.3141251
-0.42623705 0.259399 1.3160002
-0.4022398 0.25939897 1.3160001
-0.39500681 0.25800985 1.3147502
-0.38464183 0.25665644 1.3160001
-0.3756679 0.25874478 1.3150002
-0.36553317 0.25783566 1.3132223
-0.35619533 0.25743848 1.3147501
-0.3443881 0.25667605 1.3118334
-0.3349292 0.25506613 1.3138573
-0.32533333 0.25312057 1.3130834
-0.31912729 0.25234205 1.3110001
-0.14371221 0.25548452 1.3135002
-0.12534501 0.2541019 1.3122501
-0.11496753 0.2516073 1.3137778
-0.10473936 0.25101483 1.313143
-0.096320622 0.25115192 1.3138573
-0.085455939 0.25239217 1.3122501
-0.07489796 0.25130105 1.3135002
-0.065473638 0.25085905 1.3151667
-0.058279064 0.25025713 1.3160001
-0.030736396 0.2515831 1.3110001
-0.02483503 0.25131792 1.3120002
-0.018214161 0.2515831 1.3110001
-0.0011427267 0.25025713 1.3160001
-0.7151286 0.26232564 1.3135002
-0.70466036 0.26069018 1.3110001
-0.50250429 0.26150793 1.3122501
-0.49543464 0.26195285 1.311625
-0.48609042 0.26069018 1.3110001
-0.4788025 0.26168442 1.3160001
-0.45535401 0.26182854 1.3110001
-0.42120248 0.26069018 1.3110001
-0.41095701 0.26069018 1.3110001
-0.40640348 0.26069018 1.3110001
-0.55152541 0.16810587 1.3260001
-0.54384935 0.16887347 1.3260002
-0.53417218 0.16775905 1.3245716
-0.52750081 0.16548827 1.3235002
-0.55166841 0.17342298 1.3226669
-0.54539311 0.17312396 1.3218335
-0.53568095 0.17091319 1.3210001
0.71118236 0.20991351 1.3210001
0.56536937 0.2190135 1.3251668
0.57225078 0.2176165 1.3260001
0.69528759 0.21720514 1.3235002
0.70437366 0.21290784 1.3237779
0.71042001 0.21070804 1.3260001
0.54922259 0.22682777 1.3260001
0.55461663 0.22529167 1.3227859
0.56206346 0.2213842 1.3210001
0.6893881 0.2213842 1.3210001
0.028676709 0.23973729 1.3210001
0.23621331 0.23927216 1.3226669
0.24586093 0.23857445 1.3251668
0.25228962 0.23927216 1.3226669
0.28368047 0.23927216 1.3226669
0.29250246 0.2397373 1.3210001
0.30167899 0.23973729 1.3210001
0.32691449 0.23859021 1.3210001
0.33486921 0.2388622 1.3232224
0.34369016 0.2394582 1.3220001
0.35597357 0.2397373 1.3210001
0.36408234 0.23927216 1.3226669
0.37709114 0.23774272 1.3226669
0.38704687 0.23544571 1.3226669
0.39571494 0.23581654 1.3247502
0.40555438 0.23491356 1.3218335
0.41503033 0.23384252 1.3240002
0.42512986 0.23426603 1.3241252
0.43334535 0.234906 1.3228751
0.44354191 0.23614188 1.3240001
0.45481071 0.23735891 1.3226669
0.46515173 0.23697512 1.3226669
0.47433695 0.23621041 1.3226669
0.48589504 0.23603906 1.3260001
0.50524133 0.2355033 1.3230002
0.51461327 0.23404676 1.3228751
0.5254339 0.23474538 1.3224287
0.53400815 0.23597783 1.3235002
0.54606783 0.23356034 1.323143
0.55518109 0.23056073 1.3210001
-0.33390892 0.24985598 1.3260001
-0.12435228 0.24985598 1.3260001
-0.11492392 0.24938491 1.3235002
-0.10563122 0.24914937 1.3222501
-0.095275275 0.24910226 1.3220001
-0.085120767 0.24962045 1.3247502
-0.074781738 0.24966756 1.3250002
-0.064293355 0.24914938 1.3222501
-0.055233672 0.24777995 1.3251668
-0.048265874 0.24938491 1.3235002
-0.026482431 0.24755315 1.3260001
-0.014911889 0.24891384 1.3210001
-0.0038351393 0.24877433 1.3243334
0.0046056407 0.24985598 1.3260001
0.012617752 0.24776676 1.3210001
0.025235504 0.2431785 1.3210001
0.032117914 0.24203143 1.3210001
0.10667737 0.2466197 1.3210001
0.11492392 0.24593502 1.3235
0.12463221 0.24495803 1.3228751
0.13191286 0.24432556 1.3210001
0.14797182 0.24203143 1.3210001
0.15460299 0.24371311 1.3232224
0.16463184 0.24326849 1.3240002
0.17380677 0.24386621 1.3226669
0.18353093 0.24432556 1.3210001
0.19458829 0.24294752 1.3260001
0.20354053 0.24264216 1.3243334
0.21588938 0.24294752 1.3260001
0.22561494 0.24168473 1.3222501
0.23573659 0.24110696 1.3243334
0.24419606 0.24123903 1.3238573
0.25906727 0.24064469 1.3260001
0.26516989 0.24175408 1.3220001
0.27522635 0.24110696 1.3243335
0.29821521 0.24064469 1.3260001
0.30051801 0.24064469 1.3260001
0.34870878 0.24203143 1.3210001
0.35348287 0.24064469 1.3260001
-0.50126886 0.25579625 1.3210001
-0.49782768 0.2535021 1.3210001
-0.48013797 0.25791585 1.3260001
-0.4709267 0.25561303 1.3260001
-0.46344256 0.25618875 1.3260001
-0.45699149 0.25618181 1.3230002
-0.44506252 0.25809038 1.3210001
-0.43353888 0.25874165 1.3243334
-0.4266333 0.25874168 1.3243335
-0.41105339 0.25906727 1.3260001
-0.4039959 0.25821596 1.3240002
-0.39743555 0.2570959 1.3247502
-0.38474697 0.2576513 1.3226669
-0.37695262 0.25857884 1.3235002
-0.36039135 0.25676444 1.3260001
-0.35459626 0.25795075 1.3250002
-0.34461305 0.25599164 1.3220001
-0.33589369 0.25307032 1.3247502
-0.15198788 0.25420284 1.3226669
-0.145914 0.25423986 1.323143
-0.13451004 0.25384581 1.3240002
-0.12451145 0.25246283 1.3224287
-0.11814804 0.25120798 1.3210001
-0.10667736 0.25120798 1.3210001
-0.091765471 0.25120798 1.3210001
-0.084883057 0.25197271 1.3210001
-0.076853581 0.25120798 1.3210001
-0.069971174 0.25120798 1.3210001
0.0057353415 0.25120801 1.3210001
-0.71462363 0.26038453 1.3210001
-0.48013797 0.26252148 1.3260001
-0.46366832 0.26347229 1.3250002
-0.45997441 0.26267865 1.3210001
-0.42203349 0.26104158 1.3243335
-0.41513368 0.26104158 1.3243335
-0.40835634 0.26038453 1.3210001
-0.56285107 0.1698955 1.3310001
-0.55413795 0.16821353 1.3360002
-0.54499483 0.1663534 1.3335001
-0.53502822 0.16412655 1.3324288
-0.56159025 0.17137036 1.3335001
-0.55738318 0.17164925 1.3326669
0.70881706 0.2099769 1.3360001
0.71443385 0.20958397 1.3335001
0.56580168 0.21795388 1.3343335
0.57540631 0.21693745 1.3360001
0.69613522 0.21559729 1.3355458
0.70441318 0.21306321 1.3345716
0.53944343 0.22853839 1.3360001
0.54646349 0.22691323 1.3348464
0.55368406 0.22351477 1.3337275
0.5605396 0.22074857 1.3310001
0.2299946 0.2392406 1.3310001
0.23577334 0.23866273 1.3310001
0.24593979 0.23781914 1.3360001
0.25474077 0.23852986 1.3335001
0.27506888 0.2392406 1.3310001
0.28084767 0.2392406 1.3310001
0.29394621 0.23924062 1.3310001
0.32592195 0.23808485 1.3310001
0.33489946 0.23715162 1.3322501
0.34476212 0.23738524 1.3317145
0.35484457 0.23765388 1.3318336
0.36418039 0.23809689 1.3338573
0.37299895 0.23876679 1.3326668
0.383268 0.23737413 1.3335001
0.39675194 0.23549895 1.3360001
0.40499866 0.2343324 1.333143
0.41311714 0.23259699 1.3326668
0.43503499 0.23317876 1.3360001
0.44422871 0.23483793 1.3322501
0.45495981 0.23597567 1.3343334
0.46449929 0.23630302 1.3340002
0.47590402 0.23534611 1.3335003
0.48461586 0.23573731 1.3351668
0.4938131 0.23627236 1.3360002
0.50457168 0.23536311 1.333778
0.51456392 0.23298225 1.3326668
0.52471125 0.23230609 1.3310001
0.53561908 0.23257424 1.3335001
0.54584312 0.23272908 1.3346367
-0.13363944 0.24785326 1.3353752
-0.12493841 0.24756205 1.3322502
-0.11656348 0.24817994 1.3335001
-0.10517341 0.24848662 1.3310002
-0.094949648 0.24895334 1.3335001
-0.085525624 0.24848661 1.3310001
-0.075123869 0.24848662 1.3310002
-0.064722098 0.24848661 1.3310001
-0.056256365 0.24654329 1.3330002
-0.048986159 0.24802727 1.3326669
-0.023115035 0.24848661 1.3310001
-0.015039533 0.2486733 1.3320001
-0.0048619728 0.24765459 1.3340002
0.0039304243 0.24820927 1.3320001
0.015049085 0.24746962 1.3330001
0.023115035 0.24386361 1.3310001
0.10758585 0.24582626 1.3322501
0.11450191 0.24404684 1.3320001
0.12468294 0.24312051 1.3320001
0.1335752 0.24330197 1.3330002
0.14371806 0.24455068 1.3347501
0.15641433 0.24215704 1.3343334
0.16585037 0.2415521 1.3310001
0.17798576 0.24386361 1.3310001
0.19710474 0.24416898 1.3326668
0.20739476 0.24292755 1.3343334
0.21666972 0.24292755 1.3343334
0.22507401 0.24094665 1.333143
0.25821674 0.24084571 1.3335001
0.26556301 0.24074483 1.3338573
0.27352697 0.24049251 1.3347501
0.28770316 0.24013932 1.3360001
0.29350361 0.24013932 1.3360001
0.30452451 0.24071938 1.3360001
0.31438529 0.24013932 1.3360001
0.32366604 0.24245952 1.3360001
0.37471017 0.24013932 1.3360001
-0.50723982 0.25651151 1.3326668
-0.48194847 0.25542113 1.3310001
-0.47516119 0.25550041 1.331417
-0.46774235 0.25506702 1.3340002
-0.45536616 0.2565769 1.3310001
-0.44783601 0.25805539 1.3326669
-0.43405467 0.25811991 1.3330001
-0.42611331 0.25821674 1.3335001
-0.41125503 0.25623673 1.3322501
-0.40467498 0.25522292 1.3332729
-0.39460775 0.25728199 1.3326669
-0.38255382 0.25773263 1.3310001
-0.37446356 0.25773263 1.3310001
-0.36412808 0.25612333 1.3326668
-0.35429549 0.2555455 1.3326669
-0.34556976 0.25426537 1.3310001
-0.33863524 0.25195387 1.3310001
-0.15390456 0.25265318 1.3326669
-0.14544199 0.25232714 1.3338573
-0.13489275 0.25145856 1.3310002
-0.043918565 0.25079811 1.3310001
-0.71194303 0.26004413 1.3310001
-0.47462866 0.26312611 1.331
-0.46807945 0.26235566 1.3310001
-0.4230051 0.26004413 1.3310001
-0.41722637 0.26004416 1.3310001
-0.55351907 0.16663837 1.342
-0.54419667 0.16430777 1.342
0.71610534 0.2091074 1.3453335
0.5462243 0.21872362 1.3470001
0.55516547 0.21856128 1.3460001
0.56587112 0.21701562 1.3436668
0.576635 0.21638434 1.3470001
0.70570809 0.2120147 1.3460001
0.71521235 0.21118186 1.3436668
0.49125093 0.22808078 1.3470001
0.53707564 0.22701792 1.3439232
0.54443604 0.22306854 1.3439232
0.55381382 0.22090432 1.3436668
0.56051093 0.22024234 1.342
0.22496173 0.23977725 1.3470001
0.23492412 0.23959923 1.3460001
0.25551838 0.23840412 1.3436668
0.26440114 0.23870079 1.3453335
0.2746608 0.23959923 1.3460001
0.28188446 0.23977724 1.3470001
0.29475054 0.23977724 1.3470001
0.3041077 0.23977724 1.3470001
0.32867026 0.23977724 1.3470001
0.33568811 0.23977724 1.3470001
0.34408036 0.23677693 1.34325
0.35257503 0.23699728 1.3445001
0.36501002 0.23626499 1.3430001
0.37532559 0.23759896 1.344143
0.38230142 0.23840412 1.3436668
0.39601907 0.23636441 1.3453335
0.40548912 0.233126 1.3457501
0.41132516 0.23197959 1.3470001
0.42565441 0.23440051 1.3430001
0.43698877 0.23422597 1.342
0.44514588 0.23422597 1.342
0.45499194 0.23509865 1.3470001
0.465058 0.23428173 1.3450001
0.47515982 0.23378508 1.3445001
0.48518762 0.23324823 1.3453335
0.49442136 0.23349124 1.3445001
0.50520158 0.23412699 1.3436668
0.51504582 0.23241377 1.3450001
0.52614105 0.23154759 1.3445001
0.53120077 0.23115772 1.3445001
-0.14152704 0.24913439 1.3470001
-0.13650982 0.24696124 1.3436668
-0.12725034 0.24633706 1.3445001
-0.11317481 0.24851787 1.3436668
-0.10487731 0.24820961 1.342
-0.094530247 0.24857953 1.3440001
-0.083978906 0.2484408 1.34325
-0.074791074 0.24890321 1.3457501
-0.064655058 0.24811165 1.3440001
-0.055611253 0.24618438 1.3436668
-0.024562545 0.24913439 1.3470001
-0.013999922 0.2484408 1.34325
-0.0046698973 0.24691971 1.3445001
0.005170553 0.24740131 1.3448573
0.015182437 0.2467342 1.3448573
0.024937494 0.24261616 1.342
0.10877699 0.24445581 1.3470001
0.11430284 0.24377526 1.34325
0.12480794 0.24319044 1.34325
0.13167928 0.24354841 1.342
0.15400326 0.24367605 1.3470001
0.16725925 0.24211653 1.3470001
0.17618224 0.24385087 1.3436668
0.18555763 0.24577759 1.3440001
0.19615941 0.24432528 1.342
0.20532142 0.24268928 1.3450001
0.21425691 0.24260183 1.344143
0.22140764 0.24121779 1.342
0.30880541 0.24121779 1.342
0.31462988 0.24151736 1.3436668
0.32278904 0.24121779 1.342
-0.4716574 0.25334191 1.3445001
-0.46447048 0.2559621 1.3460001
-0.45515451 0.25708205 1.3457501
-0.44436818 0.25783005 1.3460001
-0.42533574 0.25986266 1.342
-0.41515642 0.25385278 1.346091
-0.4045791 0.25505847 1.3453335
-0.39496988 0.25825167 1.3457501
-0.38292718 0.25801179 1.3445001
-0.37406239 0.25753206 1.342
-0.36716738 0.2562573 1.3445001
-0.34695765 0.25583535 1.3453335
-0.15293479 0.25217226 1.3445001
-0.14477113 0.25100696 1.3445001
-0.043200888 0.25217226 1.3445001
-0.034988407 0.25252154 1.34325
-0.029132584 0.25054023 1.342
-0.73395228 0.26317012 1.3470001
-0.72552449 0.26174894 1.3448573
-0.44797406 0.26083085 1.3470001
0.5464012 0.21757101 1.3544
0.55710965 0.21766946 1.3550001
0.56468761 0.21718754 1.3520001
0.57898557 0.215793 1.358
0.58464569 0.21532133 1.358
0.71459317 0.21107621 1.358
0.72777283 0.21123713 1.3540001
0.73591602 0.21390641 1.3559999
0.74407315 0.215793 1.358
0.48955247 0.2289274 1.3520001
0.52946365 0.22943538 1.355
0.53526908 0.2251409 1.3555999
0.54202294 0.2209677 1.3560002
0.2169722 0.23937693 1.358
0.22365431 0.23937695 1.3580002
0.23414695 0.23884812 1.355
0.24591288 0.23884812 1.355
0.25178802 0.23884812 1.355
0.26120076 0.23884812 1.355
0.27562857 0.23911253 1.3564999
0.29597837 0.23937695 1.3580002
0.30355543 0.23884812 1.3550001
0.31012872 0.23937693 1.358
0.33687386 0.23911253 1.3564999
0.34668383 0.23701854 1.358
0.35493824 0.23701854 1.358
0.36631137 0.2357088 1.355
0.37454662 0.23492442 1.3550003
0.38456887 0.237799 1.3544
0.39523873 0.23823826 1.3559999
0.40326443 0.23303637 1.3520001
0.41676527 0.23362336 1.3520001
0.43683419 0.23431456 1.3559999
0.44494095 0.23362337 1.3520001
0.45433289 0.23440602 1.3520001
0.46357191 0.23414175 1.355
0.47353241 0.23241985 1.3532002
0.48485652 0.23127536 1.3520001
0.49894434 0.23362336 1.3520001
0.50591654 0.23509721 1.3559999
0.51766735 0.23230176 1.358
0.5247547 0.23178856 1.3550001
-0.14504121 0.2488105 1.3580002
-0.13579112 0.24614589 1.3520001
-0.12263646 0.2488105 1.358
-0.11202369 0.2488105 1.358
-0.10510799 0.24747472 1.355
-0.096156508 0.2471974 1.3528574
-0.084804475 0.24853569 1.3564999
-0.075389132 0.24853569 1.3564999
-0.065889135 0.24767125 1.3550001
-0.05987332 0.24536322 1.3520001
-0.031838313 0.2488105 1.358
-0.024739165 0.24859063 1.3568001
-0.014124311 0.24826084 1.3550001
-0.0047024591 0.24622244 1.3535001
0.0049359538 0.24510932 1.3532002
0.01528118 0.24533743 1.3537145
0.022305747 0.24301524 1.3520001
0.10824904 0.24355447 1.355
0.11454637 0.24297495 1.3544
0.12518464 0.24246673 1.3545716
0.13491325 0.24315968 1.355
0.14573455 0.24563545 1.3535001
0.1553075 0.24355447 1.355
0.16342902 0.24337474 1.3540001
0.17414077 0.24355447 1.3550001
0.18581249 0.24470589 1.3564999
0.1948684 0.24463929 1.3554286
0.20421915 0.24182008 1.3532002
0.21502817 0.24088088 1.3532002
0.22423147 0.24066727 1.3520001
0.28805226 0.24102329 1.3540001
0.31462845 0.24066727 1.3520001
0.32509488 0.24146831 1.3565001
-0.46460387 0.25450954 1.3532002
-0.45419392 0.2549704 1.3544
-0.44685543 0.25635177 1.3542501
-0.43134174 0.25864643 1.3559999
-0.42340857 0.25558898 1.3528572
-0.40945131 0.2541464 1.355
-0.39445955 0.25827706 1.3520001
-0.38457099 0.2570878 1.3544
-0.37463659 0.25537857 1.3553334
-0.36603281 0.25439045 1.3554286
-0.35676694 0.25550884 1.3559999
-0.16083618 0.25240713 1.3520001
-0.15513426 0.25209758 1.3535001
-0.14674833 0.25005919 1.3520001
-0.042263523 0.25240713 1.3520001
-0.0352717 0.25160307 1.3540001
-0.029349668 0.25005916 1.3520001
-0.019957773 0.25005916 1.3520001
-0.74171472 0.26060247 1.358
-0.73630041 0.26100135 1.3559999
-0.72654665 0.26120076 1.355
-0.44219875 0.26060247 1.358
-0.42365345 0.26140019 1.3540001
0.72550905 0.20948629 1.363
0.73024315 0.20948629 1.363
0.74717653 0.20787901 1.368
0.53824311 0.21869814 1.3663334
0.54423833 0.21787244 1.3655
0.55582613 0.21706247 1.3660001
0.56498718 0.21757656 1.3655
0.57550418 0.21685237 1.3646667
0.58520091 0.21382403 1.3642501
0.59058565 0.21658753 1.363
0.71130657 0.21185337 1.363
0.72223103 0.21025477 1.368
0.73700088 0.21121393 1.3650001
0.74601227 0.21311019 1.365
0.75192809 0.21263053 1.368
0.53358924 0.22484441 1.3652222
0.13898197 0.23876388 1.368
0.17936988 0.23876388 1.368
0.18293352 0.23876388 1.368
0.21738206 0.2387639 1.368
0.22530125 0.2387639 1.368
0.25183058 0.23876388 1.368
0.28627908 0.2387639 1.368
0.29523942 0.23743664 1.3655
0.30472291 0.23753563 1.3655
0.31597608 0.23876388 1.368
0.32191548 0.23876388 1.368
0.33592084 0.23858936 1.367
0.34469432 0.23698936 1.3660001
0.3551434 0.23546249 1.3665715
0.36463231 0.23491225 1.3663334
0.37537009 0.23401237 1.368
0.3855134 0.23620519 1.3646667
0.39494318 0.2373717 1.3658572
0.40304947 0.23461881 1.3660001
0.42580292 0.23502021 1.3646667
0.43423444 0.23451629 1.3663334
0.44480202 0.23367023 1.3660001
0.45489877 0.23337087 1.3642499
0.46519035 0.23397921 1.3655
0.47665292 0.2335847 1.3655
0.48346716 0.23163661 1.368
0.49178234 0.23163661 1.368
0.50511646 0.2335847 1.3655
0.51451153 0.23372726 1.3663334
0.52545977 0.23177139 1.3660001
-0.3728146 0.24972659 1.363
-0.34329733 0.24826692 1.368
-0.15058507 0.24899676 1.3655
-0.13898197 0.24826692 1.368
-0.12900569 0.24972659 1.363
-0.11539499 0.24913482 1.363
-0.10558963 0.24638061 1.3663334
-0.08552736 0.24826692 1.368
-0.075953767 0.24804008 1.36675
-0.066521287 0.24826692 1.368
-0.035592988 0.24875347 1.3663334
-0.024920516 0.24804008 1.36675
-0.014218742 0.24758637 1.3642501
-0.0051373499 0.24638061 1.3663334
0.0047406661 0.24484786 1.3655
0.014463481 0.24440162 1.365
0.10770199 0.24262537 1.363
0.11422332 0.24227849 1.3655002
0.12569168 0.2418825 1.3655
0.13604237 0.24163489 1.3663334
0.14395578 0.24479966 1.3663334
0.15309651 0.24447858 1.36675
0.16555405 0.2432929 1.36675
0.17548497 0.2418825 1.3655
0.1848876 0.24177234 1.364875
0.19410029 0.24262537 1.363
0.20505433 0.24155767 1.3650001
0.21303691 0.24025829 1.363
0.22605583 0.24025829 1.363
0.23358905 0.24069896 1.3655
0.2434144 0.24025831 1.3630002
0.25682783 0.24025829 1.363
0.28641629 0.24025829 1.363
0.29233399 0.24025829 1.363
0.31600475 0.24025831 1.3630002
0.325185 0.24091931 1.36675
0.33139074 0.24025829 1.363
-0.74224746 0.25848246 1.3655
-0.73750895 0.25848246 1.3655
-0.46276349 0.25682783 1.363
-0.44403636 0.25676772 1.3668889
-0.43539867 0.25514212 1.3656925
-0.42935786 0.25476903 1.3646667
-0.4106878 0.25446075 1.363
-0.40732232 0.25691625 1.3660001
-0.39420137 0.25753349 1.3646667
-0.38464996 0.25564429 1.363
-0.37599257 0.25303006 1.364875
-0.36512485 0.25295901 1.3658572
-0.35366589 0.2539708 1.36675
-0.34585559 0.25286144 1.3671668
-0.16382831 0.25128049 1.3671668
-0.15651146 0.25136817 1.3655002
-0.051078841 0.25064269 1.368
-0.045094941 0.25159937 1.36675
-0.039128404 0.25136817 1.3655
-0.74361289 0.26014572 1.368
-0.73450583 0.26093766 1.368
-0.72698259 0.26252148 1.368
-0.44226953 0.26085386 1.3655
-0.43593666 0.26156199 1.3630002
-0.42962444 0.26274553 1.363
0.72498477 0.2093606 1.37775
0.73761797 0.20955054 1.3790001
0.745269 0.20875777 1.3782858
0.75369924 0.20816535 1.37775
0.53532481 0.21859843 1.3781669
0.54324764 0.21610646 1.3750001
0.5551976 0.21514478 1.3765001
0.56482089 0.21502987 1.3768573
0.57491833 0.2166394 1.3765001
0.58288747 0.2151448 1.3765001
0.71954489 0.21156117 1.3765001
0.72181946 0.21117693 1.3740001
0.73136419 0.21117693 1.3740001
0.74448818 0.21117693 1.3740001
0.75403291 0.21117693 1.3740001
0.52686995 0.22870946 1.3790001
0.53332776 0.22402863 1.3775715
0.10857119 0.23981109 1.3740001
0.17673689 0.23883401 1.3752501
0.18595161 0.23810667 1.3740001
0.1920875 0.23981109 1.3740001
0.21554704 0.23823744 1.3752501
0.22470905 0.23845345 1.3765001
0.25458622 0.23905 1.3765001
0.26605907 0.23981109 1.3740001
0.27679688 0.23981109 1.3740001
0.28556532 0.23872499 1.3760002
0.29500759 0.23600662 1.3773334
0.30539951 0.23691462 1.3756669
0.31526557 0.23764092 1.3752501
0.32610318 0.23879629 1.3773335
0.33408028 0.23799944 1.3773335
0.34243628 0.23633532 1.3760002
0.35281253 0.23560894 1.3773335
0.36574981 0.23426896 1.3765001
0.37547803 0.23452556 1.3756669
0.38789672 0.23481065 1.3773334
0.39558178 0.23620021 1.3780001
0.40419981 0.23428607 1.3780001
0.41191649 0.23349918 1.3790001
0.42513776 0.23503874 1.3740001
0.43507493 0.23187846 1.3765
0.44317624 0.23293477 1.3756669
0.45622152 0.2334992 1.3790001
0.46375471 0.23307587 1.3765001
0.47657782 0.23349918 1.3790001
0.48506448 0.23216066 1.3781669
0.49234793 0.2316204 1.3773335
0.50771105 0.23349918 1.3790001
0.51635051 0.23267528 1.3765001
0.52458096 0.23164941 1.376143
0.5309251 0.23026638 1.3740001
-0.44025022 0.24935582 1.3740001
-0.43667096 0.24935582 1.3740001
-0.3829819 0.24935584 1.3740001
-0.37370548 0.24905835 1.3750001
-0.3664141 0.24786836 1.3790001
-0.3543981 0.24801554 1.3765001
-0.34878001 0.24856043 1.3740001
-0.16442358 0.24797569 1.374625
-0.15569429 0.24812068 1.3747145
-0.14852177 0.24886 1.3756669
-0.13123991 0.24935582 1.3740001
-0.10896628 0.24786836 1.3790001
-0.095447205 0.24935582 1.3740001
-0.085902482 0.24935582 1.3740001
-0.074554525 0.24836418 1.3773334
-0.044206854 0.24876082 1.376
-0.035826348 0.24719432 1.3752501
-0.024204575 0.24711856 1.3765001
-0.014852595 0.24632843 1.3761431
-0.0052936086 0.24543171 1.3768573
0.0051780171 0.2438325 1.3765001
0.014347472 0.24383104 1.3765001
0.020282531 0.24458346 1.3740001
0.11604559 0.24166086 1.37775
0.12419315 0.24241762 1.3752501
0.13411236 0.24068378 1.3790001
0.14653328 0.24328791 1.3756669
0.15460989 0.24350429 1.3760002
0.16509688 0.24345484 1.37775
0.17211974 0.24144053 1.3765001
0.19571297 0.24207087 1.3760002
0.20577265 0.24166086 1.37775
0.21194541 0.24068378 1.3790001
0.23349918 0.24068378 1.3790001
0.2454735 0.24068378 1.3790001
0.25505295 0.24068378 1.3790001
0.26543072 0.24068378 1.3790001
0.271817 0.24307863 1.3790001
-0.7507897 0.25984269 1.3790001
-0.74354136 0.25821733 1.3780001
-0.73642051 0.25744781 1.3790001
-0.45180643 0.25339314 1.3765001
-0.44526982 0.25249234 1.3755001
-0.43428475 0.25174201 1.3740001
-0.41251522 0.25445423 1.3790001
-0.4050428 0.25664911 1.376
-0.39434841 0.25554672 1.3758185
-0.38577208 0.25279552 1.3765
-0.37000638 0.25026321 1.3790001
-0.36455244 0.25219786 1.3765001
-0.35595533 0.25408059 1.3748336
-0.34778574 0.25532126 1.3740001
-0.14369181 0.25026321 1.3790001
-0.12812519 0.25026321 1.3790001
-0.11495344 0.25026321 1.3790001
-0.092202239 0.25026321 1.3790001
-0.051489562 0.25026321 1.3790001
-0.045609906 0.25240073 1.3750001
-0.7345534 0.26199985 1.3777502
-0.72516429 0.26431113 1.3773335
-0.71769941 0.26510584 1.3752501
0.72519296 0.20805702 1.3850001
0.73000354 0.20805702 1.3850001
0.74804312 0.20805702 1.3850001
0.75646162 0.20645349 1.3850001
0.76127219 0.20805702 1.3850001
0.5279597 0.21767814 1.3850001
0.534935 0.21575394 1.3850001
0.54479671 0.21467154 1.3850001
0.55321521 0.21407023 1.3850001
0.56403893 0.21286759 1.3850001
0.57606542 0.21527287 1.3850001
0.59290236 0.21286759 1.3850001
0.71797711 0.21166494 1.3850001
0.72118419 0.21126406 1.3850001
0.73481411 0.2104623 1.3850001
0.51833856 0.22970456 1.3850001
0.52486724 0.22575304 1.3850001
0.53036499 0.22369136 1.3850001
0.17438304 0.2393257 1.3850001
0.19362532 0.2393257 1.3850001
0.20444909 0.2393257 1.3850001
0.21366934 0.23852395 1.3850001
0.22489399 0.23812306 1.3850001
0.23210984 0.2393257 1.3850001
0.2453389 0.2393257 1.3850001
0.2557618 0.23812306 1.3850001
0.26337853 0.2393257 1.3850001
0.28502607 0.23836361 1.3850001
0.30787629 0.23692042 1.3850001
0.31629476 0.23692042 1.3850001
0.33393353 0.23692042 1.3850001
0.34515816 0.23692042 1.3850001
0.35838723 0.23451513 1.3850001
0.36440045 0.23451513 1.3850001
0.3756251 0.23451513 1.3850001
0.38484535 0.23451513 1.3850001
0.39446649 0.23391381 1.3850001
0.40328586 0.23291159 1.3850001
0.41611403 0.23331249 1.3850001
0.42645675 0.23403406 1.3850001
0.43174836 0.23331249 1.3850001
0.44377479 0.23210984 1.3850001
0.45219329 0.23451513 1.3850001
0.46782762 0.23451513 1.3850001
0.47384083 0.23451513 1.3850001
0.48466462 0.23210984 1.3850001
0.51352799 0.23451513 1.3850001
0.52314913 0.23210984 1.3850001
-0.3631978 0.24894683 1.3850001
-0.15514079 0.24654154 1.3850001
-0.144317 0.24894683 1.3850001
-0.13469587 0.24894683 1.3850001
-0.11184568 0.24894683 1.3850001
-0.10462984 0.2473433 1.3850001
-0.095008694 0.24894683 1.3850001
-0.084184915 0.24894683 1.3850001
-0.072158501 0.24894683 1.3850001
-0.067347936 0.24894683 1.3850001
-0.051713593 0.24894683 1.3850001
-0.046421971 0.24750367 1.3850001
-0.038484536 0.24654154 1.3850001
-0.01383038 0.24473758 1.3850001
-0.005532152 0.24317415 1.3850001
0.0012026418 0.24413626 1.3850001
0.010823775 0.24413626 1.3850001
0.024293361 0.24557944 1.3850001
0.1154536 0.24173099 1.3850001
0.12387209 0.24173099 1.3850001
0.13589852 0.24173099 1.3850001
0.14672229 0.24173099 1.3850001
0.15453945 0.24233231 1.3850001
0.16716719 0.24253276 1.3850001
0.17197776 0.24173099 1.3850001
0.19843589 0.24173099 1.3850001
0.20324644 0.24173099 1.3850001
0.23812306 0.24173099 1.3850001
0.24173099 0.24173099 1.3850001
0.27420232 0.24173099 1.3850001
-0.73481411 0.25760585 1.3850001
-0.4040876 0.25616267 1.3850001
-0.3631978 0.2513521 1.3850001
-0.12387209 0.25135213 1.3850001
-0.11906153 0.2513521 1.3850001
-0.056524158 0.25135213 1.3850001
-0.73481411 0.26145431 1.3850001
-0.72399032 0.26337853 1.3850001
-0.71797711 0.26337853 1.3850001
0.72644079 0.20830044 1.3920002
0.73369312 0.20749578 1.3920002
0.74485397 0.20904639 1.3948001
0.75411105 0.2069881 1.3940001
0.76281345 0.20639415 1.3900001
0.52737796 0.21772504 1.3930001
0.53549832 0.2144407 1.3900001
0.54671717 0.21505551 1.3940001
0.55521238 0.21303257 1.3900001
0.56366122 0.21202676 1.3900001
0.57437479 0.21299225 1.3925717
0.5834043 0.21313533 1.3920002
0.59021485 0.21363606 1.3900001
0.7398808 0.21122208 1.3900001
0.41820672 0.22910455 1.396
0.43154085 0.22910455 1.396
0.52260506 0.22339787 1.3906668
0.0012121934 0.23880209 1.396
0.024243869 0.23880209 1.396
0.11758275 0.23880209 1.396
0.12243153 0.23880209 1.396
0.15152417 0.23880209 1.396
0.17863354 0.23777573 1.3900001
0.1854656 0.23880211 1.3960001
0.19152655 0.23880209 1.396
0.20607287 0.23880209 1.396
0.21424738 0.23845997 1.3940001
0.22543375 0.23683174 1.3925717
0.23403807 0.23790668 1.3936001
0.24701783 0.23854551 1.3945
0.25643274 0.23647323 1.393
0.26400852 0.23742622 1.3915002
0.27395567 0.23880209 1.396
0.2848562 0.23765358 1.3940001
0.29548553 0.23508008 1.3912001
0.30339223 0.23570041 1.3920002
0.31547594 0.23730972 1.3920002
0.32537669 0.23707671 1.3930001
0.33505335 0.2349606 1.3930001
0.34473008 0.23465756 1.3930001
0.3537719 0.23479839 1.3924001
0.36330199 0.23536175 1.3900001
0.37456775 0.23395333 1.396
0.38706568 0.23345056 1.3930001
0.39709756 0.2329478 1.3900001
0.40443364 0.23128016 1.3945
0.41418344 0.23167019 1.3920001
0.42499802 0.23204899 1.3926667
0.43451402 0.23053382 1.3900001
0.44416988 0.23113731 1.3900001
0.45481044 0.23345056 1.3930001
0.46580634 0.234235 1.3948001
0.4732886 0.23361814 1.3940001
0.48625714 0.23223837 1.3930001
0.49516422 0.23086552 1.3920001
0.50403976 0.23328297 1.3920002
0.51429021 0.23355113 1.3936001
0.52003098 0.23152894 1.396
-0.39226958 0.24743159 1.3900001
-0.38792443 0.24887998 1.3900002
-0.15499794 0.24641435 1.3945
-0.14606236 0.24780117 1.3948001
-0.13576566 0.24849965 1.396
-0.12515385 0.24909782 1.3933334
-0.11528814 0.24873012 1.3934287
-0.10422904 0.24665657 1.3934287
-0.094146095 0.2461329 1.3936
-0.084671184 0.24675344 1.3930001
-0.075534835 0.2470029 1.3934287
-0.064560011 0.24894828 1.3940001
-0.056109972 0.24877134 1.3917146
-0.045221355 0.24630132 1.395
-0.033871084 0.24675344 1.3930001
-0.023770338 0.24577078 1.3920002
-0.013647721 0.24270464 1.3925717
-0.0040328298 0.24151275 1.393
0.0043173539 0.24201345 1.3925717
0.015030106 0.24270466 1.3925717
0.02297511 0.2423583 1.3925717
0.10983548 0.24018969 1.3900001
0.1158704 0.24018969 1.3900001
0.12463919 0.24129455 1.3936001
0.13668869 0.24191508 1.3930001
0.14646874 0.24168555 1.3940001
0.15466189 0.24105237 1.3915
0.16438593 0.24174228 1.3920002
0.17175895 0.24070808 1.3930001
0.19794527 0.24018969 1.3900001
0.20518717 0.24018969 1.3900001
0.23656875 0.24018969 1.3900001
0.24455857 0.24053529 1.3920002
0.2667433 0.24018969 1.3900001
0.2751922 0.24018969 1.3900001
-0.73258901 0.25852326 1.3945
-0.72635651 0.25884932 1.393
-0.40474176 0.25386882 1.3900002
-0.39830452 0.25346649 1.3900001
-0.7454989 0.26062158 1.396
-0.73288846 0.26148412 1.3920001
-0.72393477 0.26157156 1.3930001
-0.71883065 0.26304597 1.396
0.73605776 0.20690018 1.40575
0.74542338 0.20813274 1.4050001
0.75113785 0.20817597 1.4020001
0.76603413 0.20647493 1.4070001
0.7733646 0.20647492 1.4070001
0.52591825 0.21791521 1.4020001
0.53403693 0.21544588 1.40575
0.5573411 0.21464723 1.4045
0.56688964 0.21380538 1.4070001
0.578076 0.21220374 1.4045
0.58396286 0.21139817 1.4040002
0.59317011 0.21248436 1.4036669
0.60354209 0.21380538 1.4070001
0.42761075 0.22846632 1.4070001
0.43249774 0.22846632 1.4070001
0.51789349 0.22781526 1.406
0.52298009 0.2239345 1.4048573
-0.0036522101 0.23982847 1.4020001
0.017043646 0.23982847 1.4020001
0.020695858 0.23861107 1.4020001
0.11687072 0.23861107 1.4020001
0.12391552 0.23889327 1.4036667
0.14852321 0.23982847 1.4020001
0.15610333 0.2390344 1.4045
0.16409175 0.2391932 1.4040002
0.17652349 0.23982847 1.4020001
0.19721934 0.23982847 1.4020001
0.20470503 0.23943143 1.4032501
0.21869236 0.23824029 1.4070001
0.22035001 0.23739366 1.4020001
0.23659956 0.23781697 1.4045
0.24457882 0.23808168 1.4036669
0.2532199 0.23739366 1.4020001
0.26661134 0.23739366 1.4020001
0.27469379 0.23807096 1.406
0.2855497 0.23673633 1.4053334
0.29461163 0.23495886 1.4020001
0.3059344 0.23523816 1.4036667
0.31420842 0.23648116 1.4048573
0.32501891 0.2347873 1.4042224
0.33324006 0.23375469 1.40575
0.3554818 0.23495886 1.4020001
0.36522102 0.23495886 1.4020001
0.37455449 0.23495886 1.4020002
0.38294414 0.23537782 1.4045
0.39828888 0.2333533 1.4070001
0.40052572 0.23252404 1.4020001
0.41756937 0.23008923 1.4020001
0.42609119 0.23008923 1.4020001
0.43704781 0.23008923 1.4020001
0.45587799 0.2322012 1.4030001
0.46587515 0.23212418 1.4045
0.4744122 0.23171693 1.4045001
0.483596 0.23334327 1.4048573
0.49670058 0.23252404 1.4020001
0.50643981 0.23252404 1.4020001
0.51631701 0.23180754 1.4042224
0.52226603 0.23008923 1.4020001
-0.15122503 0.24635181 1.4045
-0.14377841 0.24735323 1.40325
-0.13439195 0.24801424 1.4070001
-0.12371128 0.247173 1.4050001
-0.11491191 0.24606094 1.4028335
-0.10469669 0.24469808 1.4020001
-0.096312061 0.24358277 1.404
-0.085295305 0.24491623 1.40325
-0.074799828 0.24513297 1.4045
-0.066178761 0.24531373 1.4042727
-0.055409126 0.24616806 1.4042224
-0.043940492 0.2453526 1.40575
-0.033454105 0.24588318 1.406
-0.024919432 0.24449737 1.4048573
-0.017076209 0.24269527 1.4045
0.0085370187 0.24147353 1.4045
0.011781259 0.24173677 1.4036667
0.11267321 0.24121028 1.4053334
0.13403486 0.24247926 1.4032501
0.14423162 0.24173677 1.4036669
0.15947984 0.24226327 1.4020001
0.16342512 0.24147353 1.4045
0.1734878 0.24068378 1.4070001
-0.73361641 0.25633743 1.40575
-0.72757286 0.25739312 1.4048573
-0.76359063 0.2626752 1.4070001
-0.75137317 0.2602317 1.4070001
-0.72320747 0.26098672 1.4045
-0.71875256 0.26236403 1.4053334
0.58648449 0.20980932 1.4130001
0.59016538 0.20980932 1.4130001
0.74844259 0.20735539 1.4130001
0.7558043 0.20735539 1.4130001
0.76478374 0.20779565 1.4160001
0.77503049 0.20573248 1.4145001
0.51900196 0.21962495 1.4130001
0.5252884 0.21852148 1.4154001
0.53464168 0.21501486 1.4172858
0.54346555 0.21455693 1.4160001
0.55447429 0.21562888 1.419
0.56250417 0.21416879 1.4175
0.57788539 0.21316455 1.419
0.58034974 0.21316455 1.419
0.59752709 0.21226323 1.4130001
0.60558045 0.21293923 1.4175001
0.42329949 0.2294406 1.4130001
0.43802294 0.22944058 1.4130001
0.48451528 0.22894391 1.4150002
0.51552433 0.22534844 1.4152501
0.52323902 0.222312 1.4145001
0.11819667 0.23680232 1.4130001
0.12536304 0.2359734 1.4154
0.14877677 0.23853204 1.4160001
0.15411858 0.23769532 1.4154001
0.16458391 0.23705111 1.4145001
0.17329243 0.23867689 1.4154001
0.18281631 0.23925623 1.4130001
0.19659069 0.23877345 1.4150002
0.20527141 0.23828496 1.4155716
0.21360324 0.23867689 1.4154001
0.23508738 0.23672679 1.4150002
0.24425337 0.23617712 1.4155716
0.25484249 0.23711388 1.4178002
0.26861197 0.23780786 1.419
0.27578041 0.23691277 1.4166001
0.28443739 0.23566394 1.4160001
0.29446918 0.23434842 1.4130001
0.30431175 0.23468012 1.4150002
0.31543425 0.23534352 1.419
0.32378182 0.23252492 1.4147145
0.33479851 0.23263302 1.4175
0.34377405 0.23534352 1.419
0.3571575 0.23376071 1.4154001
0.36450726 0.23385869 1.4150002
0.37433678 0.23385869 1.4150002
0.3851206 0.23501182 1.4170002
0.39303851 0.23459719 1.4145001
0.40532109 0.23214069 1.4145001
0.41570854 0.23222274 1.4150002
0.44481158 0.23287919 1.419
0.45739374 0.23238686 1.4160001
0.46567762 0.23140129 1.4150002
0.47561571 0.23041487 1.419
0.4863835 0.23275155 1.4145001
0.49339831 0.23255096 1.4170002
0.50539958 0.23181203 1.4150002
0.51236099 0.23140129 1.4150002
-0.16141362 0.24766517 1.419
-0.15615934 0.24714157 1.4160001
-0.14477706 0.24654399 1.4154001
-0.13494113 0.24494982 1.4162728
-0.1261013 0.24457565 1.4154
-0.1159008 0.24532764 1.4150002
-0.10563406 0.24442324 1.4145001
-0.086164288 0.24494165 1.4175001
-0.07423237 0.24266471 1.4170001
-0.063971639 0.24234903 1.4167501
-0.054044634 0.24442326 1.4145001
-0.043443587 0.243861 1.4160001
-0.034945332 0.24355225 1.4155716
-0.02747841 0.24321237 1.4170002
-0.013553816 0.24273652 1.419
-0.0053376453 0.24239439 1.4170002
0.0073799649 0.24099116 1.4160001
0.012713268 0.2407515 1.4170002
0.10966269 0.24027218 1.419
0.11335918 0.24027218 1.419
0.13476671 0.24124053 1.4164288
0.14509068 0.24099116 1.4160001
0.1761996 0.24027218 1.419
0.19098558 0.24027218 1.419
-0.7602458 0.25875467 1.419
-0.75388962 0.25785074 1.4154001
-0.74622315 0.25843251 1.4150002
-0.73633975 0.25486279 1.4145001
-0.72526419 0.2585263 1.4169999
-0.77503181 0.2649155 1.419
-0.76620603 0.26278719 1.4175001
-0.75703126 0.26134142 1.4130001
-0.72267652 0.26134142 1.4130001
-0.71776867 0.26134142 1.4130001
0.75727355 0.20664163 1.4250001
0.77212203 0.20664163 1.4250001
0.524647 0.21839669 1.4250001
0.53330868 0.21489081 1.4250001
0.54691976 0.21406588 1.4250001
0.55434406 0.21406588 1.4250001
0.56176829 0.21406588 1.4250001
0.57414198 0.21406588 1.4250001
0.59765214 0.21159112 1.4250001
0.46401563 0.22891438 1.4250001
0.47391465 0.22891438 1.4250001
0.4862884 0.22891438 1.4250001
0.50856113 0.22891438 1.4250001
0.51450056 0.22445984 1.4250001
0.008661625 0.23881339 1.4250001
0.012373751 0.23881339 1.4250001
0.11755063 0.23757601 1.4250001
0.1336365 0.23757601 1.4250001
0.14724763 0.23881339 1.4250001
0.15962137 0.23633863 1.4250001
0.168283 0.23633863 1.4250001
0.17611973 0.23798847 1.4250001
0.18436889 0.23881339 1.4250001
0.19550526 0.23757601 1.4250001
0.20540425 0.23633863 1.4250001
0.21654063 0.23798847 1.4250001
0.22520226 0.23881339 1.4250001
0.23386388 0.23633865 1.4250001
0.24871238 0.23633863 1.4250001
0.25489926 0.23633863 1.4250001
0.26479828 0.23881339 1.4250001
0.27469724 0.23633863 1.4250001
0.28459626 0.23510125 1.4250001
0.29325789 0.23386388 1.4250001
0.30810639 0.23633863 1.4250001
0.32295489 0.2326265 1.4250001
0.34770238 0.23386388 1.4250001
0.35265189 0.23510125 1.4250001
0.36873776 0.23386388 1.4250001
0.37863678 0.23386388 1.4250001
0.38606101 0.23386388 1.4250001
0.39620748 0.23336892 1.4250001
0.40338427 0.2326265 1.4250001
0.41699538 0.23386388 1.4250001
0.44669241 0.2326265 1.4250001
0.45560151 0.23287396 1.4250001
0.46525303 0.23138914 1.4250001
0.49536249 0.23138914 1.4250001
0.50484902 0.23200783 1.4250001
-0.17570725 0.24871238 1.4250001
-0.15467188 0.247475 1.4250001
-0.14642273 0.24623764 1.4250001
-0.138586 0.2425255 1.4250001
-0.12250013 0.24376288 1.4250001
-0.11631325 0.24623764 1.4250001
-0.081666753 0.24376288 1.4250001
-0.054444503 0.24376288 1.4250001
-0.044957958 0.24293797 1.4250001
-0.03505896 0.24211304 1.4250001
-0.022272751 0.24376288 1.4250001
-0.018560626 0.24376288 1.4250001
-0.0012373751 0.24128813 1.4250001
0.006186875 0.24128813 1.4250001
0.13982338 0.24128813 1.4250001
0.14353549 0.2425255 1.4250001
0.18931837 0.24128813 1.4250001
-0.76511025 0.25778645 1.4250001
-0.75603616 0.25737399 1.4250001
-0.74737453 0.25613663 1.4250001
-0.73458833 0.25613663 1.4250001
-0.72324568 0.25551796 1.4250001
-0.77459681 0.26356089 1.4250001
-0.76717252 0.26108614 1.4250001
0.56406587 0.20918933 1.434
0.7542491 0.20751171 1.4310001
0.76543236 0.20689042 1.4310001
0.7753731 0.20751171 1.4310001
0.78626108 0.20435183 1.4350002
0.51444179 0.21596728 1.4352001
0.52364314 0.21590786 1.4342729
0.53259683 0.2145934 1.4347501
0.54233104 0.21270476 1.4325001
0.55533344 0.21251746 1.4346001
0.56354302 0.21179432 1.4335716
0.57403004 0.2116797 1.434
0.58584756 0.21315022 1.4355
0.5902279 0.21248204 1.4310001
0.605165 0.21292749 1.434
0.61313528 0.21251746 1.4346001
0.38432086 0.2283465 1.437
0.39596522 0.22911236 1.434
0.4005422 0.2283465 1.437
0.45683625 0.22810553 1.4355
0.46441492 0.22773692 1.4331818
0.47404033 0.228297 1.4347502
0.4833656 0.22987823 1.4310001
0.49468172 0.22885707 1.4350002
0.50536507 0.22683559 1.434375
0.51200438 0.22400947 1.4323334
0.012011657 0.23567697 1.4310001
0.1155604 0.23981892 1.4310001
0.12301591 0.23484857 1.4310001
0.13539489 0.23712952 1.4358002
0.14487188 0.23862687 1.4358002
0.15440096 0.23783129 1.4340001
0.16096556 0.23583326 1.437
0.17464495 0.23643346 1.4346001
0.18476781 0.2366907 1.4335716
0.19358434 0.23792873 1.4346001
0.20463839 0.23583326 1.437
0.21547928 0.23647635 1.4344288
0.22537678 0.23658352 1.434
0.23384696 0.23509474 1.4325001
0.24431385 0.23558709 1.4355001
0.25460318 0.23633341 1.4350002
0.26628485 0.2368336 1.4330001
0.27476758 0.23575513 1.434
0.2855283 0.23424421 1.4334002
0.29547629 0.23363984 1.4358002
0.30414546 0.23496321 1.4355001
0.31627306 0.23534091 1.4340001
0.32272565 0.23301291 1.4350002
0.33301279 0.2323634 1.4310001
0.34543866 0.23484857 1.4310001
0.35761529 0.23301291 1.4350002
0.36587593 0.23205915 1.4322001
0.37540025 0.23171143 1.4335715
0.38428923 0.23171143 1.4335716
0.39347744 0.23160276 1.434
0.40510094 0.23160276 1.4340003
0.41253823 0.2323634 1.4310001
0.4242503 0.23333767 1.437
0.4485732 0.2323634 1.4310001
0.45449442 0.23160276 1.4340003
0.49683082 0.23160274 1.434
0.50324696 0.2323634 1.4310001
-0.17718689 0.24831121 1.437
-0.16351716 0.24636266 1.4347501
-0.15578683 0.24587592 1.4352859
-0.14538246 0.24478927 1.4310001
-0.13295659 0.24230409 1.4310001
-0.12438745 0.24317937 1.4325001
-0.11729273 0.24581562 1.437
-0.093486942 0.24618033 1.4355001
-0.084760189 0.24431124 1.4355001
-0.077204391 0.24281207 1.434
-0.062129252 0.24230409 1.4310001
-0.054727145 0.24255808 1.4325001
-0.046107631 0.2429814 1.4350002
-0.032307211 0.24230409 1.4310001
-0.024873843 0.24255808 1.4325001
-0.014673966 0.24200816 1.4322002
-0.0052334457 0.2416195 1.4358
0.0029045753 0.24347113 1.4330001
0.14246485 0.24131767 1.4350002
-0.77325779 0.2589969 1.434
-0.76525438 0.25591433 1.4330001
-0.75707293 0.25713044 1.4340001
-0.74927878 0.25472993 1.4310001
-0.73188257 0.25721511 1.4310001
-0.72691226 0.25721511 1.4310001
-0.71945673 0.25472993 1.4310001
-0.78341985 0.2623834 1.4355
-0.7774297 0.26183638 1.4325001
0.56259924 0.20925184 1.4430001
0.61773151 0.20925184 1.4430001
0.76308006 0.20799884 1.4430001
0.77883512 0.20760548 1.4490001
0.78333801 0.20591597 1.4447144
0.79519188 0.20257261 1.4490001
0.50812501 0.21761467 1.4438573
0.51247907 0.21175785 1.4430001
0.5261032 0.2128246 1.4460001
0.5359996 0.21263835 1.4490001
0.54572582 0.21234486 1.4470003
0.55592114 0.21296345 1.4478
0.58511686 0.21219811 1.4460001
0.59202927 0.21197797 1.4445
0.60469609 0.21246223 1.4478
0.61474925 0.21127959 1.4466002
0.75870365 0.21012191 1.4490001
0.38592553 0.22929992 1.4430001
0.39708057 0.22692713 1.4438573
0.40589079 0.22817145 1.4454002
0.45734686 0.22804692 1.4430001
0.46235886 0.22679392 1.4430001
0.48867196 0.22929992 1.4430001
0.49797964 0.2274226 1.4470003
0.50386238 0.22369525 1.44525
-0.16557251 0.23894364 1.4445
-0.15741755 0.23894362 1.4445002
0.11778247 0.23807096 1.4430001
0.12959614 0.23780264 1.4490001
0.13908356 0.23681796 1.4430001
0.14534858 0.23681796 1.4430001
0.15537262 0.23681796 1.4430001
0.16664967 0.23681796 1.4430002
0.17917971 0.23681796 1.4430001
0.18168573 0.23681796 1.4430001
0.19421577 0.23681796 1.4430002
0.20508906 0.23528621 1.4490001
0.21512353 0.23437968 1.4460001
0.22501469 0.23379788 1.4450001
0.23580852 0.23455551 1.4445
0.25649819 0.2358989 1.4466002
0.26479369 0.23498923 1.44525
0.27453464 0.23365104 1.4455714
0.28482985 0.23379789 1.4450001
0.29442233 0.23276979 1.4490001
0.30417153 0.23378444 1.4475
0.31404266 0.23559256 1.4478003
0.32503891 0.2336086 1.4490001
0.33463395 0.23328385 1.4470003
0.34600914 0.23528621 1.4490001
0.35481665 0.23528621 1.4490001
0.36450076 0.23252882 1.4475002
0.374387 0.23056388 1.4478
0.38968456 0.23180594 1.4430001
0.4164314 0.23267341 1.4445
0.42439878 0.23354086 1.4460001
0.45295739 0.23276979 1.4490001
0.48567098 0.23025335 1.4490001
-0.18534838 0.24850251 1.4464289
-0.17437321 0.24584863 1.4470001
-0.16672784 0.24305435 1.4436666
