# .PCD v0.7 - Point Cloud Data file format
VERSION 0.7
FIELDS x y z
SIZE 4 4 4
TYPE F F F
COUNT 1 1 1
WIDTH 1541
HEIGHT 1
VIEWPOINT 0 0 0 1 0 0 0
POINTS 1541
DATA ascii
-0.0420269 0.25100696 1.3445001
-0.035060044 0.25124031 1.3457501
-0.73232955 0.26173913 1.3436668
-0.45223257 0.26117146 1.3457501
-0.4468044 0.26083085 1.3470001
-0.42224187 0.26317012 1.3470001
-0.41873294 0.26083085 1.3470001
0.72441983 0.20871782 1.3580002
0.53808826 0.21907416 1.3540001
0.54475939 0.21796165 1.3550001
0.55533963 0.21759915 1.3545716
0.56365603 0.2169722 1.358
0.57535076 0.21531628 1.355
0.58370233 0.21343462 1.3580002
0.70791399 0.21249159 1.3520001
0.71542042 0.21101198 1.3554286
0.72552377 0.21073061 1.3520001
0.73559558 0.21290275 1.3565
0.74348348 0.2152034 1.358
0.52711046 0.22943538 1.355
0.53489637 0.22510023 1.3561538
0.18159628 0.23937693 1.358
0.20753862 0.23937693 1.358
0.21461381 0.23937693 1.358
0.22462533 0.23874235 1.3544002
0.23440602 0.23753665 1.3520001
0.24591288 0.23649493 1.355
0.25520322 0.23639022 1.3544
0.26532099 0.23597133 1.3520001
0.27621555 0.23734373 1.3565001
0.2849164 0.23827878 1.3540001
0.29414535 0.23766892 1.355
0.30415982 0.23791292 1.3554288
0.31130791 0.23937693 1.358
0.33767924 0.23767152 1.355
0.35965499 0.23466015 1.358
0.36510986 0.23362337 1.3520001
0.37550688 0.23446955 1.3535001
0.38399222 0.23793334 1.3565001
0.39424476 0.23780468 1.3580002
0.44141901 0.23362336 1.3520001
0.48250854 0.23127538 1.3520001
0.5224241 0.23127538 1.3520001
-0.14718598 0.24844407 1.3560002
-0.13970442 0.2477112 1.3520001
-0.12236293 0.24826086 1.355
-0.11202369 0.2488105 1.358
-0.10532954 0.24811898 1.3568
-0.095551118 0.24750309 1.3530002
-0.084804475 0.24853566 1.3565001
-0.075389132 0.24853569 1.3564999
-0.065889135 0.24767125 1.355
-0.012971165 0.2488105 1.3580002
-0.0047063665 0.24649467 1.355
0.0052013174 0.24451104 1.3528574
0.013392827 0.24370053 1.3532002
0.10871765 0.24451689 1.3559999
0.11542972 0.24382409 1.3564999
0.12443078 0.24156408 1.3544
0.13442877 0.24224937 1.3556002
0.1450412 0.24645212 1.358
0.15513948 0.24445885 1.3535001
0.16236705 0.24355447 1.355
0.17554088 0.24152172 1.3568
0.18590409 0.24237703 1.355
0.19499716 0.24277484 1.3562857
0.20392776 0.24156408 1.3544
0.2113176 0.24066727 1.3520001
0.31580243 0.24066727 1.3520001
0.32506523 0.24173532 1.3580002
0.33135426 0.24173532 1.358
-0.74171472 0.25824407 1.358
-0.73536462 0.25884756 1.3550003
-0.72638518 0.25824407 1.358
-0.47049949 0.25588569 1.358
-0.46475375 0.2564944 1.3550003
-0.4551954 0.25532764 1.3540001
-0.44595855 0.25620276 1.3545001
-0.43292996 0.2566357 1.3557501
-0.42510152 0.25546998 1.3542501
-0.40591371 0.25532562 1.355
-0.39480236 0.25825724 1.3556
-0.384065 0.2566973 1.3540001
-0.37643811 0.25637266 1.3556002
-0.36709401 0.2553204 1.355
-0.34867406 0.25710309 1.3520001
-0.16209815 0.25236779 1.3559999
-0.15558855 0.2516031 1.3540001
-0.14792232 0.25005916 1.3520001
-0.11387671 0.25005916 1.3520001
-0.035722077 0.250799 1.3559999
-0.021176046 0.25061405 1.355
-0.017609801 0.25005916 1.3520001
-0.43866116 0.26060247 1.358
-0.4238092 0.26179904 1.3520001
0.71840781 0.20948629 1.363
0.72427636 0.207783 1.3651429
0.73409647 0.2084593 1.3651429
0.7447297 0.20772532 1.367
0.53824311 0.21869814 1.3663334
0.54423839 0.21609388 1.3655
0.55548495 0.21579789 1.364
0.56780666 0.21738204 1.368
0.57550704 0.21606046 1.3646667
0.58520305 0.21263942 1.3642501
0.71542192 0.21078764 1.3663334
0.74561352 0.21218397 1.3651429
0.75192809 0.21144265 1.368
0.49116841 0.22842291 1.363
0.52904165 0.22842291 1.363
0.53353715 0.2248352 1.3658572
0.12947892 0.23876388 1.368
0.17857796 0.23797196 1.368
0.18500502 0.2375906 1.364
0.19481233 0.23876388 1.368
0.20550326 0.2387639 1.368
0.21460903 0.23793159 1.3655
0.22575 0.2375906 1.3640001
0.23502311 0.23818211 1.3646667
0.2418825 0.23832755 1.3655
0.27576444 0.23789121 1.363
0.28693947 0.23713967 1.3655
0.29513174 0.23634315 1.365
0.30174845 0.23688917 1.3663334
0.31362236 0.23739019 1.3646668
0.32547915 0.23876388 1.368
0.33520171 0.23793967 1.3660001
0.34207386 0.23536219 1.3655
0.35439202 0.23586975 1.365
0.36334628 0.23315705 1.363
0.3799158 0.23315705 1.363
0.38635418 0.23664378 1.3640001
0.39389572 0.23688915 1.3663334
0.42725739 0.23789123 1.3630002
0.43595198 0.23638813 1.368
0.44070348 0.23638813 1.368
0.48732215 0.23240118 1.3655
0.49116841 0.23078999 1.363
0.50773793 0.23552413 1.363
0.51010501 0.23552413 1.363
0.52407694 0.23240118 1.3655
-0.16487393 0.24885081 1.3660001
-0.15176861 0.24899676 1.3655
-0.148485 0.24826692 1.368
-0.11500511 0.24899676 1.3655
-0.10467759 0.24766199 1.3646667
-0.081963725 0.24826692 1.368
-0.076024316 0.24826692 1.368
-0.064388081 0.24766199 1.3646667
-0.053892415 0.24855886 1.367
-0.048525073 0.24972659 1.363
-0.035571277 0.24899676 1.3655
-0.027263064 0.24914272 1.365
-0.014954263 0.24855886 1.367
-0.0051373499 0.24638061 1.3663334
0.0051460331 0.24400775 1.3663334
0.014212228 0.24284789 1.3642501
0.10789954 0.2418825 1.3655
0.11501378 0.24188252 1.3655
0.12557121 0.24047862 1.3642499
0.13583322 0.24108425 1.365
0.14445414 0.24348629 1.3666364
0.15423627 0.24440371 1.3663334
0.16580379 0.24297111 1.3671668
0.17532107 0.24047862 1.3642499
0.18699907 0.24025829 1.363
0.19353518 0.24090798 1.364
0.20197673 0.24107039 1.3642499
0.31718829 0.24025829 1.363
0.32547897 0.24108425 1.365
0.33257431 0.24025831 1.3630002
-0.74207854 0.25801137 1.363
-0.73587608 0.25793093 1.3646667
-0.46513057 0.25446075 1.363
-0.45447874 0.25327721 1.363
-0.44337747 0.25478235 1.3660001
-0.43594104 0.25340697 1.365
-0.42882469 0.25301844 1.368
-0.41248411 0.25349921 1.3663334
-0.40522534 0.25521597 1.3660771
-0.39480147 0.25663123 1.367
-0.38662252 0.2552498 1.3630002
-0.37500143 0.25355574 1.3652222
-0.36499265 0.25434572 1.3652223
-0.3534919 0.25568005 1.367
-0.34734476 0.25444624 1.3665715
-0.16333032 0.25112635 1.3663334
-0.15700364 0.25112635 1.3663334
-0.11641224 0.25064269 1.368
-0.04347641 0.25159299 1.368
-0.034322612 0.25209367 1.363
-0.023331251 0.25112635 1.3663334
0.72357059 0.208499 1.3773334
0.74344575 0.20797321 1.3765001
0.75478113 0.20875226 1.3790001
0.53500724 0.21813262 1.3783749
0.54373884 0.21504188 1.3777502
0.554663 0.21461758 1.3756669
0.564161 0.2151448 1.3765001
0.57486796 0.21647173 1.3773335
0.58328521 0.2147471 1.3765001
0.59272867 0.21194541 1.3790001
0.71715438 0.21156117 1.3765001
0.7528398 0.21117693 1.3740001
0.52726912 0.22791117 1.3790001
0.53304988 0.22391331 1.3768573
0.10857119 0.23981109 1.3740001
0.11583502 0.23943055 1.3752501
0.12240136 0.23943055 1.3752501
0.13601226 0.23981109 1.3740001
0.17538424 0.23981109 1.3740001
0.19924603 0.23742491 1.3740001
0.20479433 0.23824775 1.3760002
0.21237002 0.23742491 1.3740001
0.22788019 0.23742491 1.3740001
0.23828891 0.23828891 1.3790001
0.27900159 0.23828891 1.3790001
0.28395545 0.23623183 1.3740001
0.29576564 0.23589404 1.3790001
0.35673392 0.23503874 1.3740001
0.36335713 0.23546639 1.3765001
0.38656116 0.23503874 1.3740001
0.39252663 0.23503874 1.3740001
0.40473193 0.23828891 1.3790001
0.41071907 0.23589404 1.3790001
0.42696938 0.23800091 1.3773335
0.43479103 0.23642796 1.3761429
0.44534302 0.23520981 1.3750001
0.45576042 0.23503874 1.3740001
0.46580094 0.23589404 1.3790001
0.47657782 0.23589404 1.3790001
0.48437226 0.23481068 1.3773334
0.49035999 0.23265256 1.3740001
0.50811023 0.23429748 1.3790001
0.51395786 0.23546639 1.3765001
0.52528876 0.23332901 1.3779999
0.53069365 0.23068535 1.3765001
-0.44025022 0.24935582 1.3740001
-0.38198072 0.24786836 1.3790001
-0.37633309 0.24756734 1.3773335
-0.36342049 0.24726965 1.3790001
-0.35467228 0.2477887 1.3752501
-0.34957537 0.24935582 1.3740001
-0.16375183 0.24622048 1.3765001
-0.15627873 0.24801445 1.3764999
-0.12288827 0.24935582 1.3740001
-0.11453664 0.24935582 1.3740001
-0.10631672 0.24726921 1.3756669
-0.096640296 0.24935582 1.3740001
-0.085977376 0.24898395 1.3752501
-0.072915256 0.24861209 1.3765001
-0.061069015 0.24786836 1.3790001
-0.051489562 0.24786836 1.3790001
-0.04560338 0.24816372 1.3768573
-0.035792701 0.24696964 1.3740001
-0.024027495 0.24753921 1.3771819
-0.014517293 0.24645683 1.3768573
-0.00657502 0.24622157 1.3765001
0.0047810432 0.24383323 1.3765001
0.014326849 0.24241762 1.3752501
0.11136115 0.24068378 1.3790001
0.12812519 0.24068378 1.3790001
0.13650721 0.24068378 1.3790001
0.14669658 0.2409865 1.3780001
0.15449589 0.24248964 1.3756669
0.1651247 0.24207087 1.3760002
0.17243016 0.24068378 1.3790001
0.25026321 0.24068378 1.3790001
-0.75318456 0.25984269 1.3790001
-0.74839479 0.25984269 1.3790001
-0.7373296 0.25890052 1.3740001
-0.45218113 0.25174201 1.3740001
-0.4466227 0.25197104 1.3752501
-0.43441531 0.25364107 1.3756669
-0.41280913 0.25174201 1.3740001
-0.4043023 0.25348693 1.3748335
-0.39491281 0.25460544 1.3740001
-0.38466474 0.2526775 1.3762224
-0.37352949 0.25089699 1.3768573
-0.36405024 0.25249147 1.3755
-0.35749272 0.2533468 1.374625
-0.1209406 0.25026321 1.3790001
-0.11854574 0.25026321 1.3790001
-0.092202239 0.25026321 1.3790001
-0.046699837 0.25026321 1.3790001
-0.7328282 0.26343498 1.3790001
-0.72684109 0.26543069 1.3790001
-0.71726161 0.2646324 1.3790001
0.72759825 0.20805702 1.3850001
0.73240882 0.20805702 1.3850001
0.75165105 0.20805702 1.3850001
0.76127219 0.20805702 1.3850001
0.5279597 0.21767814 1.3850001
0.5351755 0.21503237 1.3850001
0.54599935 0.21286759 1.3850001
0.55321521 0.21286759 1.3850001
0.57526362 0.21527287 1.3850001
0.59169972 0.21286759 1.3850001
0.72278768 0.2104623 1.3850001
0.52465248 0.225345 1.3850001
0.53036499 0.22248873 1.3850001
-0.0068149697 0.23852395 1.3850001
0.10944039 0.2393257 1.3850001
0.11184568 0.2393257 1.3850001
0.12627737 0.2393257 1.3850001
0.1527355 0.2393257 1.3850001
0.1671672 0.2393257 1.3850001
0.22369136 0.2393257 1.3850001
0.24253276 0.23852395 1.3850001
0.25496003 0.2393257 1.3850001
0.27781025 0.2393257 1.3850001
0.28582785 0.23772219 1.3850001
0.29544899 0.23692042 1.3850001
0.305471 0.23812306 1.3850001
0.33553705 0.2393257 1.3850001
0.34034759 0.2393257 1.3850001
0.3547793 0.23692042 1.3850001
0.3752242 0.23692042 1.3850001
0.38123742 0.23692042 1.3850001
0.4040876 0.23692042 1.3850001
0.41571316 0.23692042 1.3850001
0.42814046 0.23692042 1.3850001
0.43575716 0.2353169 1.3850001
0.44497743 0.23451513 1.3850001
0.45459858 0.23451513 1.3850001
0.46301708 0.2353169 1.3850001
0.4720369 0.23631909 1.3850001
0.4856267 0.23355304 1.3850001
0.49548838 0.23210984 1.3850001
0.51653457 0.23391381 1.3850001
0.52194649 0.23331249 1.3850001
-0.38725063 0.24774419 1.3850001
-0.15393814 0.24774419 1.3850001
-0.14792493 0.24894683 1.3850001
-0.12146682 0.24894683 1.3850001
-0.1154536 0.24894683 1.3850001
-0.10583247 0.24714287 1.3850001
-0.095008694 0.24894683 1.3850001
-0.084585801 0.24894683 1.3850001
-0.074162908 0.24894683 1.3850001
-0.066145293 0.24894683 1.3850001
-0.055321515 0.24834551 1.3850001
-0.045099065 0.24714287 1.3850001
-0.034876611 0.24654154 1.3850001
-0.022850191 0.24493802 1.3850001
-0.013710116 0.24413626 1.3850001
-0.0053259856 0.24413626 1.3850001
0.003607925 0.2433345 1.3850001
0.1567443 0.24173099 1.3850001
0.16556367 0.24173099 1.3850001
-0.44297302 0.25536093 1.3850001
-0.40288496 0.25375742 1.3850001
-0.39518806 0.25279528 1.3850001
-0.38765153 0.25215387 1.3850001
-0.36440045 0.2513521 1.3850001
-0.14491832 0.25195342 1.3850001
-0.13349323 0.25135213 1.3850001
-0.12748002 0.2513521 1.3850001
-0.095008694 0.2513521 1.3850001
-0.73240888 0.26337856 1.3850001
-0.72471189 0.26482171 1.3850001
0.72539699 0.20880812 1.3900001
0.73232287 0.20779622 1.3940001
0.74281114 0.209409 1.3940001
0.75398427 0.20970945 1.396
0.76160651 0.20880812 1.3900001
0.52588248 0.21760933 1.3922502
0.53304213 0.21394345 1.3920002
0.54676348 0.21363606 1.3900001
0.55520153 0.2126596 1.3915002
0.56487513 0.21349104 1.3930001
0.57456446 0.21493119 1.3945
0.58397537 0.21400492 1.3924001
0.5927009 0.21288495 1.3930001
0.72298306 0.21122208 1.3900001
0.43275303 0.22910455 1.396
0.48851392 0.22910455 1.396
0.51760656 0.22789235 1.396
0.52134633 0.22440374 1.3924001
-0.012121934 0.23880209 1.396
-0.0044377623 0.23811786 1.3920002
0.14625165 0.23811786 1.3920001
0.15449387 0.23777573 1.3900001
0.16052879 0.23777573 1.3900001
0.21846399 0.23777573 1.3900001
0.22579071 0.23748079 1.3930001
0.23167019 0.23730972 1.3920001
0.25585896 0.23749612 1.3912001
0.26547039 0.23880211 1.3960001
0.29615435 0.23523268 1.3940001
0.30492428 0.23673372 1.3924001
0.31019473 0.23777573 1.3900001
0.32486781 0.23880209 1.396
0.33636004 0.2377014 1.3924
0.34458211 0.23721652 1.3924
0.35319984 0.23707671 1.393
0.36448073 0.23612373 1.3945
0.37349796 0.23570041 1.3920001
0.39578113 0.23577161 1.396
0.405141 0.2337817 1.3927693
0.41536051 0.23343867 1.3916365
0.42469019 0.23392335 1.3917146
0.43402025 0.23271134 1.3910002
0.44416988 0.2329478 1.3900001
0.45503274 0.23294781 1.3900002
0.46584597 0.23285365 1.3926668
0.47539529 0.23316216 1.3925002
0.48459581 0.23219757 1.3917146
0.49446088 0.23214315 1.3900001
0.50669682 0.23395333 1.396
0.51489145 0.23297337 1.3942858
0.52012038 0.23103139 1.3930001
-0.16342555 0.24405204 1.3900002
-0.15426676 0.24598861 1.3940001
-0.1451506 0.2485678 1.3930001
-0.13547389 0.2491726 1.393
-0.12515385 0.24829085 1.3933334
-0.11442088 0.2469795 1.3920001
-0.10364543 0.24533351 1.3933334
-0.094573766 0.24585663 1.3931764
-0.084914148 0.24602714 1.3930001
-0.074994482 0.24675344 1.3930001
-0.065317772 0.24675344 1.3930001
-0.055813961 0.24598864 1.3940001
-0.044851154 0.24607526 1.396
-0.034396179 0.24458298 1.3934286
-0.023786834 0.24352786 1.3930001
-0.014810944 0.24208722 1.3922502
-0.00217257 0.24212086 1.3900002
0.0040232781 0.24139667 1.3900002
0.013276817 0.24260366 1.3900001
0.11515837 0.24122648 1.396
0.12673324 0.24018969 1.3900001
0.13547391 0.24070808 1.3930001
0.14483801 0.24018969 1.3900001
0.15811482 0.24018969 1.3900001
0.16294275 0.2401897 1.3900001
0.17501259 0.2401897 1.3900002
0.20001191 0.24122648 1.396
0.23708192 0.24070808 1.3930001
0.24863857 0.24018969 1.3900001
0.26432937 0.2401897 1.3900001
0.2763992 0.24018969 1.3900001
0.31622964 0.24018969 1.3900001
0.32588553 0.24018969 1.3900001
0.33192042 0.24018969 1.3900001
-0.7341851 0.25819719 1.3960001
-0.72587174 0.25863194 1.3940001
-0.40400252 0.25159177 1.3930001
-0.39951149 0.25225952 1.3900001
-0.14363103 0.25225952 1.3900001
-0.13880309 0.25225952 1.3900001
-0.74186236 0.26304597 1.396
-0.73420513 0.26133761 1.3942858
-0.7250241 0.26247758 1.393
-0.7177974 0.26266912 1.3940001
0.73549056 0.20769666 1.4070001
0.74648619 0.20891842 1.4070001
0.75381672 0.20891842 1.4070001
0.76345348 0.20854719 1.4045
0.77214289 0.20891841 1.4070001
0.5176127 0.21787786 1.4070001
0.52541983 0.21696427 1.4048572
0.53464997 0.21422413 1.40575
0.55833751 0.21380538 1.4070001
0.56588459 0.21342549 1.4045
0.57512558 0.21384424 1.40325
0.58417386 0.21250919 1.4045
0.59271091 0.21220374 1.4045
0.60232031 0.21380538 1.4070001
0.50865316 0.22765182 1.4070001
0.51600069 0.224402 1.4040589
0.52226603 0.22156742 1.4020001
-0.10104448 0.23982847 1.4020001
-0.096174866 0.23982847 1.4020002
0.14000139 0.23982847 1.4020001
0.22400221 0.23739366 1.4020001
0.23578075 0.2378141 1.4045
0.24619387 0.23887558 1.4050001
0.25382113 0.23821926 1.404
0.26480752 0.23795807 1.4053334
0.27517089 0.23892094 1.4048572
0.28538036 0.23842457 1.4045
0.29330653 0.23598653 1.4045
0.3059344 0.23523816 1.4036667
0.31486878 0.23740244 1.4036669
0.32492042 0.23615719 1.4046925
0.33403707 0.23619032 1.405
0.3449356 0.23632908 1.4053334
0.35533172 0.23613335 1.4048573
0.36546451 0.23544581 1.4020001
0.37562886 0.23537782 1.4045
0.3859787 0.23724361 1.404
0.39536235 0.23554486 1.4034288
0.40526009 0.23192424 1.40575
0.41587913 0.23171693 1.4045
0.42487374 0.23008923 1.4020001
0.43539232 0.23049952 1.4045
0.44535276 0.23212048 1.4032501
0.45652398 0.23253289 1.4050001
0.46531019 0.23106854 1.4050001
0.47605401 0.23070467 1.40575
0.48527274 0.23144791 1.4053334
0.49670058 0.23252404 1.4020001
0.50571752 0.23171693 1.4045
0.51374227 0.23136842 1.4034287
-0.16127035 0.24557075 1.4070001
-0.14327823 0.24633998 1.4034288
-0.13395658 0.24570692 1.405
-0.12460564 0.24500643 1.4053332
-0.11531626 0.24565512 1.4028333
-0.10445321 0.24275024 1.4020001
-0.094957463 0.24226327 1.4020001
-0.084000833 0.24469808 1.4020001
-0.074799798 0.24438392 1.4030001
-0.065929078 0.24326593 1.4031113
-0.055561297 0.24332921 1.404143
-0.044572324 0.24399993 1.4042224
-0.03342719 0.24326864 1.4050001
-0.026199136 0.24308798 1.4032501
-0.015882686 0.24068378 1.4070001
0.013391438 0.24226329 1.4020002
0.11728752 0.24068378 1.4070001
0.12267792 0.24107864 1.40575
0.13805719 0.24068378 1.4070001
0.16737907 0.24068378 1.4070001
0.18748012 0.24226327 1.4020001
0.19635145 0.24147354 1.4045
0.20403144 0.24068378 1.4070001
0.21869236 0.24068378 1.4070001
0.24312726 0.24068378 1.4070001
0.27477086 0.24186839 1.40325
-0.73499459 0.25692147 1.4045
-0.72625536 0.25793776 1.4045
-0.7194854 0.25930691 1.4020001
-0.40174311 0.25200251 1.4020001
-0.3980909 0.25200251 1.4020001
-0.76603413 0.2626752 1.4070001
-0.74715251 0.26286447 1.4036667
-0.72192019 0.26174173 1.4020001
-0.71742713 0.26232296 1.4051249
0.58648449 0.20980932 1.4130001
0.59016538 0.20980932 1.4130001
0.73985386 0.20735539 1.4130001
0.74663389 0.2076489 1.4150002
0.75654936 0.20823589 1.419
0.76416767 0.20840913 1.4160001
0.77811217 0.20761982 1.419
0.51579654 0.21824561 1.4160001
0.52501953 0.21547845 1.416
0.5360387 0.21416877 1.4175001
0.54425836 0.21450353 1.4170002
0.55447423 0.21562888 1.419
0.56309938 0.21398601 1.419
0.57542109 0.21316455 1.419
0.5811677 0.21256368 1.4150002
0.59755838 0.21148172 1.4160001
0.6074574 0.21439672 1.419
0.42698035 0.22944058 1.4130001
0.43434209 0.22944058 1.4130001
0.48342028 0.22944058 1.4130001
0.50826764 0.22812593 1.4150002
0.51284492 0.22260043 1.4163333
0.11778768 0.23925623 1.4130001
0.12269551 0.23925623 1.4130001
0.14877677 0.23853204 1.4160001
0.1550537 0.23863551 1.4155716
0.16303244 0.23778927 1.4147145
0.19713774 0.23812133 1.4160001
0.20412102 0.23809753 1.4178001
0.21316455 0.23780786 1.419
0.22577217 0.23642895 1.4156667
0.23541735 0.23541906 1.4170002
0.24437049 0.2366877 1.416
0.25408688 0.23617712 1.4155716
0.26984414 0.23780786 1.419
0.27603066 0.2370234 1.4164288
0.28525794 0.23607293 1.4160001
0.29448745 0.23534352 1.419
0.3166078 0.23545945 1.4160001
0.32378501 0.23320481 1.4160001
0.33508202 0.23336893 1.4170002
0.34545064 0.23465164 1.4178002
0.35579798 0.23421295 1.4164287
0.36502251 0.2342536 1.4154001
0.37544823 0.23434842 1.4130001
0.38580573 0.23590708 1.4150002
0.39550102 0.2342536 1.4154001
0.40366822 0.23189452 1.4130001
0.41804782 0.23238686 1.4160001
0.42509693 0.23041487 1.419
0.44604373 0.23164703 1.419
0.45445397 0.23214068 1.4145001
0.46231198 0.23115468 1.4160001
0.475205 0.23041487 1.419
0.48690057 0.23115468 1.4160001
0.49814373 0.23189451 1.4130001
0.50305158 0.23189451 1.4130001
-0.1515563 0.24766517 1.419
-0.13557853 0.24293709 1.4130001
-0.12883028 0.24416405 1.4130001
-0.11557864 0.24468245 1.4160001
-0.10473403 0.24273652 1.419
-0.084949575 0.24499349 1.4178002
-0.075056128 0.24403381 1.4170002
-0.069936439 0.24171014 1.4130001
-0.056562368 0.24222332 1.4160001
-0.041807644 0.24222332 1.4160001
-0.028339796 0.24273652 1.419
-0.001232165 0.24027218 1.419
0.0086251553 0.24520084 1.419
0.11345036 0.24123083 1.4150002
0.12787163 0.24099116 1.4160001
0.13392393 0.24205229 1.4150002
0.14355373 0.24171014 1.4130001
0.16880661 0.24027218 1.419
0.17442301 0.24134023 1.4166001
0.1844366 0.24222332 1.4160001
0.19181137 0.24099116 1.4160001
0.20793894 0.2407515 1.4170002
0.21360324 0.24113496 1.4154001
-0.75285286 0.25998682 1.419
-0.74510813 0.25758892 1.4160001
-0.73442954 0.25498897 1.4147145
-0.7245906 0.25834373 1.4167501
-0.77256751 0.2649155 1.419
-0.76478893 0.26435542 1.4160001
-0.75619978 0.26303574 1.4142002
-0.74966955 0.26134142 1.4130001
-0.71776867 0.26134142 1.4130001
0.75356138 0.20911638 1.4250001
0.76717252 0.20911638 1.4250001
0.77459669 0.20726031 1.4250001
0.78078365 0.20664163 1.4250001
0.51450056 0.21753053 1.4250001
0.524647 0.21468458 1.4250001
0.53454602 0.21406588 1.4250001
0.54691976 0.21406588 1.4250001
0.554344 0.21406588 1.4250001
0.56176829 0.21406588 1.4250001
0.57290471 0.21406588 1.4250001
0.58032888 0.21406588 1.4250001
0.60012692 0.21159112 1.4250001
0.61167574 0.21324097 1.4250001
0.45906615 0.22891438 1.4250001
0.46277827 0.22891438 1.4250001
0.48876315 0.22891438 1.4250001
0.51103592 0.2239649 1.4250001
0.11755063 0.23757601 1.4250001
0.12085031 0.23798847 1.4250001
0.15714663 0.23757601 1.4250001
0.16704562 0.23757601 1.4250001
0.1732325 0.23881339 1.4250001
0.1950928 0.23798847 1.4250001
0.20540425 0.23633863 1.4250001
0.21604566 0.23782349 1.4250001
0.2239649 0.23633865 1.4250001
0.23633863 0.23386388 1.4250001
0.24871238 0.23633863 1.4250001
0.25861138 0.23633863 1.4250001
0.26603565 0.23881339 1.4250001
0.27469724 0.23633863 1.4250001
0.29078314 0.23386388 1.4250001
0.30315688 0.23633865 1.4250001
0.31181851 0.23633863 1.4250001
0.32419226 0.2326265 1.4250001
0.33532864 0.23386388 1.4250001
0.34440273 0.23386388 1.4250001
0.35512665 0.23386388 1.4250001
0.36626303 0.23386388 1.4250001
0.37616199 0.23386388 1.4250001
0.38606101 0.23386388 1.4250001
0.39596003 0.23386388 1.4250001
0.40585899 0.23200783 1.4250001
0.41452062 0.2326265 1.4250001
0.44792974 0.2326265 1.4250001
0.45535401 0.23138914 1.4250001
0.46566552 0.23138914 1.4250001
0.47515202 0.23138914 1.4250001
0.49618742 0.23138914 1.4250001
0.50608641 0.23138914 1.4250001
-0.15714663 0.24871238 1.4250001
-0.080429375 0.24376288 1.4250001
-0.076717257 0.24376288 1.4250001
0.0148485 0.24376288 1.4250001
0.10765163 0.24128813 1.4250001
0.11136375 0.24128813 1.4250001
0.12992437 0.24128813 1.4250001
0.1336365 0.24128813 1.4250001
0.14601025 0.24128813 1.4250001
0.17818201 0.24128813 1.4250001
0.18560626 0.24128813 1.4250001
0.217778 0.24128813 1.4250001
0.22149013 0.24128813 1.4250001
-0.76098567 0.25861138 1.4250001
-0.75108665 0.25861138 1.4250001
-0.74861187 0.25613663 1.4250001
-0.73128867 0.25613663 1.4250001
-0.7263391 0.25696155 1.4250001
-0.77707148 0.26356089 1.4250001
-0.7634604 0.2623235 1.4250001
-0.75851089 0.26108614 1.4250001
0.56377345 0.20908055 1.43325
0.57024235 0.20838177 1.437
0.75581992 0.20794675 1.434
0.76525784 0.20780174 1.4330001
0.7760759 0.20703553 1.4346002
0.78570485 0.20457104 1.4352858
0.51392746 0.21484965 1.4343752
0.52261162 0.21319148 1.4330001
0.53237993 0.21270476 1.4325001
0.54233104 0.21270476 1.4325001
0.55452031 0.21251154 1.434
0.56335884 0.21216111 1.4322002
0.57443291 0.2118282 1.4350002
0.58396804 0.21337295 1.437
0.59021747 0.21292749 1.434
0.60390931 0.2116797 1.434
0.61363858 0.21151924 1.4346002
0.39886978 0.22987823 1.4310001
0.45629445 0.22926556 1.4334002
0.46388167 0.22686833 1.4344288
0.47125059 0.22751462 1.437
0.48833591 0.22987823 1.4310001
0.49468172 0.22885707 1.4350002
0.50533897 0.22732738 1.434231
0.51055062 0.22495258 1.4335716
0.10686231 0.23981892 1.4310001
0.11518399 0.23844999 1.434
0.1253701 0.23775725 1.4335715
0.13323532 0.23907387 1.4340003
0.14624523 0.23892489 1.4346001
0.15440097 0.23783129 1.4340001
0.16429302 0.23666513 1.437
0.17514822 0.23842786 1.4346002
0.18459149 0.23800914 1.4337274
0.19383632 0.23741363 1.4340003
0.20388971 0.23533414 1.4370002
0.2154793 0.23612133 1.4344288
0.2249079 0.23484859 1.4310001
0.23484857 0.23484857 1.4310001
0.24540301 0.2354394 1.4346002
0.25472993 0.23484859 1.4310001
0.26522288 0.23658352 1.434
0.27496123 0.23591924 1.4350002
0.28579456 0.23484857 1.4310001
0.29697782 0.23484859 1.4310001
0.30630893 0.2365835 1.434
0.31627306 0.23534091 1.4340001
0.32374421 0.23285054 1.4340001
0.33472604 0.23268816 1.4330001
0.34419605 0.23484857 1.4310001
0.35413674 0.23484857 1.4310001
0.36359289 0.23285054 1.4340001
0.37412143 0.23310237 1.4330001
0.38434607 0.23201868 1.434
0.39410135 0.2319134 1.4340001
0.40435907 0.2314506 1.4346001
0.42490244 0.23301291 1.4350002
0.45105836 0.2323634 1.4310001
0.47416213 0.23084208 1.437
0.48664007 0.23084208 1.437
0.49787021 0.23084208 1.437
0.50324696 0.2323634 1.4310001
-0.73245567 0.24831121 1.437
-0.72996008 0.24831121 1.437
-0.17094792 0.24831121 1.437
-0.16368909 0.24662186 1.4362501
-0.15453644 0.24675134 1.4352001
-0.14428705 0.24690971 1.4325001
-0.13199274 0.24530244 1.434
-0.12638548 0.24467854 1.4340001
-0.092146665 0.24530244 1.434
-0.085738376 0.24478927 1.4310001
-0.063637547 0.24581562 1.437
-0.052407391 0.24581562 1.437
-0.04741621 0.24581562 1.437
-0.034792379 0.24478926 1.4310001
-0.02363864 0.24513137 1.4330001
-0.014496826 0.24313247 1.4310001
-0.0062311599 0.24281207 1.434
0.0087163299 0.24405465 1.434
0.013697091 0.24239439 1.4340003
0.11354935 0.24082445 1.437
0.13821609 0.24156427 1.434
0.14195167 0.24156427 1.434
-0.78322452 0.2589969 1.434
-0.76549405 0.25876248 1.4350002
-0.75700521 0.25814146 1.4334002
-0.74555099 0.25472993 1.4310001
-0.73455876 0.25383815 1.4330001
-0.72843444 0.2548463 1.4340003
-0.782107 0.26208645 1.4350002
-0.7759034 0.26270229 1.4352001
-0.76916015 0.26218545 1.4310001
0.61773151 0.20925184 1.4430001
0.6202687 0.20842865 1.4460001
0.75383627 0.20884024 1.4445
0.76308006 0.20925184 1.4430001
0.78457654 0.20474935 1.4466002
0.79283446 0.20229301 1.4470003
0.50865233 0.21733777 1.4440001
0.51318592 0.21205136 1.4450001
0.52735364 0.21219811 1.4460001
0.53433377 0.21197797 1.4445
0.54606533 0.21263835 1.4490001
0.55661649 0.21234486 1.4470003
0.5624221 0.21012191 1.4490001
0.58510125 0.21278527 1.4466002
0.59202927 0.21197797 1.4445
0.60352033 0.21234486 1.4470003
0.61463028 0.21116 1.4475002
0.76373655 0.21012191 1.4490001
0.39653051 0.22898732 1.4441999
0.40338063 0.22817142 1.4454001
0.45955068 0.22726542 1.4460001
0.46235886 0.22679392 1.4430001
0.47739494 0.22846459 1.4430002
0.48741898 0.22929993 1.4430002
0.49638018 0.22684601 1.4460001
0.50457764 0.2234183 1.4455003
-0.16539666 0.23932396 1.4430001
-0.15913165 0.23932396 1.4430001
0.0087710349 0.23807096 1.4430001
0.01503606 0.23932396 1.4430001
0.10775843 0.23932396 1.4430001
0.11277045 0.23932396 1.4430001
0.12655351 0.23681796 1.4430001
0.13619201 0.23751609 1.4441999
0.14471452 0.23751609 1.4441999
0.15537262 0.23681796 1.4430001
0.16825435 0.23731029 1.4460001
0.1754207 0.23681796 1.4430001
0.18168573 0.23681796 1.4430001
0.19296277 0.23681796 1.4430001
0.20507342 0.23455551 1.4445
0.21551687 0.23431194 1.4430001
0.22554091 0.23431194 1.4430001
0.23547205 0.23463671 1.4450001
0.25506166 0.23496145 1.4470003
0.2655243 0.23428887 1.447286
0.27431434 0.2340848 1.4478003
0.28513551 0.2348965 1.4466
0.29570919 0.23431194 1.4430001
0.30594862 0.23521501 1.4460001
0.31404266 0.23559256 1.4478
0.32503888 0.2336086 1.4490001
0.33468521 0.23276979 1.4490001
0.34600914 0.23528621 1.4490001
0.35607487 0.23528621 1.4490001
0.36638543 0.23315793 1.4475002
0.37590149 0.23180594 1.4430001
0.3877117 0.23128842 1.4450001
0.39130488 0.23025335 1.4490001
0.4149726 0.23228526 1.4460001
0.42439878 0.23354086 1.4460001
0.45526284 0.23160969 1.4470003
0.48391092 0.23128842 1.4450001
-0.73801994 0.249348 1.4430001
-0.17440562 0.24717891 1.4450002
-0.16628604 0.2427808 1.4441999
-0.15569304 0.2426447 1.4460001
-0.14623094 0.24599053 1.4464289
-0.13479573 0.24423909 1.4454001
-0.12523016 0.24361409 1.4470001
-0.11727971 0.2464695 1.4445
-0.092561737 0.24417448 1.4470003
-0.086161248 0.24383584 1.4450001
-0.078009337 0.24535193 1.4490001
-0.065363362 0.24509794 1.4475002
-0.054369822 0.24383584 1.4450001
-0.045108177 0.24433598 1.4430001
-0.03508414 0.24433598 1.4430001
-0.024275996 0.24400517 1.4460001
-0.015951904 0.2424738 1.4447143
-0.0047655869 0.2422301 1.4454001
0.0051969751 0.24498279 1.4447143
0.01130049 0.24107453 1.4460001
-0.79141724 0.25667587 1.4490001
-0.78446019 0.25785419 1.4470001
-0.77448153 0.25753096 1.4467502
-0.76519531 0.25631985 1.4470003
-0.75520045 0.2542454 1.4464288
-0.74509519 0.25506511 1.4470003
-0.73402613 0.25424543 1.4464288
-0.72571337 0.25677803 1.4456668
0.54453617 0.20846513 1.455
0.59507316 0.2072017 1.455
0.61781484 0.20846513 1.455
0.62034172 0.20846513 1.455
0.75931847 0.20846513 1.455
0.76310873 0.20846513 1.455
0.77447957 0.20846513 1.455
0.78206009 0.20846513 1.455
0.79848462 0.20088458 1.455
0.50663346 0.21773025 1.4550002
0.51168716 0.21604568 1.455
0.53569221 0.21099198 1.455
0.54327273 0.21099198 1.455
0.55590701 0.2122554 1.455
0.56222415 0.21099198 1.455
0.57991207 0.21099198 1.455
0.58496577 0.21099198 1.455
0.59380972 0.21099198 1.455
0.61276114 0.21099198 1.455
0.39671546 0.22867993 1.455
0.4030326 0.2274165 1.455
0.48894548 0.22867993 1.455
0.49526262 0.2274165 1.455
0.50284314 0.2223628 1.455
-0.16045497 0.23878734 1.455
-0.15792812 0.23878734 1.455
0.013897676 0.23878734 1.4550002
0.11749853 0.23878734 1.455
0.12634251 0.23626049 1.455
0.13392305 0.23626049 1.455
0.14403045 0.23626049 1.455
0.15034758 0.23626049 1.455
0.17561609 0.23626049 1.455
0.21857253 0.23373364 1.455
0.22362623 0.23373364 1.455
0.23878734 0.23626049 1.455
0.2463679 0.2362605 1.4550002
0.25521183 0.23499706 1.455
0.26531929 0.23247021 1.455
0.27517399 0.23221754 1.455
0.28553405 0.23373364 1.455
0.29564148 0.23373364 1.455
0.30617005 0.23373364 1.4550002
0.31585628 0.23373364 1.455
0.3234368 0.23373364 1.455
0.34491503 0.23499706 1.455
0.35502243 0.23626049 1.455
0.36512983 0.23373364 1.455
0.37397379 0.23120677 1.455
0.38281778 0.23120677 1.455
0.39039832 0.23120677 1.455
0.42451081 0.23310193 1.455
0.43209136 0.23373364 1.455
0.45356962 0.23289137 1.4550002
-0.17687951 0.24889474 1.455
-0.15287443 0.24257761 1.455
-0.13392305 0.24257761 1.455
-0.12255223 0.24257761 1.455
-0.11497168 0.24763131 1.455
-0.10991798 0.24889474 1.455
-0.096020304 0.24510446 1.455
-0.083386049 0.24384104 1.455
-0.073278651 0.24636789 1.455
-0.064434677 0.24384104 1.4550002
-0.058117554 0.24384104 1.455
-0.045062162 0.24384104 1.4550002
-0.035375901 0.24384104 1.455
-0.025521187 0.24232493 1.455
-0.014739959 0.2413142 1.4550002
-0.0063171252 0.24384104 1.455
0.0031585626 0.24384104 1.455
-0.79216748 0.25521183 1.455
-0.78332353 0.25647527 1.455
-0.77953327 0.25647527 1.455
-0.76563561 0.25394842 1.455
-0.73404998 0.25394842 1.4550002
0.53409535 0.20932478 1.4610001
0.54297578 0.20932478 1.4610001
0.56961715 0.20932478 1.4610001
0.5721544 0.20932478 1.4610001
0.59498984 0.20932478 1.4610001
0.6000644 0.20932478 1.4610001
0.62289977 0.20678751 1.4610002
0.75991237 0.20678751 1.4610001
0.76400483 0.20721212 1.4640001
0.77133012 0.20932478 1.4610001
0.78720587 0.20622137 1.4630002
0.79579365 0.20339841 1.4640001
0.5065074 0.21729088 1.4634001
0.51305085 0.21398513 1.4625001
0.53246725 0.21273212 1.4670001
0.54535156 0.21102324 1.4640001
0.55591482 0.2124421 1.4650002
0.56200534 0.21186206 1.4610001
0.58857894 0.21102324 1.4640001
0.59488565 0.21018443 1.4670001
0.60596728 0.21215209 1.4630002
0.61590666 0.21187767 1.4655001
0.7783193 0.21018443 1.4670001
0.78468859 0.21018443 1.4670001
0.26514474 0.22962295 1.4610001
0.28544289 0.22793142 1.4610002
0.29345936 0.22739653 1.4630002
0.37556964 0.229302 1.4622
0.39708275 0.22835431 1.4610001
0.40850049 0.22835431 1.4610001
0.41258603 0.22855316 1.4650002
0.46051452 0.22962295 1.4610001
0.47004882 0.22801827 1.4670001
0.48588723 0.22962295 1.4610001
0.49581751 0.22603102 1.4635717
0.50234354 0.22306564 1.4646001
-0.16472372 0.23925102 1.4630002
-0.15923063 0.23820902 1.4670001
-0.14903986 0.23820902 1.4670001
-0.02416346 0.23883422 1.4646001
-0.019029526 0.23977202 1.4610001
0.0063431752 0.23977202 1.4610001
0.014601025 0.236844 1.4625001
0.12228912 0.23820902 1.4670001
0.13509569 0.23374778 1.4618573
0.14492136 0.23390557 1.4640001
0.15509129 0.23708497 1.4640001
0.17488322 0.23755953 1.4630002
0.18306118 0.23772189 1.4640001
0.1991757 0.23723476 1.4610001
0.21468936 0.23501877 1.4630002
0.2245484 0.23469748 1.4610001
0.23481211 0.23566133 1.4670002
0.24457824 0.23566133 1.4670001
0.25490502 0.23457348 1.4634001
0.26415092 0.23176165 1.4625001
0.27387667 0.23056595 1.4670002
0.28541249 0.23162881 1.4630002
0.29492769 0.23136307 1.4640001
0.30519029 0.23147696 1.4635717
0.3152675 0.23136307 1.4640001
0.32543746 0.23136307 1.4640001
0.33443046 0.23184136 1.4622
0.3458893 0.23355649 1.4634001
0.3549217 0.23534004 1.4650002
0.36439314 0.23387532 1.4622
0.37068892 0.23056595 1.4670001
0.38459963 0.23109739 1.4650002
0.41879806 0.23162881 1.4630002
0.42606598 0.23176165 1.4625001
0.43603536 0.23221058 1.4640001
0.44523796 0.23449081 1.4650002
0.45510659 0.23178595 1.4640001
0.48788264 0.23056595 1.4670001
-0.18141481 0.2499211 1.4610001
-0.17652392 0.24573487 1.4625001
-0.16942139 0.24075671 1.4670001
-0.15318833 0.24216731 1.4640001
-0.14524467 0.24348558 1.4630002
-0.13701259 0.24357793 1.4610001
-0.12584755 0.24280685 1.4640001
-0.11429437 0.24717961 1.4658002
-0.10305693 0.24554835 1.4652002
-0.094473228 0.24190119 1.4636669
-0.084628634 0.2421978 1.4634001
-0.075000554 0.24407548 1.4640001
-0.066101879 0.24344116 1.4640001
-0.057241403 0.2429727 1.4650002
-0.046074636 0.24361281 1.4658002
-0.035061441 0.24178608 1.4644287
-0.027560033 0.24127424 1.4650002
-0.014012296 0.24075672 1.4670002
-0.0053438973 0.24188729 1.4646001
0.0025372701 0.24230929 1.4610001
0.1159199 0.24075671 1.4670001
-0.78489435 0.25569379 1.4650002
-0.77545381 0.2542454 1.4640001
-0.75607163 0.2541438 1.4634002
-0.72481781 0.25859055 1.4670001
-0.19319984 0.25179672 1.4670002
-0.18712932 0.25204855 1.4660001
-0.72464699 0.26121846 1.4646001
0.59987682 0.20848598 1.473
0.76743305 0.20720692 1.473
0.77553368 0.20848599 1.473
0.78725839 0.20784645 1.473
0.7953164 0.20388138 1.473
0.80708373 0.20081164 1.473
0.50607944 0.217013 1.473
0.51801729 0.21360219 1.473
0.5410403 0.21104409 1.473
0.5538308 0.21104409 1.473
0.56534231 0.21104409 1.473
0.57173759 0.21104409 1.473
0.58708626 0.21104409 1.473
0.59348154 0.21104409 1.473
0.60755116 0.21104409 1.473
0.61138833 0.21104409 1.473
0.62289983 0.21104409 1.473
0.30398875 0.22895086 1.473
0.31464753 0.22895086 1.473
0.32360095 0.22895086 1.473
0.37476313 0.22895086 1.473
0.41057667 0.22639275 1.473
0.44536695 0.22843924 1.473
0.45662266 0.22895086 1.473
0.48476189 0.22895086 1.473
0.49563381 0.22511369 1.473
0.50181592 0.22212923 1.473
-0.16243999 0.23918329 1.473
-0.15412614 0.23854376 1.473
-0.14606808 0.23816004 1.473
-0.1023244 0.23918329 1.473
-0.095929131 0.23918329 1.473
-0.034534484 0.23918329 1.473
-0.026348531 0.2371368 1.473
-0.016627716 0.23918329 1.473
0.014069606 0.23534612 1.473
0.10445616 0.23918329 1.473
0.11554131 0.23918329 1.473
0.12662645 0.23662518 1.473
0.15604472 0.23598565 1.473
0.1649981 0.23918329 1.473
0.17395148 0.23726471 1.473
0.18546298 0.23790424 1.473
0.19484273 0.23918329 1.473
0.20507517 0.23662518 1.473
0.21104409 0.23662518 1.473
0.22511369 0.23406707 1.473
0.23406707 0.23662518 1.473
0.24813667 0.23406707 1.473
0.25581101 0.23342754 1.473
0.26348534 0.23150896 1.473
0.30569416 0.23150896 1.473
0.33767053 0.23150896 1.473
0.34534487 0.23150896 1.473
0.35557729 0.23406707 1.473
0.36580974 0.23342754 1.473
0.39266989 0.23150896 1.473
0.41825101 0.23150896 1.473
0.42592534 0.23150896 1.473
0.43743682 0.23150896 1.473
0.44575071 0.23214848 1.473
0.45278549 0.23278801 1.473
-0.18034676 0.24685763 1.473
-0.17778865 0.24429952 1.473
-0.15220755 0.2417414 1.473
-0.14453322 0.2417414 1.473
-0.13600618 0.24259411 1.473
-0.12151023 0.24429952 1.473
-0.1155413 0.24600492 1.473
-0.1066732 0.24378788 1.473
-0.083138578 0.2417414 1.473
-0.072906137 0.2417414 1.473
-0.063952751 0.2417414 1.473
-0.054999366 0.24259411 1.473
-0.042208817 0.2417414 1.473
-0.039650705 0.2417414 1.473
-0.0051162201 0.2417414 1.473
0.00255811 0.2417414 1.473
0.10744062 0.2417414 1.473
0.11255684 0.2417414 1.473
-0.79429317 0.25709006 1.473
-0.73161948 0.25836912 1.473
-0.7247979 0.25709009 1.473
0.5577479 0.20947674 1.48
0.5673182 0.20904389 1.4815
0.57573974 0.20947674 1.48
0.59373164 0.20947674 1.48
0.60266411 0.20861101 1.483
0.62649429 0.20840129 1.4815
0.63355857 0.20774528 1.4860001
0.77598262 0.20718607 1.4820001
0.78479987 0.20657454 1.48225
0.79407972 0.20328584 1.4836
0.80386019 0.20117837 1.4820001
0.81678736 0.20258391 1.4860001
0.49767932 0.21781351 1.4842857
0.50473011 0.21574342 1.4836924
0.51452953 0.2146232 1.4836
0.53662479 0.21319032 1.4820001
0.55903304 0.21204701 1.48
0.56321901 0.21147333 1.4820001
0.57304358 0.2111865 1.483
0.58512372 0.21153052 1.4836
0.59226763 0.21032597 1.4860001
0.61499256 0.21067019 1.4848001
0.62197763 0.2111865 1.483
0.30581138 0.22839078 1.4860001
0.31503311 0.22712651 1.4825715
0.32558161 0.22777602 1.4820001
0.34658623 0.22787464 1.4860001
0.35419926 0.22774562 1.4860001
0.36129615 0.22839078 1.4860001
0.41722465 0.2279297 1.483
0.42323261 0.22839078 1.4860001
0.43484569 0.22839078 1.4860001
0.44476235 0.22689107 1.4834287
0.45416614 0.22695456 1.48
0.46452361 0.22839078 1.4860001
0.47742707 0.22839078 1.4860001
0.48660967 0.2268699 1.4845001
0.49448806 0.22406387 1.4829998
-0.16225764 0.2382316 1.483
-0.15472311 0.23658888 1.4824001
-0.14541979 0.23721074 1.4820001
-0.10471193 0.23649213 1.4846667
-0.097727798 0.23697233 1.4848001
-0.034091204 0.23734808 1.4815
-0.023132401 0.23517941 1.48
-0.016242696 0.23800461 1.4848001
-0.0038710299 0.23871352 1.4860001
0.0051566847 0.23635982 1.4842001
0.011613091 0.23613283 1.4860001
0.099356443 0.23871352 1.4860001
0.10640939 0.23781185 1.4836
0.11484056 0.23871353 1.4860001
0.12438658 0.23847257 1.4845001
0.13236874 0.23517941 1.48
0.14601243 0.23219973 1.4815
0.15369083 0.23349832 1.4824001
0.16533589 0.23668958 1.4825715
0.17369249 0.23508164 1.4817144
0.18546014 0.23655337 1.4817144
0.19517414 0.23721074 1.4820001
0.20366716 0.23653704 1.4845001
0.21495906 0.23556077 1.4824001
0.22493958 0.23395896 1.4845001
0.23389427 0.23517941 1.48
0.24467289 0.23501095 1.483
0.25496697 0.23308064 1.483
0.2619397 0.23097147 1.4860001
0.30714688 0.23003887 1.48
0.33447722 0.23027202 1.4815
0.34476092 0.23027201 1.4815
0.35565847 0.23140688 1.4817144
0.36505899 0.23190729 1.4825715
0.37240386 0.2306606 1.4840001
0.38477764 0.23034975 1.4820001
0.39581135 0.23078494 1.4848001
0.40224674 0.23003887 1.48
0.42452773 0.23027202 1.4815
0.43437508 0.23003887 1.48
0.44080076 0.23003887 1.48
0.45493722 0.23003887 1.48
0.46456355 0.23034975 1.4820001
0.4746896 0.23027202 1.4815
0.48192501 0.23003887 1.48
0.49220607 0.23003887 1.48
-0.20086345 0.24817604 1.4860001
-0.19484185 0.24774593 1.4860001
-0.18566148 0.2462555 1.4848001
-0.17677705 0.24387489 1.4860001
-0.16835247 0.24031994 1.48
-0.14036348 0.24209221 1.483
-0.13456476 0.24209481 1.483
-0.12516332 0.24387489 1.4860001
-0.11507745 0.24328096 1.4823999
-0.10837959 0.24117669 1.48
-0.093814731 0.24031994 1.48
-0.085072786 0.24105065 1.4845001
-0.075493254 0.24141856 1.4836
-0.06451717 0.24129421 1.4860001
-0.053852994 0.24193262 1.4836
-0.045603134 0.24193262 1.4836
-0.039839134 0.24031994 1.48
-0.014136467 0.24031994 1.48
-0.0051548611 0.24105065 1.4845001
0.0051405337 0.24031994 1.48
0.10666607 0.24031994 1.48
0.11437687 0.24031994 1.48
0.19405514 0.24031994 1.48
-0.73326451 0.25599813 1.4815
-0.72353017 0.25574154 1.48
-0.20129356 0.25161695 1.4860001
-0.19432084 0.25093967 1.4820001
-0.18634436 0.25060099 1.48
0.80571008 0.19914965 1.4990001
0.81091654 0.19914965 1.4990001
0.54538369 0.2095627 1.4990001
0.56874794 0.2085841 1.4920001
0.57742292 0.20891032 1.4943335
0.59484571 0.2095627 1.4990001
0.60439098 0.2095627 1.4990001
0.61827505 0.2095627 1.4990001
0.62553811 0.20880263 1.4966668
0.6342653 0.20605221 1.4962001
0.77915251 0.20647621 1.4955001
0.78546542 0.20458367 1.4943335
0.79427999 0.20158473 1.4950001
0.80972087 0.20081078 1.4920001
0.81742471 0.20175292 1.4990001
0.82132959 0.20175292 1.4990001
0.49525324 0.2164446 1.4962002
0.50543183 0.21208973 1.4948001
0.51935107 0.21476923 1.4990001
0.52455759 0.21476923 1.4990001
0.53631568 0.21556635 1.4955001
0.54193151 0.21183571 1.4966668
0.58963919 0.21216597 1.4990001
0.5920679 0.2111752 1.4920001
0.60243231 0.2111752 1.4920001
0.6231612 0.2111752 1.4920001
0.26040623 0.22931294 1.4920001
0.31222835 0.22672184 1.4920001
0.32129723 0.22672184 1.4920001
0.3365927 0.2289311 1.4937501
0.3441596 0.2274528 1.4934001
0.3546744 0.22579812 1.4962001
0.36560518 0.22775829 1.4920001
0.37399161 0.22854924 1.4955001
0.38866603 0.22931294 1.4920001
0.39255267 0.22931294 1.4920001
0.41782379 0.22778554 1.4990001
0.42523119 0.22809103 1.4976001
0.43459058 0.22768556 1.4955001
0.44619459 0.22568917 1.4937501
0.45657122 0.22569221 1.4937501
0.46728581 0.22778556 1.4990001
0.47658348 0.22854924 1.4955001
0.48478481 0.22558001 1.4958891
0.49177858 0.2218861 1.4943335
-0.15935306 0.23708627 1.4920001
-0.14332429 0.23801214 1.4937501
-0.1379773 0.23918447 1.4943335
-0.11404508 0.23774362 1.4943335
-0.10753093 0.23449516 1.4920001
-0.095981881 0.23606576 1.4937501
-0.084774517 0.2387526 1.4943335
-0.074764892 0.23804699 1.4948002
-0.067526817 0.23893799 1.4955001
-0.044152148 0.23893799 1.4955001
-0.036275491 0.23708627 1.4920001
-0.022024408 0.23449516 1.4920001
-0.014703199 0.23615746 1.4943335
-0.005844173 0.23633879 1.4955003
0.0012955534 0.23449516 1.4920001
0.10388132 0.23764244 1.4955001
0.11494687 0.23639323 1.4970001
0.12406261 0.23745549 1.4976001
0.1353697 0.23689698 1.4990001
0.14402728 0.23313449 1.4943335
0.15694582 0.2334716 1.4937501
0.16486263 0.23385099 1.4950001
0.1748714 0.2330751 1.4962001
0.18440014 0.23374361 1.4955001
0.19514282 0.2356735 1.4962001
0.20435618 0.23646311 1.4990001
0.21607086 0.23559535 1.4990001
0.22483581 0.23349309 1.4966668
0.23504221 0.23374362 1.4955001
0.24493638 0.23379342 1.4970001
0.25516447 0.2314101 1.4960001
0.26340863 0.23139898 1.4943335
0.28635895 0.23559535 1.4990001
0.29026386 0.23299207 1.4990001
0.30328017 0.23038881 1.4990001
0.38398135 0.23038881 1.4990001
0.39829928 0.23038881 1.4990001
0.40480745 0.23038881 1.4990001
0.41261727 0.23038881 1.4990001
0.47379392 0.23038881 1.4990001
-0.20340188 0.24745069 1.4920001
-0.1917419 0.24485959 1.4920001
-0.18396857 0.24226849 1.4920001
-0.13245341 0.2428368 1.4955001
-0.12467096 0.24283682 1.4955001
-0.092415854 0.24080187 1.4990001
-0.087209322 0.24080187 1.4990001
-0.062478319 0.24080187 1.4990001
-0.053840142 0.24109519 1.4976001
-0.77186757 0.25642145 1.4990001
-0.76926434 0.2551198 1.4990001
-0.74387342 0.25531703 1.4963751
-0.73505718 0.25404879 1.4960001
-0.72853291 0.25436032 1.4920001
-0.81221819 0.26162797 1.4990001
-0.74623871 0.26040623 1.4920001
0.54793048 0.2079259 1.506
0.58193099 0.2079259 1.506
0.59500808 0.2079259 1.506
0.6255213 0.2079259 1.506
0.63685477 0.20531048 1.506
0.78724146 0.20400277 1.506
0.79508775 0.2007335 1.506
0.80293393 0.20007963 1.506
0.82778043 0.20269506 1.506
0.48777583 0.21838757 1.506
0.4943144 0.21577215 1.506
0.50477612 0.21184903 1.506
0.51654547 0.21228492 1.506
0.5270071 0.21315673 1.506
0.53485346 0.21664397 1.506
0.54269969 0.21141313 1.506
0.55577677 0.21315673 1.506
0.56362301 0.21315673 1.506
0.57146931 0.21054132 1.506
0.58846951 0.21054132 1.506
0.59239262 0.21054132 1.506
0.60546976 0.21054132 1.506
0.61723912 0.21054132 1.506
0.34915859 0.22623384 1.506
0.3622357 0.22623384 1.506
0.38446674 0.22884926 1.506
0.39492843 0.22884926 1.506
0.40539011 0.22884926 1.506
0.41585177 0.2281954 1.506
0.42500576 0.22623384 1.506
0.43415976 0.22623384 1.506
0.44462138 0.22623384 1.506
0.46162164 0.22623384 1.506
0.47626802 0.22728001 1.506
0.48516044 0.2231825 1.506
0.49039125 0.221003 1.506
-0.12161703 0.23931094 1.506
-0.1176939 0.23669551 1.506
-0.091103807 0.23843913 1.506
-0.085001156 0.23669551 1.506
-0.078462601 0.2353878 1.506
-0.065123968 0.23774169 1.506
-0.014384812 0.2349519 1.506
-0.0039231302 0.23408009 1.506
0.09677054 0.23931094 1.506
0.10461681 0.23669551 1.506
0.11507849 0.23408009 1.506
0.12684789 0.23669551 1.506
0.13469413 0.23669551 1.506
0.1425404 0.23408009 1.506
0.16738689 0.23277238 1.506
0.17523314 0.23146468 1.506
0.1817717 0.23146468 1.506
0.19484881 0.23408011 1.506
0.20356688 0.2349519 1.506
0.21490036 0.2349519 1.506
0.22492614 0.2327724 1.506
0.23582372 0.23146468 1.506
0.24584949 0.23146468 1.506
0.25238803 0.23146468 1.506
0.26808056 0.23146468 1.506
0.27854225 0.23408009 1.506
0.28508079 0.23408009 1.506
0.30208102 0.23146468 1.506
-0.13469413 0.24192636 1.506
-0.12423246 0.24192636 1.506
-0.78070289 0.25500345 1.506
-0.77337974 0.25500345 1.506
-0.75324094 0.25761887 1.506
-0.74583066 0.25238806 1.506
-0.73449719 0.25238806 1.506
-0.81208795 0.2602343 1.506
-0.80685711 0.2602343 1.506
0.80613291 0.19825092 1.5120001
0.81395572 0.19855687 1.5143335
0.82173598 0.19916876 1.5190001
0.51045239 0.20972075 1.5190001
0.5439055 0.2093986 1.5166668
0.5500223 0.20972075 1.5190001
0.58559573 0.20923752 1.5155001
0.59618723 0.20972075 1.5190001
0.60410124 0.20972075 1.5190001
0.61313367 0.20875429 1.5120001
0.62380731 0.2093986 1.5166668
0.63472271 0.20579414 1.5134001
0.64235222 0.20180675 1.5190001
0.78764868 0.20645061 1.5143335
0.79483634 0.20134176 1.5155001
0.82546353 0.20110926 1.5137501
0.83107841 0.20087677 1.5120001
0.42339846 0.21763474 1.5190001
0.48590386 0.21648404 1.515231
0.49477637 0.21343981 1.5160002
0.50284839 0.21138012 1.5120001
0.51203883 0.21138012 1.5120001
0.52482277 0.21282192 1.5148001
0.5375663 0.21351208 1.5155001
0.54223597 0.21138012 1.5120001
0.55597758 0.21343005 1.5172501
0.56426758 0.21341394 1.5190001
0.57244527 0.21235874 1.5190001
0.16936669 0.229761 1.5120001
0.17199253 0.229761 1.5120001
0.2387387 0.22818671 1.5190001
0.24589494 0.22836098 1.5143335
0.25208065 0.229761 1.5120001
0.26258403 0.229761 1.5120001
0.31378788 0.229761 1.5120001
0.34438166 0.22805451 1.5137501
0.35612956 0.22554871 1.5190001
0.36105302 0.22713517 1.5120001
0.37529805 0.22683212 1.5150001
0.38506851 0.22645527 1.5150001
0.39432734 0.22673856 1.5137501
0.4050034 0.22660635 1.5143335
0.413661 0.22539191 1.5162001
0.42460087 0.22325224 1.5164546
0.43524718 0.22485578 1.5143335
0.44582146 0.22554871 1.5190001
0.45505446 0.22554871 1.5190001
0.46474084 0.2261833 1.5162001
0.47574979 0.22385053 1.5157695
0.48239633 0.22213727 1.5137501
-0.14048244 0.23763853 1.5120001
-0.13370425 0.23713663 1.5160002
-0.12501614 0.23686962 1.5155001
-0.11684988 0.2350127 1.5120001
-0.091904402 0.23632561 1.5120001
-0.061992925 0.2387387 1.5190001
-0.046164945 0.2387387 1.5190001
-0.015098581 0.23304331 1.5120001
0.095343009 0.23713665 1.5160002
0.10515365 0.23528469 1.5137501
0.11580745 0.23292477 1.5155001
0.12501308 0.23423769 1.5155001
0.13355619 0.23416071 1.5178335
0.14332914 0.23362075 1.5143335
0.15623748 0.23238684 1.5120001
0.16461748 0.23310409 1.5166668
0.17806478 0.23082471 1.5190001
0.1852514 0.23134542 1.5166668
0.19453859 0.23265581 1.5137501
0.20616595 0.23380005 1.5155001
0.214939 0.23380005 1.5155001
0.22437257 0.23160577 1.5155001
0.23482791 0.23113714 1.5176001
0.24401471 0.23082471 1.5190001
0.2585237 0.23082471 1.5190001
0.26775667 0.23082471 1.5190001
0.27533028 0.2336659 1.5130001
0.28490368 0.2314942 1.5160002
0.2936686 0.23186612 1.5143335
0.30205062 0.23346271 1.5190001
0.33898258 0.23082471 1.5190001
-0.17542678 0.2453337 1.5190001
-0.13457431 0.24092083 1.5120001
-0.12800971 0.24092083 1.5120001
-0.055276364 0.24082053 1.5155001
-0.81646001 0.25984269 1.5190001
-0.80366051 0.25888383 1.5172501
-0.79524964 0.25576594 1.5183001
-0.78515506 0.25521559 1.5137501
-0.77399147 0.2541602 1.5146251
-0.76535887 0.25739861 1.5155001
-0.75557184 0.25361088 1.5172501
-0.74391508 0.25192869 1.5190001
-0.72413009 0.25720468 1.5190001
-0.820575 0.26127109 1.5120001
-0.81794918 0.26127109 1.5120001
-0.80482 0.26127109 1.5120001
-0.79300368 0.26127109 1.5120001
-0.78906494 0.26127109 1.5120001
0.79849768 0.19995546 1.5250001
0.80909133 0.19995546 1.5250001
0.82763022 0.19995546 1.5250001
0.83425128 0.19995546 1.5250001
0.61575687 0.20790072 1.5250001
0.62767482 0.20790072 1.5250001
0.63562006 0.20591441 1.5250001
0.64224106 0.20392808 1.5250001
0.79187655 0.20657651 1.5250001
