# .PCD v0.7 - Point Cloud Data file format
VERSION 0.7
FIELDS x y z
SIZE 4 4 4
TYPE F F F
COUNT 1 1 1
WIDTH 1489
HEIGHT 1
VIEWPOINT 0 0 0 1 0 0 0
POINTS 1489
DATA ascii
-0.094037026 0.2642538 1.0830001
-0.083699621 0.26323295 1.0831114
-0.07463032 0.26224884 1.0836924
-0.064954601 0.26325965 1.0840836
-0.055581238 0.2637727 1.0849003
-0.045699906 0.26363209 1.083889
-0.034184985 0.26311994 1.0835001
-0.025237966 0.26256722 1.0831668
-0.015659919 0.2621212 1.0840911
-0.0040750885 0.26080507 1.0830001
0.0040692999 0.2604844 1.0816668
0.016005991 0.26078081 1.0842001
0.023493338 0.26033187 1.0823334
0.047061063 0.26073271 1.0840001
0.055419642 0.26020357 1.0818001
0.063829452 0.26001114 1.0810001
0.075093471 0.26001117 1.0810002
0.081664145 0.26001114 1.0810001
-0.591564 0.27257416 1.0852501
-0.5865348 0.27491224 1.0839093
-0.47085056 0.27098167 1.0823334
-0.46636015 0.27039465 1.085
-0.36272454 0.27039465 1.085
-0.3428745 0.27057078 1.0842001
-0.33854407 0.27083492 1.0830001
-0.30238408 0.27144846 1.0862001
-0.29764968 0.27127406 1.0847501
-0.28735322 0.27039465 1.085
-0.27887395 0.27039465 1.085
-0.56758529 -0.4403275 1.0936668
-0.59383917 -0.43495503 1.0947144
-0.58063889 -0.43381065 1.098
-0.57613915 -0.43653944 1.0949998
-0.569278 -0.43907756 1.0945001
-0.56252372 -0.30033046 1.098
-0.55966341 -0.30033046 1.098
-0.57301152 -0.29079616 1.098
-0.56408906 -0.29381293 1.0967141
-0.55569035 -0.29330111 1.0961052
-0.57243937 -0.28602904 1.0979999
-0.56464458 -0.28446275 1.0962498
-0.55408907 -0.28451607 1.0946798
-0.54822224 -0.28126186 1.098
-0.57205802 -0.27601802 1.098
-0.56497717 -0.27565634 1.0952631
-0.55501187 -0.27632263 1.0916667
-0.54777241 -0.27512422 1.0933001
-0.57205802 -0.26982069 1.098
-0.56505561 -0.26744598 1.0922002
-0.55988485 -0.26999524 1.0910001
-0.54472721 -0.2666795 1.0910001
-0.57366103 -0.25346822 1.0960001
-0.54442167 -0.25383264 1.0948336
-0.57144582 -0.24816534 1.095
-0.56651628 -0.24489041 1.0910001
-0.54217422 -0.24687688 1.0935001
-0.5381127 -0.24226806 1.092
-0.56556898 -0.23967998 1.0910001
-0.53812963 -0.23916852 1.0930001
-0.55420077 -0.17336535 1.0910001
-0.55420077 -0.16957596 1.0910001
-0.53335899 -0.16010244 1.0910001
-0.50229084 -0.16276553 1.095
-0.49652085 -0.16106975 1.0950001
-0.52009606 -0.15252362 1.0910001
-0.51229519 -0.15277062 1.0927778
-0.50461954 -0.1545378 1.0947825
-0.49540746 -0.15491201 1.0959998
-0.48790532 -0.15594374 1.0966154
-0.50417417 -0.14736575 1.0971577
-0.49470305 -0.14740029 1.0979999
-0.3521052 0.14744002 1.0923333
-0.34704792 0.14724843 1.0973077
-0.22564834 0.14793944 1.095143
-0.21583728 0.14484236 1.095
-0.34360638 0.15353081 1.093125
-0.33527038 0.15633126 1.0967367
-0.3267349 0.15685973 1.0966002
-0.23224851 0.15651941 1.0946668
-0.22816849 0.15158264 1.0933335
-0.34009925 0.16104978 1.0910001
-0.33478063 0.16477686 1.0928569
-0.32529318 0.16465567 1.0948708
-0.31939906 0.16780367 1.098
-0.24121779 0.16875711 1.098
-0.23599876 0.16515516 1.0940001
-0.33252046 0.172418 1.0910001
-0.32456693 0.17483002 1.0933999
-0.31844565 0.1744777 1.0979999
-0.24121779 0.17352426 1.098
-0.23768055 0.17478995 1.0940001
-0.33441514 0.18789142 1.0910001
-0.32502457 0.18388717 1.09385
-0.31778631 0.18262747 1.0977
-0.24111706 0.18154824 1.0946667
-0.23916852 0.18222323 1.0930001
-0.34539023 0.19470902 1.0930001
-0.33944455 0.19111583 1.095
0.5864107 0.23967998 1.0910001
0.33346778 0.24915349 1.0910001
0.35430953 0.24915349 1.0910001
0.36707056 0.24884523 1.098
0.38742453 0.24892229 1.0962501
0.39409244 0.24892229 1.0962501
0.40587348 0.24872136 1.0946668
0.4151907 0.24740991 1.0916667
0.4248285 0.24724089 1.095125
0.43523929 0.24857329 1.0968001
0.4452934 0.24627082 1.0942726
0.455937 0.24650249 1.0946668
0.4637405 0.24755576 1.0947144
0.47409755 0.24666849 1.0968001
0.48023698 0.24581388 1.0930001
0.58612329 0.24287342 1.0940001
0.59698147 0.24253216 1.0953333
0.60233593 0.24163198 1.0970001
-0.073213525 0.25957522 1.095
-0.0076065999 0.25957522 1.095
0.01520696 0.25783426 1.0946873
0.024132635 0.2569361 1.0943
0.047799148 0.25862527 1.0936668
0.053750418 0.25546485 1.0923334
0.065915763 0.25743827 1.0931113
0.075236097 0.25769114 1.0944166
0.083899997 0.25693041 1.094875
0.095356025 0.25841108 1.0945555
0.10479321 0.25688809 1.0957143
0.11468014 0.25476554 1.0937501
0.12431335 0.25494891 1.0928334
0.13480659 0.25632218 1.0933001
0.14494503 0.25661254 1.094909
0.15498447 0.25672066 1.0950001
0.16475971 0.25556195 1.0933636
0.17479308 0.25458646 1.0940001
0.18500033 0.25521132 1.0926001
0.19754517 0.25358048 1.09375
0.20620053 0.25392354 1.0943334
0.21506731 0.2544364 1.0937274
0.22493397 0.25435397 1.0930002
0.23507951 0.25458759 1.0936363
0.24468563 0.25350025 1.094909
0.2533097 0.25141639 1.0926001
0.2678259 0.25358048 1.09375
0.2768892 0.25330549 1.0925715
0.28441498 0.25230572 1.0940001
0.2932165 0.2526859 1.0940001
0.30574599 0.25276026 1.0935
0.31509104 0.25222936 1.0940834
0.32542247 0.25164762 1.0943637
0.33449382 0.25076789 1.0921429
0.34393343 0.25145906 1.0941668
0.35560855 0.250067 1.095
0.36561957 0.25039408 1.0936667
0.37473479 0.25069186 1.094625
0.38413331 0.250067 1.095
0.43325925 0.250067 1.095
-0.59209484 0.26999524 1.0910001
-0.4928759 0.26747254 1.0962001
-0.48556164 0.26653573 1.0923637
-0.47284085 0.26588616 1.0947144
-0.46615809 0.26715207 1.094182
-0.44576564 0.26879108 1.0957501
-0.4351804 0.26802585 1.0938001
-0.42357302 0.26671642 1.0970001
-0.41526234 0.26518965 1.0946472
-0.40609917 0.26620921 1.0952729
-0.39511001 0.26839912 1.0951251
-0.38601229 0.26769266 1.0971001
-0.37468252 0.26786262 1.0955715
-0.36489916 0.26816702 1.0940909
-0.35673776 0.26846847 1.0947144
-0.34419629 0.26770869 1.0942501
-0.33550045 0.26649803 1.0935001
-0.32428703 0.26673517 1.0942858
-0.31473285 0.26684543 1.0955833
-0.30540499 0.26790699 1.0931249
-0.29453021 0.26730883 1.0935836
-0.28516698 0.26672488 1.0940586
-0.27545151 0.26726407 1.094154
-0.26559931 0.26763481 1.0946429
-0.24268356 0.26742586 1.0960001
-0.23498248 0.26732826 1.0956001
-0.22425447 0.26502708 1.092
-0.21398701 0.26447949 1.0952728
-0.20521581 0.26607037 1.095
-0.19863169 0.2661064 1.0945001
-0.18409921 0.26371795 1.0952858
-0.17904948 0.26431113 1.0910001
-0.10224828 0.2636894 1.0936668
-0.095372394 0.26361036 1.0941539
-0.085559644 0.26289669 1.0937275
-0.076524265 0.26094046 1.09475
-0.064262465 0.26181656 1.0937778
-0.055274382 0.26307178 1.0948572
-0.043837566 0.26371372 1.094143
-0.035669833 0.26397246 1.0955
-0.024098856 0.26226765 1.0956668
-0.014250653 0.26105788 1.09425
-0.0018947034 0.26052171 1.0910001
0.0066740103 0.26028639 1.098
0.017999683 0.26052171 1.0910001
0.03909063 0.26219326 1.098
0.04390936 0.2606186 1.0946001
-0.49628639 0.27148008 1.0970001
-0.4896749 0.27098513 1.095
-0.30788931 0.27188993 1.0910001
-0.57474554 -0.44233334 1.105
-0.60306722 -0.43556511 1.1065
-0.59500897 -0.43640351 1.1069999
-0.58429366 -0.43490362 1.1071001
-0.57817429 -0.43514645 1.103
-0.57490009 -0.31232709 1.1090002
-0.56623322 -0.31329006 1.1090002
-0.55021942 -0.31864882 1.102
-0.58203417 -0.30487403 1.107
-0.57546991 -0.30498561 1.1054208
-0.56565124 -0.30604899 1.1040398
-0.55888546 -0.30133194 1.1040001
-0.5824216 -0.29744759 1.105
-0.57602155 -0.29615566 1.1033126
-0.56935751 -0.29951075 1.102
-0.55514568 -0.29579878 1.1048335
-0.57722539 -0.28483826 1.1020001
-0.55228418 -0.28678811 1.1046001
-0.57605582 -0.27750197 1.102
-0.54915863 -0.2629053 1.105
-0.48241434 -0.16112404 1.1045001
-0.47554585 -0.16228303 1.1075001
-0.46833012 -0.16145992 1.1090001
-0.49089143 -0.15023383 1.102
-0.48431402 -0.15416145 1.1046205
-0.47506002 -0.15514505 1.1082854
-0.46800908 -0.15600304 1.1090001
-0.51333696 -0.1487238 1.105
-0.50046045 -0.14640622 1.102
-0.49342468 -0.14487948 1.1031251
-0.4841609 -0.14524044 1.1066893
-0.4768241 -0.14615102 1.1090002
-0.48359221 -0.13912871 1.105
-0.47940859 -0.13875099 1.102
-0.34359905 0.14497571 1.1032501
-0.33519724 0.14582936 1.1048844
-0.32774636 0.14702815 1.1085001
-0.23360956 0.14804682 1.107125
-0.22437347 0.14491732 1.106889
-0.21592171 0.14392059 1.1066926
-0.34275204 0.15192951 1.1032001
-0.33526918 0.15153782 1.1029232
-0.32414714 0.15404314 1.1056362
-0.31587967 0.15665688 1.1083332
-0.30847517 0.15825 1.1090001
-0.24197194 0.15730423 1.1080002
-0.23675029 0.15423568 1.1048824
-0.32078078 0.16278233 1.1027501
-0.31518936 0.16488242 1.1058823
-0.30733928 0.16541064 1.1090002
-0.24323878 0.16449401 1.1058463
-0.23826894 0.16171667 1.102
-0.31373373 0.1750268 1.1051922
-0.30642602 0.17473672 1.1084543
-0.24433616 0.17562111 1.1052001
-0.3238762 0.18933105 1.1068001
-0.31400254 0.18542102 1.1051111
-0.30617318 0.18444747 1.1075711
-0.24526511 0.18178241 1.1076667
-0.34195521 0.19649962 1.1038749
-0.33450499 0.19463462 1.1081363
-0.32645079 0.19331858 1.1090001
-0.31324422 0.1932842 1.1090002
-0.30577207 0.19198518 1.1078572
-0.34571046 0.20126317 1.1090001
-0.33387953 0.20263888 1.1090002
0.59835988 0.23776601 1.1068
0.60591376 0.23870996 1.1078573
0.31864882 0.24975178 1.102
0.3206729 0.24941225 1.1090001
0.33338243 0.2496386 1.1043334
0.35596806 0.24975178 1.102
0.36456072 0.24947777 1.1044286
0.37431669 0.24962448 1.1046251
0.38458437 0.24860334 1.1054168
0.39531985 0.24880247 1.1038573
0.40478405 0.24843769 1.1046667
0.41444004 0.24751434 1.1030002
0.42518407 0.24783799 1.102
0.43634793 0.24720006 1.1020001
0.44412649 0.24649814 1.1035001
0.45516706 0.24592416 1.102
0.4658795 0.24725449 1.1042858
0.47528139 0.24726313 1.108
0.48440847 0.24701655 1.1083336
0.59799188 0.24130312 1.1027501
0.60374767 0.24100141 1.1040001
-0.023111561 0.25904208 1.1090001
0.0074940636 0.25852579 1.1068001
0.014772086 0.25532576 1.1046002
0.023348039 0.2568284 1.105
0.035561439 0.25881404 1.1066668
0.0447249 0.25839013 1.1054001
0.068092972 0.25750947 1.1045001
0.074565426 0.25655457 1.1056668
0.08625403 0.25683489 1.1054287
0.095013477 0.25721622 1.1053002
0.10391548 0.25579047 1.1046667
0.11195769 0.25549319 1.102
0.12564766 0.25532699 1.1046
0.13450249 0.2557047 1.1052859
0.14488576 0.25618872 1.105
0.15381521 0.25590342 1.106143
0.16393022 0.25557169 1.104
0.17367101 0.25426972 1.105
0.1845728 0.2559064 1.1051667
0.19408555 0.25551108 1.1054001
0.20409393 0.25392455 1.1035
0.21585219 0.25352687 1.1031668
0.22425115 0.2536419 1.1036668
0.23596199 0.25372005 1.1057501
0.24392754 0.25255984 1.1048751
0.25357938 0.25166559 1.102
0.26554501 0.25435859 1.1040001
0.27447778 0.25411463 1.1060001
0.2841239 0.25337332 1.1066668
0.29631591 0.25322375 1.1064287
0.30569685 0.25250936 1.1057001
0.31448925 0.25096053 1.1037145
0.32484573 0.25128227 1.1050001
0.33486843 0.25043169 1.105
0.34670725 0.25175503 1.1045001
0.35350859 0.2514469 1.1058573
0.37900579 0.25043169 1.105
-0.50267643 0.2686719 1.1090001
-0.49978751 0.26481998 1.1090001
-0.48342261 0.26522434 1.1053333
-0.4764508 0.26464173 1.10625
-0.46535286 0.26715603 1.1050001
-0.45335108 0.26906121 1.1053333
-0.44307077 0.26896384 1.1062502
-0.43492836 0.26870507 1.1065001
-0.42531595 0.26534286 1.1031668
-0.41816676 0.26314843 1.102
-0.40272063 0.26752114 1.10425
-0.39483985 0.26769674 1.1036668
-0.38440788 0.26799113 1.1062001
-0.3753483 0.26724857 1.104125
-0.36537313 0.26755747 1.1044
-0.3549577 0.26756614 1.1059375
-0.34612375 0.26664433 1.1054001
-0.33509767 0.26707974 1.1064001
-0.3271043 0.26717469 1.1060002
-0.31500617 0.26602432 1.1060001
-0.30347443 0.26673898 1.1036668
-0.29611167 0.26614046 1.1045001
-0.28439265 0.26614463 1.1065001
-0.27417821 0.26602149 1.105
-0.26458135 0.26714292 1.1062224
-0.25485715 0.26846325 1.1061668
-0.24549296 0.26724011 1.1050835
-0.23517859 0.26601994 1.1047693
-0.22636348 0.26557565 1.1052859
-0.21403638 0.26362342 1.1053333
-0.20532501 0.26536223 1.10625
-0.19933721 0.26674592 1.1090001
-0.18200354 0.26481998 1.1090001
-0.10343095 0.26354122 1.1063335
-0.094783477 0.26275235 1.1053751
-0.086196855 0.26187631 1.1047144
-0.07377664 0.26159018 1.1035
-0.063656509 0.26166427 1.1051667
-0.054572586 0.2618894 1.1053572
-0.045852955 0.26263899 1.1047
-0.035086486 0.26345488 1.1041001
-0.025036121 0.26164585 1.1056154
-0.015788039 0.26128548 1.1068572
-0.0028733152 0.26147169 1.103
0.0036988524 0.26081336 1.1048573
0.03737003 0.2606307 1.1035001
0.041202851 0.26063067 1.1035
-0.60186356 0.27252382 1.1090001
-0.59997839 0.27176055 1.102
-0.50395954 0.27127615 1.1072859
-0.49888271 0.27106935 1.1070001
-0.35118353 0.27080366 1.102
-0.58083946 -0.44360286 1.113
-0.60468715 -0.43368945 1.1144118
-0.59502667 -0.43377692 1.114421
-0.586155 -0.43442151 1.113
-0.59015757 -0.34014007 1.1160001
-0.59015757 -0.33723289 1.1160001
-0.5883953 -0.33290857 1.1145
-0.58143604 -0.32075888 1.1160001
-0.57465261 -0.32114649 1.1160001
-0.56463897 -0.32205099 1.1160002
-0.55887932 -0.32371685 1.1145
-0.59015757 -0.31397545 1.1160001
-0.58439749 -0.31423193 1.114091
-0.57535022 -0.31716862 1.1136001
-0.56427544 -0.31553051 1.1146502
-0.55871743 -0.31663626 1.1151431
-0.58857113 -0.30733269 1.113
-0.56194323 -0.3074252 1.1145
-0.55957747 -0.30056751 1.113
-0.55705261 -0.29303449 1.11375
-0.55377871 -0.28897005 1.113
-0.46486491 -0.16139799 1.1130002
-0.45713323 -0.1633309 1.113
-0.47066361 -0.15173344 1.113
-0.46379882 -0.15467574 1.1136003
-0.45821998 -0.15578753 1.1143637
-0.51705343 -0.14786762 1.113
-0.4812946 -0.14013597 1.113
-0.47382179 -0.14428195 1.1138184
-0.46646896 -0.14608367 1.114857
-0.45836538 -0.14826618 1.1160001
-0.47774661 -0.13857558 1.1160001
-0.2213182 0.13820307 1.113
-0.2193853 0.13820307 1.113
-0.32422525 0.14643173 1.1136429
-0.31789494 0.14771862 1.1148001
-0.2406473 0.14980052 1.113
-0.23462455 0.14619607 1.1150001
-0.22536767 0.14198996 1.1139001
-0.21793559 0.1406192 1.113
-0.32182953 0.15173344 1.113
-0.31408826 0.15244606 1.1146876
-0.30725455 0.15669134 1.1146667
-0.2446017 0.15508348 1.1145
-0.30406585 0.1654698 1.1143847
-0.29943955 0.16958551 1.1160001
-0.25098655 0.16861644 1.1160001
-0.24839155 0.16483963 1.1145
-0.301534 0.17492835 1.113
-0.29830948 0.17530453 1.1154002
-0.25098655 0.17346177 1.1160001
-0.24851285 0.17502475 1.1136
-0.30129236 0.18531775 1.113
-0.29788366 0.18412046 1.1154547
-0.25098655 0.18315235 1.1160001
-0.24837896 0.18266001 1.1130002
-0.33922571 0.19619039 1.1130002
-0.32437983 0.19602947 1.1146154
-0.31729451 0.19480567 1.1136667
-0.30201721 0.19087487 1.113
-0.34138721 0.20164199 1.11375
-0.33389071 0.20091648 1.11375
-0.32657325 0.20204902 1.1160001
0.60581362 0.23806706 1.1145
0.61244595 0.23741971 1.1160001
0.36533564 0.24904844 1.1160001
0.37696436 0.24904843 1.1160001
0.38454446 0.24796781 1.1155001
0.39355716 0.24812523 1.1136
0.40451872 0.2487137 1.1145
0.4134196 0.24882528 1.1150001
0.42735547 0.24904843 1.1160001
0.43898419 0.24904843 1.1160001
0.44673669 0.24711031 1.1160001
0.45097369 0.24677816 1.1145
0.46536812 0.24671173 1.1142
0.47552857 0.24631 1.1143334
0.48531437 0.24551514 1.1143637
0.49194258 0.24516308 1.1145
-0.054170113 0.25956395 1.1140001
-0.049289208 0.25997642 1.113
-0.024186386 0.25948146 1.1142
-0.015277805 0.25972894 1.1136
-0.0029032724 0.25935772 1.1145
0.0038671228 0.25848156 1.1135001
0.011611788 0.25645575 1.1145
0.025733754 0.25832066 1.1142
0.034837969 0.25903556 1.1145
0.046756279 0.25827536 1.1140001
0.065101184 0.25751245 1.1142858
0.072550997 0.25634071 1.1140001
0.082148679 0.25611058 1.113
0.094718181 0.25622818 1.1147144
0.10645333 0.25645575 1.1145
0.11519726 0.25652477 1.1148001
0.12508298 0.25524506 1.1145
0.13510573 0.25634071 1.1140001
0.14503382 0.25622565 1.1135001
0.15666731 0.25539756 1.1147144
0.16451877 0.2554867 1.1145002
0.17467958 0.25548667 1.1145
0.18556784 0.25548667 1.1145
0.19403474 0.25548667 1.1145
0.20447166 0.25486279 1.1160001
0.21404611 0.25472578 1.1154002
0.22615048 0.25417766 1.113
0.23312318 0.25440606 1.1140001
0.24644604 0.25224477 1.113
0.2548475 0.25339454 1.1148751
0.26440907 0.25472578 1.1154002
0.27520415 0.25391755 1.1142858
0.28332987 0.25346169 1.1147144
0.2984705 0.25292468 1.1160001
0.30548707 0.2522617 1.1145
0.31494451 0.25098655 1.1160001
0.32075888 0.25098655 1.1160001
0.33729279 0.25224477 1.113
0.34489387 0.25154576 1.1146667
0.35468248 0.25064921 1.1145
0.36306494 0.25031185 1.1130002
0.37691748 0.25031185 1.113
-0.50645936 0.26871315 1.1145
-0.49836868 0.26770806 1.1130002
-0.48592111 0.26601392 1.1140001
-0.47517025 0.26516426 1.1145
-0.46805599 0.26842964 1.1160001
-0.45467043 0.26939866 1.1136
-0.44563061 0.26838326 1.1142
-0.43510062 0.26750618 1.1135001
-0.42040795 0.26577514 1.113
-0.41847503 0.26577514 1.113
-0.40366355 0.2685276 1.1148001
-0.39528009 0.26770803 1.113
-0.38613784 0.26806885 1.1145
-0.37467718 0.26730254 1.1140001
-0.36425078 0.26665768 1.114
-0.35516876 0.26391646 1.1140001
-0.34565574 0.26569092 1.1140001
-0.33396414 0.26659155 1.1148001
-0.32434511 0.26722005 1.1150001
-0.31405884 0.26665825 1.1140001
-0.30549842 0.26653209 1.1138572
-0.29496479 0.26595423 1.1137501
-0.28556219 0.26620498 1.1148001
-0.27597579 0.26553079 1.1136
-0.26521838 0.26557267 1.1143637
-0.25588623 0.26676863 1.114125
-0.24429995 0.26524937 1.1135
-0.23484369 0.26483375 1.114125
-0.22453973 0.26577514 1.1130002
-0.21418798 0.26307535 1.1148751
-0.20472543 0.26425618 1.1147501
-0.19457267 0.26620495 1.1148001
-0.18517642 0.26489884 1.1142
-0.1045888 0.26340654 1.1152501
-0.095679045 0.26190931 1.113
-0.084601022 0.2627205 1.1148001
-0.071710445 0.26358432 1.1160001
-0.064546697 0.26173389 1.115
-0.059112661 0.26067716 1.1160001
-0.044663474 0.26203507 1.1147144
-0.033895683 0.26224247 1.1153333
-0.01065966 0.26261526 1.1160001
-0.003875806 0.26185155 1.1155001
0.059112661 0.26067716 1.1160001
-0.60566252 0.27230588 1.1160001
-0.45642728 0.27036774 1.1160001
-0.58221716 -0.44388863 1.1218668
-0.57689703 -0.44241777 1.1222501
-0.61216581 -0.43030143 1.1220001
-0.60558754 -0.43091407 1.1213846
-0.59459585 -0.43193862 1.1228824
-0.58468688 -0.43545172 1.1244839
-0.57705712 -0.43704918 1.124889
-0.61358953 -0.42961055 1.1270001
-0.60507733 -0.42870399 1.1263335
-0.59615237 -0.42887089 1.1266
-0.57444507 -0.42178163 1.1270001
-0.57530344 -0.41458109 1.1240001
-0.59177679 -0.34392101 1.126
-0.58419108 -0.34476528 1.125667
-0.57696623 -0.34362659 1.1254616
-0.59091526 -0.33591422 1.1226001
-0.58482003 -0.33424562 1.1226894
-0.57397199 -0.33510578 1.1232083
-0.56704491 -0.3325814 1.1232001
-0.59151363 -0.32548064 1.1222501
-0.58536321 -0.32596055 1.1216666
-0.57412201 -0.32686833 1.1205295
-0.56554019 -0.3273353 1.1206
-0.55875427 -0.32082051 1.123
-0.59097612 -0.31866679 1.1200001
-0.58773434 -0.31931514 1.1200001
-0.56207156 -0.31671405 1.1212858
-0.59345174 -0.30597317 1.1210001
-0.56263798 -0.3051866 1.1218572
-0.55726165 -0.29273254 1.12
-0.45472085 -0.154081 1.1220475
-0.44587362 -0.15387154 1.1248949
-0.43802729 -0.15301813 1.1259999
-0.42765331 -0.15462065 1.1270001
-0.46375462 -0.14346975 1.1211251
-0.45514509 -0.14521632 1.1223998
-0.44513407 -0.14545041 1.1241999
-0.43743947 -0.14581314 1.127
-0.42470846 -0.14531937 1.1259999
-0.47230911 -0.13828339 1.1215
-0.4655585 -0.13852443 1.1227274
-0.45517293 -0.138578 1.123
-0.44550055 -0.13873766 1.1244547
-0.4378309 -0.13915859 1.1270001
-0.4265717 -0.13904187 1.125
-0.30911887 0.13944478 1.123
-0.23193097 0.13994147 1.1270001
-0.22671968 0.13895722 1.123
-0.32239479 0.1429624 1.12
-0.31475511 0.1443536 1.121375
-0.30615449 0.14624219 1.1243
-0.24356969 0.14765204 1.1242501
-0.23513913 0.1436674 1.123625
-0.22915752 0.14139506 1.123
-0.31023815 0.15074266 1.12
-0.30414426 0.15428345 1.120682
-0.29663968 0.15621117 1.1247369
-0.25361413 0.15759145 1.1255
-0.24812861 0.15404992 1.1218572
-0.30192739 0.16347404 1.12
-0.29475138 0.16454022 1.1226786
-0.28799021 0.16677159 1.1258
-0.26128933 0.1673426 1.1270001
-0.25575268 0.16466187 1.1234738
-0.24994108 0.16046801 1.12
-0.29422426 0.17476694 1.1207502
-0.28724113 0.17501223 1.1238889
-0.26177862 0.17272496 1.1270001
-0.25616759 0.1752333 1.123706
-0.29388627 0.18575236 1.1219445
-0.28753918 0.18337527 1.1241429
-0.26128933 0.183979 1.1270001
-0.25539032 0.18400995 1.1237857
-0.24994108 0.18769895 1.12
-0.32288107 0.19936934 1.12
-0.3121832 0.19742428 1.12
-0.30309612 0.19459379 1.1223334
-0.29650679 0.19243395 1.1236666
-0.32774377 0.2013144 1.12
0.6097784 0.23827067 1.12
0.61577147 0.23706916 1.1248573
0.30728406 0.24954598 1.1270001
0.31478679 0.24921976 1.1270001
0.32000601 0.24954598 1.1270001
0.35710615 0.24967769 1.1246667
0.36543375 0.24906796 1.1237501
0.37527189 0.24879095 1.122
0.38417277 0.24728708 1.1212
0.39632779 0.24728377 1.1226667
0.40548819 0.2478888 1.1234444
0.41444045 0.24859834 1.1256669
0.42565975 0.24919631 1.1254287
0.43514106 0.24847926 1.1261111
0.44430658 0.24816342 1.1256667
0.45555589 0.24765663 1.1258334
0.46515903 0.24712403 1.1240001
0.47477764 0.24584125 1.1235001
0.48474577 0.24456954 1.12325
0.49257722 0.24267745 1.1242001
-0.18575387 0.25966641 1.12
-0.061652537 0.25933209 1.1270001
-0.055070575 0.25813794 1.1233637
-0.045921277 0.25848913 1.1253077
-0.033854436 0.25875479 1.1245002
-0.02534911 0.25934589 1.1228334
-0.015884712 0.25966641 1.1200001
-0.0037578987 0.25839293 1.1217144
0.0040324163 0.25773785 1.1212858
0.025423933 0.25910199 1.126
0.035467248 0.25783703 1.1222
0.045929454 0.25798532 1.1254001
0.056759477 0.25933209 1.1270001
0.064817615 0.25658882 1.1224999
0.075043455 0.25671336 1.1224002
0.085887924 0.25700688 1.1225556
0.094206139 0.2557691 1.1242499
0.10370463 0.25617325 1.1231668
0.11417525 0.2566441 1.1238002
0.12036924 0.25737488 1.1270001
0.13550593 0.25541568 1.1227001
0.14496449 0.25539082 1.1221111
0.15509813 0.25483769 1.1233751
0.16525689 0.25388274 1.1216668
0.17468405 0.25568259 1.123875
0.18556583 0.25454411 1.1241111
0.19501145 0.25370643 1.1229
0.20460224 0.2553255 1.1233751
0.21508628 0.25410679 1.1233749
0.22455552 0.25362381 1.1234
0.23487823 0.25411379 1.1237143
0.24490778 0.25402355 1.1251668
0.25505364 0.2531006 1.1253999
0.2642625 0.25412107 1.123
0.27547848 0.25335893 1.1236666
0.28550291 0.25213426 1.1242728
0.29506126 0.2534503 1.1231111
0.3046104 0.25143385 1.1227274
0.3151941 0.25078911 1.1238002
0.3262479 0.25150961 1.1226667
0.33605129 0.2522797 1.12175
0.34544992 0.2515032 1.1270001
0.35517529 0.25123009 1.1232858
0.42711061 0.25061056 1.123
0.43588686 0.25061056 1.123
-0.51233435 0.26833385 1.1210001
-0.50499612 0.26783153 1.1234444
-0.49593192 0.2678647 1.1234001
-0.48399743 0.26550162 1.1200001
-0.47316432 0.2680456 1.1248573
-0.46465111 0.26788151 1.1237649
-0.45505995 0.26729089 1.1241766
-0.44491822 0.26652789 1.123077
-0.43705344 0.26730385 1.1235001
-0.41370231 0.26922765 1.1242001
-0.4052195 0.26884544 1.1245002
-0.39314356 0.26925498 1.1235001
-0.38324356 0.26774856 1.1240001
-0.37441212 0.26675439 1.1225556
-0.36616486 0.26537091 1.1215
-0.35349721 0.26488465 1.1215
-0.34314254 0.26699534 1.1242501
-0.33480775 0.26623327 1.1241251
-0.32502899 0.26656532 1.122143
-0.3152526 0.26683885 1.1240001
-0.30462104 0.2656197 1.1228571
-0.29516268 0.26460326 1.1230834
-0.28535432 0.26479864 1.1222727
-0.27364787 0.26488292 1.1215
-0.26363629 0.26447138 1.1227144
-0.25514197 0.26585719 1.1215
-0.24467359 0.26494741 1.1226
-0.23515931 0.26406437 1.1221666
-0.22477345 0.2660841 1.1238334
-0.21410257 0.26178664 1.12075
-0.20452575 0.26236743 1.1208572
-0.19536375 0.26398352 1.1232941
-0.18759455 0.26349556 1.1206666
-0.10516813 0.26220649 1.1238462
-0.094555773 0.26124224 1.1226001
-0.085055463 0.26187596 1.123
-0.075411491 0.263578 1.1242501
-0.065343969 0.26137483 1.1231668
-0.059483439 0.26036194 1.123
-0.043445326 0.26086172 1.1218001
-0.037209127 0.26144579 1.1218001
-0.010712194 0.26098669 1.1215
-0.0075940969 0.26150069 1.1212001
0.055657912 0.26073289 1.1246001
-0.61361992 0.27311575 1.1246667
-0.6097784 0.27328187 1.12
-0.41443381 0.27011332 1.123
-0.39395589 0.27011332 1.123
-0.5819518 -0.45000336 1.1340001
-0.61740065 -0.43030953 1.1340001
-0.59101593 -0.43072242 1.1325001
-0.58515596 -0.43249553 1.13425
-0.57921523 -0.43170452 1.1325001
-0.62155473 -0.42491025 1.138
-0.61533904 -0.42676666 1.1347896
-0.60559148 -0.42605302 1.1336669
-0.59524906 -0.42689493 1.133474
-0.58586437 -0.42619419 1.1368127
-0.57797742 -0.42660177 1.1320002
-0.58598089 -0.41996944 1.138
-0.59586251 -0.36067963 1.138
-0.58894539 -0.36067963 1.138
-0.60277963 -0.35376248 1.138
-0.59528255 -0.35452372 1.1363573
-0.58552986 -0.35505739 1.1356002
-0.57817888 -0.35097891 1.1343334
-0.60164559 -0.34956497 1.1340001
-0.59593546 -0.34910259 1.1325001
-0.57501739 -0.34534481 1.1340771
-0.57212579 -0.33932906 1.136
-0.56273472 -0.32114181 1.131
-0.56604481 -0.31621462 1.1356667
-0.56583798 -0.30734029 1.13625
-0.43362328 -0.15379454 1.1310003
-0.42818904 -0.15222318 1.131
-0.43323979 -0.14464711 1.1310003
-0.44488451 -0.13847399 1.131
-0.43506369 -0.13847399 1.131
-0.28162134 -0.12111688 1.1340001
-0.27727866 -0.12233462 1.138
-0.28359073 -0.11914749 1.1340001
-0.27524152 -0.11576714 1.1380002
-0.26617527 -0.11292011 1.1380001
-0.25449699 -0.11256079 1.1380001
-0.24605268 -0.11166247 1.138
-0.27459964 -0.10551388 1.1380002
-0.26581594 -0.10573348 1.1380004
-0.25511649 -0.10586978 1.1380004
-0.24704085 -0.10770981 1.138
-0.27253547 -0.09822344 1.138
-0.26581597 -0.097828194 1.1380002
-0.25719199 -0.098007835 1.1380001
-0.30229986 0.1388413 1.1340001
-0.23419471 0.13933103 1.138
-0.30328515 0.144417 1.1348335
-0.29550886 0.14667876 1.1372943
-0.28730848 0.14797747 1.138
-0.2776739 0.14921267 1.138
-0.26334554 0.1487186 1.138
-0.25456727 0.14709637 1.1369288
-0.24480212 0.14385466 1.1352667
-0.23699769 0.14160781 1.1325001
-0.29358071 0.15365137 1.1325717
-0.28497419 0.15481168 1.1356002
-0.27565935 0.15511931 1.1378403
-0.2654154 0.15490283 1.1362803
-0.25600258 0.1532779 1.1333749
-0.28449675 0.16413616 1.1324402
-0.27523652 0.16507089 1.1341383
-0.26553383 0.16448162 1.1318184
-0.28318176 0.17525983 1.1314619
-0.27542186 0.17451341 1.1335559
-0.26566869 0.1762175 1.1312003
-0.28360161 0.18549947 1.1338236
-0.27492151 0.18426943 1.1348002
-0.26492202 0.18525128 1.1319475
-0.25828835 0.18954241 1.131
-0.31261796 0.1991158 1.1333334
-0.30678669 0.19839638 1.1348335
-0.29366308 0.19413601 1.1348751
-0.28803831 0.19136852 1.136
-0.27866209 0.19071552 1.138
-0.30731881 0.20059717 1.138
0.61957842 0.22826573 1.138
0.62284136 0.22780529 1.1357143
0.61664414 0.23579401 1.1345297
0.6220094 0.23238946 1.1347144
0.30820799 0.24912658 1.1340001
0.31468084 0.24872397 1.1336668
0.32461044 0.24856204 1.1352857
0.3324258 0.2485778 1.136
0.3442629 0.2485778 1.136
0.35601148 0.24894366 1.1346667
0.36586648 0.24839573 1.1336668
0.37523016 0.24811721 1.1348002
0.38582566 0.24655414 1.1335001
0.39578027 0.24650334 1.131
0.40464363 0.24611087 1.1332223
0.41606197 0.24777968 1.1342858
0.42602611 0.24808925 1.1350002
0.43545979 0.24584249 1.1334002
0.44440675 0.2448153 1.132286
0.45421892 0.24601708 1.1342001
0.46574488 0.24643786 1.1332858
0.47530323 0.24559458 1.1332859
0.4847171 0.24416347 1.1343333
0.49320051 0.24335389 1.1328
-0.25000533 0.25988695 1.138
-0.11166246 0.25988695 1.138
-0.10535619 0.25796455 1.1339
-0.096552469 0.2589308 1.1362858
-0.083711557 0.25932232 1.138
-0.074112251 0.25988695 1.138
-0.06386476 0.25907594 1.1373334
-0.05581769 0.25780487 1.1358001
-0.040265486 0.25828835 1.131
-0.033904728 0.25845966 1.1317501
-0.024986584 0.25910085 1.1360002
-0.0049373433 0.25943023 1.136
0.0055790422 0.25874513 1.1330001
0.014270842 0.25880221 1.13325
0.025277909 0.25868216 1.1341667
0.033738114 0.25782564 1.1343751
0.044795386 0.25637752 1.1351111
0.054982871 0.25684801 1.1343532
0.063989371 0.25630754 1.1338334
0.07680025 0.25651771 1.1318573
0.085233003 0.25507563 1.1347501
0.096509919 0.25467956 1.1324286
0.10538855 0.25510016 1.1343077
0.1151094 0.25579244 1.1330001
0.12472697 0.25660291 1.1355
0.13560444 0.25576442 1.1343334
0.14515148 0.25491226 1.1320001
0.15288277 0.25441456 1.1330001
0.16565447 0.25426701 1.1338751
0.17582245 0.25437593 1.1340001
0.18393183 0.25426236 1.1354444
0.19508977 0.25243104 1.1347001
0.20454533 0.25316226 1.1337693
0.21420836 0.25339001 1.1337003
0.22513402 0.2530565 1.1322001
0.23534821 0.25328609 1.1350001
0.24430849 0.25294733 1.1348463
0.25459051 0.25234225 1.1332858
0.26553255 0.25294733 1.1348461
0.27462789 0.25195733 1.1349446
0.28586882 0.25065723 1.13425
0.29574847 0.25201496 1.1332223
0.30392933 0.25074497 1.1342001
0.32729149 0.25112176 1.1328572
0.33605662 0.25139046 1.1337273
0.34474814 0.2507233 1.1350001
0.35300007 0.25034639 1.1324
0.36351085 0.25021851 1.1345
-0.51483661 0.26710898 1.1351112
-0.50490558 0.26623568 1.1337858
-0.49355328 0.26795074 1.1345
-0.48156235 0.26789793 1.1356667
-0.47438818 0.26653522 1.1326668
-0.46501943 0.26530361 1.1330001
-0.45788977 0.26566464 1.1352501
-0.44474384 0.26724321 1.1356667
-0.42211017 0.26879376 1.1366668
-0.41539988 0.26798657 1.1351113
-0.4049097 0.26797169 1.1345835
-0.39467907 0.2679297 1.1355455
-0.38460431 0.26696143 1.1328001
-0.37368464 0.26586369 1.1340001
-0.36828187 0.26614505 1.131
-0.35285378 0.26722437 1.1335001
-0.34494892 0.26656735 1.1346669
-0.33448729 0.26514569 1.1343001
-0.32441795 0.26588976 1.1337273
-0.31451431 0.26496643 1.1354377
-0.30585957 0.26525435 1.1335001
-0.29297221 0.26534879 1.136
-0.28321636 0.26549828 1.1338334
-0.27473003 0.26489291 1.1330001
-0.26399764 0.26518103 1.1336001
-0.25431955 0.26427874 1.1347224
-0.24512629 0.26351124 1.1343335
-0.23424403 0.26576072 1.1344001
-0.22573954 0.26606581 1.13275
-0.19444011 0.26287174 1.1366668
-0.11186044 0.26363468 1.135
-0.10514092 0.26039058 1.1316001
-0.095310703 0.26039061 1.1316
-0.084761508 0.26130682 1.1331429
-0.075478718 0.26205203 1.1338333
-0.067086048 0.26145345 1.1328
-0.034372974 0.26025254 1.131
-0.022587955 0.26025254 1.131
-0.014751421 0.26071271 1.1330001
-0.0088387653 0.26025254 1.131
0.052050505 0.26025254 1.131
-0.61730874 0.27173206 1.1338334
-0.42416522 0.27126735 1.136
-0.4193503 0.27007338 1.131
-0.40175354 0.27078977 1.1340001
-0.39613196 0.27031219 1.1320001
-0.38988775 0.27007338 1.131
-0.6218031 -0.42280456 1.1430001
-0.61663228 -0.42338756 1.1435386
-0.60398895 -0.42507872 1.1446668
-0.59424239 -0.42425185 1.1433334
-0.62194377 -0.41894132 1.146
-0.59010023 -0.41894132 1.146
-0.58804059 -0.41946232 1.1420001
-0.57714993 -0.39138734 1.1440001
-0.57416695 -0.38751924 1.1433334
-0.60005134 -0.37117603 1.146
-0.59363842 -0.3720606 1.146
-0.61199266 -0.36321515 1.146
-0.60351944 -0.36430058 1.1455001
-0.5942508 -0.36592677 1.1443158
-0.58510131 -0.36273974 1.1445
-0.57019109 -0.36194739 1.1420001
-0.61000246 -0.35923472 1.146
-0.60532343 -0.35741419 1.1420002
-0.59861803 -0.35930306 1.1420001
-0.58284581 -0.35804552 1.1430001
-0.57504445 -0.3546477 1.14525
-0.57372236 -0.34525028 1.142889
-0.57019109 -0.31236556 1.1420001
-0.56694508 -0.31382722 1.1427275
-0.28418586 -0.11399617 1.1436843
-0.27630606 -0.1153003 1.1420002
-0.26425818 -0.11575868 1.1426668
-0.25485063 -0.11602149 1.1420001
-0.24459575 -0.11438441 1.1441334
-0.28408092 -0.10413117 1.1432632
-0.27798885 -0.1008164 1.1420001
-0.25154519 -0.1008164 1.1420001
-0.24507666 -0.10426599 1.1436001
-0.28294295 -0.097189084 1.146
-0.27534851 -0.09426453 1.14425
-0.26526159 -0.092392184 1.1441334
-0.25474316 -0.093590543 1.1442001
-0.24822466 -0.095641121 1.146
-0.27166504 -0.088564791 1.146
-0.26445049 -0.087569684 1.146
-0.25712115 -0.086268395 1.146
-0.24977262 -0.088564791 1.146
-0.26668948 -0.044779953 1.146
-0.25474817 -0.02089731 1.146
-0.25176284 -0.017911982 1.146
-0.27166504 0.048760392 1.146
-0.26668948 0.048760392 1.146
-0.27223369 0.054446734 1.1460001
-0.26578489 0.055273838 1.146
-0.25906032 0.055394463 1.1460001
-0.27166504 0.062691934 1.1460001
-0.26518252 0.064432807 1.1445
-0.25897738 0.065428488 1.146
-0.26384634 0.074348949 1.1460001
-0.25858647 0.07321167 1.1460001
-0.26414645 0.086132303 1.146
-0.25847983 0.085330687 1.146
-0.26370415 0.090555012 1.146
-0.25839689 0.093208641 1.146
-0.30046591 0.13982077 1.1420001
-0.25391847 0.1386342 1.1445
-0.24540226 0.13882141 1.1441818
-0.23789589 0.1389205 1.1444
-0.30046591 0.14180405 1.1420001
-0.29519111 0.14213316 1.1433334
-0.28413874 0.14620289 1.1433336
-0.27500409 0.14752692 1.1433336
-0.26538178 0.14527676 1.1436472
-0.2560575 0.14279476 1.1426156
-0.24890082 0.14180405 1.1420001
-0.23285574 0.14031051 1.146
-0.30145755 0.19931898 1.1420001
-0.29188913 0.19647202 1.1446667
-0.28559136 0.19188169 1.1420001
-0.27468336 0.19138588 1.1420001
-0.31146944 0.20399755 1.146
-0.30470109 0.202878 1.1446667
-0.29654276 0.20001711 1.146
0.61682922 0.22874758 1.1449091
0.62484747 0.22506276 1.1443334
0.59994018 0.23303463 1.1420001
0.60731632 0.23676153 1.1451111
0.61481625 0.23493424 1.1448148
0.26668948 0.24977262 1.146
0.27564546 0.24977262 1.146
0.29853302 0.24977262 1.146
0.30251345 0.24977262 1.146
0.31594744 0.24977262 1.146
0.32710552 0.248062 1.1450001
0.33464909 0.24785776 1.1436001
0.3437506 0.24796224 1.1437778
0.35426089 0.24907517 1.1428002
0.36524272 0.24862294 1.143
0.37581989 0.24778239 1.1460001
0.38343865 0.24734996 1.1440001
0.39489889 0.24672996 1.1426668
0.40605527 0.24588132 1.1433334
0.41635719 0.24762957 1.1430001
0.42689916 0.24660449 1.1440001
0.43433687 0.24493426 1.1420001
0.44515595 0.24312119 1.1428001
0.45502695 0.24455683 1.1433334
0.46513817 0.24619699 1.1437778
0.47400618 0.24504958 1.1444
0.4849759 0.24422744 1.1445
0.49655992 0.24380195 1.1460001
0.50065839 0.24337646 1.1440001
0.60985655 0.24096772 1.1420001
0.61283147 0.24096772 1.1420001
-0.1132463 0.25927043 1.1440001
-0.10114694 0.25683391 1.1420001
-0.093292862 0.25904381 1.1430001
-0.084440209 0.25927043 1.1440001
-0.074125573 0.25878769 1.1433334
-0.065740824 0.25838512 1.1436001
-0.052556746 0.25881717 1.1420001
-0.046713442 0.25942153 1.1446667
-0.034211464 0.25881717 1.1420001
-0.024282323 0.25861177 1.1448572
-0.01592176 0.25972372 1.146
-0.0049755503 0.25972372 1.1460001
0.0049755503 0.25972372 1.146
0.014926651 0.25972372 1.146
0.024089739 0.25827533 1.1440001
0.034784395 0.25737366 1.1444
0.044011187 0.25547874 1.1433334
0.055136561 0.25529695 1.1440001
0.065005168 0.25656125 1.1430001
0.075300135 0.2565223 1.1431431
0.083817899 0.25412124 1.1446667
0.094698712 0.25463355 1.1440001
0.10448655 0.25375307 1.146
0.11334616 0.25552011 1.145
0.12576941 0.25576717 1.1450001
0.13479254 0.25600764 1.1442223
0.14587133 0.25502917 1.1428001
0.15708759 0.25552011 1.1450001
0.16509657 0.25370619 1.1440001
0.1743353 0.25256389 1.1440001
0.18542218 0.25375307 1.1460001
0.19338307 0.25308967 1.1460001
0.20761156 0.2523151 1.1440001
0.21533592 0.25264645 1.1428002
0.22589476 0.25245318 1.1435001
0.23478866 0.25217703 1.1445
0.24380195 0.25176284 1.1460001
0.25418955 0.2528674 1.1420001
0.26513657 0.25163224 1.1436001
0.27071682 0.25088409 1.1420001
0.28526083 0.25088412 1.1420001
0.29550773 0.25088409 1.1420001
0.30344084 0.25088409 1.1420001
0.33814812 0.25088409 1.1420001
-0.61796331 0.26967481 1.146
-0.52249807 0.26651341 1.1444
-0.51517451 0.26474664 1.1431431
-0.50348079 0.26643121 1.1442859
-0.49363881 0.26769891 1.1450001
-0.48580703 0.26772282 1.1433334
-0.47549531 0.26622349 1.1440001
-0.46489581 0.26523066 1.1440001
-0.45466542 0.26675028 1.1420001
-0.44628689 0.26803428 1.1446667
-0.42336071 0.26633826 1.1445
-0.41555184 0.26686639 1.1437144
-0.40397009 0.26655406 1.1440001
-0.39488655 0.26616368 1.1442223
-0.38597187 0.26657432 1.1426668
-0.37825239 0.26573724 1.1433334
-0.36719561 0.26768461 1.146
-0.35398173 0.26635432 1.1435001
-0.34536284 0.26556122 1.1440001
-0.33258614 0.26507613 1.1433334
-0.32394478 0.26436839 1.1435001
-0.31441483 0.26339734 1.1446667
-0.30649388 0.26569438 1.146
-0.29321826 0.26604867 1.1446667
-0.28311315 0.26473314 1.1440001
-0.26176834 0.26441506 1.1433334
-0.25661856 0.26137981 1.1428001
-0.24654011 0.26176834 1.1433334
-0.23488174 0.26630363 1.1452
-0.22588997 0.26688853 1.146
-0.20001711 0.26370415 1.146
-0.19733572 0.26344484 1.1420001
-0.11507397 0.26373401 1.1444
-0.088255666 0.26080045 1.1420001
-0.014892611 0.26116586 1.1436001
-0.62320578 0.27134895 1.1446667
-0.61787826 0.27218255 1.1440001
-0.43385351 0.2710329 1.1433334
-0.4273954 0.27071682 1.1420001
-0.62256944 -0.42195636 1.1551667
-0.61512518 -0.42336974 1.1541665
-0.60548854 -0.42323735 1.1522856
-0.59743249 -0.42145124 1.1515
-0.62510842 -0.41602448 1.1556954
-0.61584741 -0.41504547 1.1566921
-0.60550088 -0.41489559 1.154739
-0.59540236 -0.41483814 1.1540606
-0.58873177 -0.41090664 1.1570001
-0.61284363 -0.40538096 1.1570001
-0.60597855 -0.40471125 1.1569998
-0.59617984 -0.40652731 1.1565788
-0.58772212 -0.40434209 1.1561112
-0.60442966 -0.39533433 1.1569998
-0.59576434 -0.39493257 1.1569998
-0.58597481 -0.39390984 1.153846
-0.60451043 -0.38497189 1.1559089
-0.59480137 -0.38445577 1.1539999
-0.58520782 -0.38679141 1.154857
-0.57968807 -0.3874599 1.153
-0.61516905 -0.3731845 1.1563334
-0.60497135 -0.37522942 1.1523333
-0.59368175 -0.37683919 1.1515713
-0.58720887 -0.37342057 1.1551427
-0.5796898 -0.37072018 1.1570001
-0.61307633 -0.36628446 1.1510909
-0.60703599 -0.36821827 1.15075
-0.59016275 -0.36847726 1.1500001
-0.58371544 -0.36539501 1.1510713
-0.57790643 -0.36381847 1.1521111
-0.58017695 -0.35849142 1.1500001
-0.57454056 -0.35317862 1.1512858
-0.57468474 -0.34680802 1.151
-0.56718057 -0.31476623 1.152
-0.27163348 -0.12128389 1.1543334
-0.26389432 -0.12162971 1.1538
-0.25444895 -0.1213119 1.1546
-0.24492298 -0.121459 1.156
-0.23728165 -0.12181126 1.1530001
-0.29243252 -0.11401333 1.1528889
-0.27161467 -0.11883142 1.1500001
-0.26462457 -0.11883142 1.1500001
-0.25463876 -0.11883142 1.1500001
-0.24240613 -0.11633497 1.1500001
-0.23586215 -0.11485939 1.1521426
-0.29255366 -0.10546461 1.1527274
-0.24122922 -0.10399533 1.1500002
-0.23424976 -0.10511492 1.1529
-0.2280582 -0.10548948 1.1570001
-0.29305801 -0.095341794 1.1558001
-0.28573564 -0.093537152 1.1505623
-0.27760619 -0.090871088 1.1500001
-0.24423718 -0.094412729 1.1502856
-0.23675223 -0.096009478 1.1538821
-0.29206952 -0.086257391 1.1570002
-0.28462553 -0.085322075 1.1523181
-0.27487087 -0.084532261 1.1499999
-0.26576585 -0.083167732 1.15
-0.25357363 -0.083415002 1.15
-0.24443758 -0.084813818 1.1520356
-0.23857652 -0.087685168 1.1554
-0.29034722 -0.079368271 1.1570001
-0.28400117 -0.078517884 1.1543334
-0.27455702 -0.076302044 1.1511666
-0.26476637 -0.075121909 1.1523598
-0.25524709 -0.075887695 1.1536189
-0.2448827 -0.077616327 1.1548667
-0.27226332 -0.061786696 1.1570001
-0.26323226 -0.062823631 1.1565557
-0.25543523 -0.062289026 1.1570001
-0.24815144 -0.061284363 1.1570001
-0.29221982 -0.0530391 1.1525
-0.28446993 -0.054955672 1.1540399
-0.2748138 -0.055035986 1.1541303
-0.26489908 -0.054850593 1.1519165
-0.25494248 -0.055196244 1.152423
-0.2453876 -0.05449672 1.1550415
-0.29175115 -0.048390657 1.1562001
-0.28395781 -0.045361511 1.1544999
-0.27484214 -0.044974796 1.1509597
-0.26436409 -0.044936247 1.1499999
-0.25463876 -0.04493624 1.1499997
-0.24446745 -0.045237903 1.1521784
-0.23789729 -0.043163985 1.1559999
-0.28426543 -0.034874003 1.1557498
-0.27490008 -0.034986887 1.1511998
-0.2646246 -0.03495042 1.1499997
-0.2546649 -0.03495365 1.1501198
-0.24447897 -0.034904193 1.1531034
-0.23793879 -0.037949122 1.1562001
-0.2835938 -0.026377525 1.1562728
-0.27467027 -0.025261665 1.1516955
-0.26462457 -0.024964582 1.1499997
-0.25455195 -0.025311917 1.1499999
-0.2446788 -0.02525017 1.1531786
-0.28105411 -0.014316429 1.1570001
-0.27425501 -0.015013915 1.1526999
-0.26468065 -0.014982084 1.1502398
-0.25481242 -0.01471825 1.1499999
-0.24490507 -0.014994381 1.1511998
-0.28348207 -0.0046884213 1.1569999
-0.27501288 -0.0048363637 1.152375
-0.26462457 -0.0049929162 1.1499997
-0.25463879 -0.0049929172 1.1499997
-0.24432397 -0.0051431386 1.1515
-0.23889098 -0.0036768131 1.1543334
-0.29034722 0.0056930832 1.1570001
-0.284702 0.0054060365 1.1569998
-0.27467003 0.0047404584 1.1516955
-0.2646246 0.0049929167 1.1499997
-0.25463876 0.0049929172 1.1499997
-0.24423304 0.0050064926 1.1527666
-0.29235655 0.012055941 1.1570001
-0.28386265 0.014704593 1.1569998
-0.27442178 0.015023382 1.1533999
-0.26482016 0.014990732 1.1508397
-0.25463876 0.014978752 1.1499997
-0.2447242 0.014808216 1.1533927
-0.28230995 0.024446769 1.1570001
-0.27488625 0.025020082 1.1526086
-0.26479214 0.024978964 1.1507198
-0.25466493 0.024967397 1.1501198
-0.24510847 0.024835141 1.1542591
-0.28116176 0.035450205 1.1570002
-0.27415833 0.035179451 1.1512856
-0.26462457 0.034950424 1.1499997
-0.25463876 0.034950424 1.1499997
-0.24458109 0.03492108 1.1535861
-0.23777416 0.037520166 1.1554
-0.28439328 0.045892715 1.1552498
-0.27499735 0.044608846 1.1505215
-0.2646246 0.044769816 1.1499999
-0.25463876 0.044936251 1.1499997
-0.24505889 0.045010023 1.1519198
-0.23590867 0.045368113 1.1543912
-0.28401968 0.055400971 1.1547499
-0.27702665 0.055098966 1.1504616
-0.26329315 0.052592061 1.1500001
-0.25447232 0.054922096 1.1499999
-0.24487975 0.054973882 1.1510798
-0.2354721 0.055111215 1.1539599
-0.291017 0.067982107 1.1570001
-0.28503078 0.065234587 1.1557997
-0.27599242 0.06550061 1.1506666
-0.25409409 0.06463559 1.1499999
-0.2449057 0.064975016 1.1511998
-0.2354397 0.065122396 1.1537999
-0.2915163 0.075892627 1.155
-0.28525436 0.07494396 1.1533333
-0.27472669 0.074924998 1.1504797
-0.26587281 0.076141983 1.1500001
-0.25387797 0.075083956 1.1499999
-0.24480399 0.074941255 1.1507198
-0.23608255 0.074899271 1.1542727
-0.291017 0.082047373 1.1570001
-0.28445387 0.084534645 1.1554998
-0.27504334 0.085012421 1.1517998
-0.26523909 0.083343297 1.15
-0.25364017 0.084879592 1.1499999
-0.24490508 0.084968142 1.1511998
-0.23777325 0.085279077 1.1553999
-0.28314495 0.095658205 1.1551818
-0.27492854 0.094973475 1.1513197
-0.26498774 0.095319308 1.1499999
-0.253878 0.094960526 1.1499999
-0.24495633 0.094985053 1.1514398
-0.237113 0.095648274 1.1554443
-0.2841925 0.10485873 1.1559333
-0.27501386 0.1050061 1.1516799
-0.2646246 0.10485125 1.1499997
-0.25463873 0.10485125 1.1499997
-0.24511038 0.10504901 1.1521598
-0.23715873 0.10547993 1.1556665
-0.28186342 0.11486632 1.1570001
-0.27471653 0.11519974 1.1527272
-0.2646246 0.11483708 1.1499997
-0.25476953 0.114897 1.1505998
-0.24457711 0.11533033 1.1535517
-0.2372181 0.11469381 1.1566
-0.28087473 0.12472157 1.1570002
-0.27418441 0.12508343 1.1523999
-0.2646246 0.12482293 1.1499997
-0.25469106 0.12484834 1.1502398
-0.24442834 0.12522091 1.1536667
-0.23810482 0.12658738 1.1570001
-0.2821705 0.13756971 1.1564287
-0.27442926 0.13528292 1.1524285
-0.26465261 0.13482261 1.1501198
-0.25463876 0.13365249 1.1499999
-0.24478185 0.13377905 1.151105
-0.23648342 0.13539955 1.1539998
-0.29224437 0.14161597 1.1534001
-0.284592 0.14212745 1.1517777
-0.27499923 0.14270723 1.1504285
-0.26622233 0.14119969 1.1500001
-0.20394632 0.15773189 1.1570001
-0.29209736 0.19890869 1.154
-0.28635997 0.19672449 1.1546999
-0.30083495 0.20289044 1.151
-0.29424912 0.20441766 1.1531904
-0.28800407 0.20705399 1.1556666
0.60909158 0.2288675 1.1543334
0.61524302 0.22651055 1.1535237
0.62502521 0.2230276 1.1533846
0.63247812 0.22285342 1.1543334
0.60799944 0.23320338 1.151
0.6126622 0.2328705 1.151
0.23728165 0.24929592 1.1530001
0.24218912 0.24860923 1.1554
0.26764271 0.24863315 1.1522499
0.27455413 0.24856463 1.1511668
0.28196913 0.24897158 1.1515
0.29935533 0.24929591 1.153
0.30536243 0.24929591 1.153
0.32617575 0.24813256 1.1522501
0.33519113 0.24598436 1.1500001
0.34364527 0.24622086 1.1526668
0.35394338 0.24869092 1.1528572
0.36512813 0.24849898 1.1534445
0.37465838 0.24760514 1.1521251
0.38472083 0.24646044 1.1538
0.39466324 0.24628761 1.1545554
0.40465084 0.24648781 1.1544443
0.41507107 0.2466374 1.1546251
0.42467907 0.2465357 1.1537273
0.43461147 0.24478057 1.1506001
0.44429925 0.24571663 1.155
0.45854425 0.24529114 1.153
0.46555379 0.2451714 1.153625
0.47466207 0.24509163 1.15325
0.4846099 0.24430618 1.1546668
0.49552441 0.24396594 1.1548572
0.50425291 0.24260062 1.1545
-0.5236215 0.25930777 1.153
-0.43564892 0.25797489 1.156
-0.42950982 0.25730541 1.153
-0.10348015 0.25819805 1.1570001
-0.095112897 0.25930777 1.153
-0.085101008 0.25930777 1.153
-0.075340748 0.25829223 1.1534445
-0.066303335 0.25859401 1.1534001
-0.055989701 0.25897044 1.1515
-0.047598995 0.25903034 1.154
-0.024162617 0.25752521 1.1527144
-0.015483653 0.25767893 1.1533078
-0.0056786109 0.25912282 1.1536666
0.0050059417 0.25930777 1.153
0.015028594 0.25751114 1.1539333
0.025199823 0.25643355 1.1523635
0.034607332 0.25648752 1.1533333
0.045042045 0.25493127 1.1528335
0.055028167 0.25478363 1.1521667
0.065571226 0.25638747 1.1538889
0.074815981 0.25557327 1.1522223
0.084507316 0.25380856 1.1527144
0.096475892 0.25437337 1.1533334
0.10602078 0.25282073 1.1534287
0.11506951 0.25519958 1.1545557
0.12521487 0.25443852 1.153625
0.13469082 0.25354218 1.1518333
0.14543638 0.25476336 1.1551001
0.15529945 0.25348699 1.1538666
0.16503988 0.25165647 1.1519002
0.17611031 0.25193119 1.1532857
0.18558456 0.25304806 1.1538889
0.19563949 0.25342605 1.1554
0.20479207 0.25248444 1.1523335
0.21459688 0.25240582 1.1535001
0.22406428 0.25186715 1.1525557
0.23369575 0.25046304 1.1526251
0.24564038 0.25130421 1.1515
0.25521186 0.25221023 1.1525999
0.26188082 0.25100774 1.1530002
0.28589115 0.25067848 1.1520001
0.29469535 0.25067848 1.1520001
0.30756366 0.25064442 1.1500001
0.31449473 0.25032198 1.1546668
0.32149175 0.25016075 1.1570001
-0.6319322 0.26724002 1.1570001
-0.62620449 0.26829934 1.1550834
-0.61612594 0.26762033 1.1500001
-0.52423704 0.26311788 1.1527858
-0.51553643 0.26427689 1.1533333
-0.5050872 0.26506731 1.1542667
-0.49558601 0.26640368 1.1529999
-0.48439625 0.26571095 1.1523635
-0.47597453 0.26454106 1.1539999
-0.46507588 0.26612857 1.1548001
-0.45496511 0.26679832 1.1551001
-0.44428802 0.26722348 1.1553124
-0.43481544 0.26475525 1.1546153
-0.4260149 0.26438212 1.152909
-0.41465655 0.26660457 1.1537777
-0.40515766 0.26576361 1.1537144
-0.39485854 0.26568615 1.1531668
-0.38489127 0.26514459 1.1536152
-0.37494832 0.26612309 1.153846
-0.36538708 0.26739913 1.1514443
-0.35516864 0.265185 1.1546249
-0.34579656 0.2650184 1.1531668
-0.33539811 0.26531491 1.153
-0.32651824 0.26435888 1.1546668
-0.31136957 0.26531491 1.153
-0.3044028 0.26601988 1.1531668
-0.29423696 0.26527631 1.1536362
-0.28605717 0.26434836 1.1512858
-0.27395424 0.26793557 1.1556667
-0.26612434 0.26512203 1.1521667
-0.24135211 0.26472184 1.1533334
-0.2345255 0.26519769 1.153846
-0.22560754 0.26544318 1.1527001
-0.21769118 0.26662177 1.1500001
-0.20310903 0.26564163 1.1522501
-0.19832125 0.26242208 1.1535001
-0.10548948 0.26020738 1.1570001
-0.088873923 0.26063025 1.1500001
-0.056261055 0.26020738 1.1570001
-0.041940503 0.26063025 1.1500001
-0.03404605 0.26041883 1.1535001
-0.010984417 0.26063025 1.1500001
-0.0049929167 0.26063025 1.1500001
-0.62511319 0.27061608 1.1500001
-0.61812311 0.27061608 1.1500001
-0.4982931 0.27061608 1.1500001
-0.44197303 0.27141497 1.1500001
-0.43405092 0.27094895 1.1500001
-0.61496234 -0.42442486 1.161
-0.63386315 -0.41271085 1.165889
-0.62437165 -0.41098306 1.1610001
-0.59278339 -0.41635978 1.161
-0.63083982 -0.40872622 1.1680001
-0.62440246 -0.40552977 1.165
-0.61633712 -0.40371227 1.1610003
-0.60185659 -0.40224588 1.161
-0.59600937 -0.40345564 1.1610001
-0.623523 -0.39546019 1.1675884
-0.6143623 -0.39434928 1.16225
-0.60709888 -0.3941808 1.1610001
-0.59580779 -0.39418077 1.161
-0.62406224 -0.38336694 1.1686
-0.61537105 -0.38561174 1.1639335
-0.60992169 -0.38611573 1.161
-0.59177524 -0.38309133 1.161
-0.5856142 -0.38290152 1.1614445
-0.62487906 -0.37776178 1.1663334
-0.61647457 -0.37754655 1.161
-0.58462554 -0.37633476 1.1613638
-0.57967764 -0.37805063 1.161
-0.57663673 -0.35547656 1.1630001
-0.31772056 -0.13094553 1.169
-0.27204192 -0.13196062 1.169
-0.26575968 -0.13192406 1.1676667
-0.2558006 -0.13094553 1.169
-0.29792517 -0.12058806 1.1670001
-0.27334586 -0.12605353 1.1654444
-0.26490575 -0.12650967 1.164077
-0.25585827 -0.12607905 1.1652668
-0.24696848 -0.12517461 1.1656668
-0.30219626 -0.11482704 1.1672858
-0.29780969 -0.11569344 1.1626002
-0.23240477 -0.11519601 1.1636667
-0.22595209 -0.11302614 1.1650001
