# .PCD v0.7 - Point Cloud Data file format
VERSION 0.7
FIELDS x y z
SIZE 4 4 4
TYPE F F F
COUNT 1 1 1
WIDTH 1512
HEIGHT 1
VIEWPOINT 0 0 0 1 0 0 0
POINTS 1512
DATA ascii
-0.02138184 0.25320601 1.296
-0.01533361 0.25180453 1.2926667
-0.70402312 0.26728764 1.2951667
-0.69512331 0.26498324 1.2938572
-0.68779868 0.26519266 1.2930001
-0.53024167 0.26119727 1.291
-0.5243687 0.26274487 1.2920001
-0.51678944 0.26299092 1.291
-0.48277947 0.26445961 1.296
-0.47480294 0.26228184 1.2926667
-0.46970668 0.26119727 1.291
-0.45352012 0.26220888 1.296
-0.44354963 0.26119727 1.2910001
-0.42935005 0.26119727 1.291
-0.35984689 0.26119727 1.291
-0.31172472 0.26220888 1.296
-0.70399952 0.27016541 1.291
-0.50437897 0.15894003 1.3043334
-0.49593905 0.15928794 1.3010001
-0.52052593 0.16897246 1.3060001
-0.51533413 0.16762424 1.3043334
-0.50497663 0.16312893 1.3010002
-0.52212685 0.17781471 1.3043336
-0.51592606 0.17353958 1.3010004
-0.52418154 0.18568639 1.3055
-0.51853305 0.18527108 1.3010001
-0.53186631 0.19505545 1.3060001
-0.52456391 0.19479077 1.3031431
-0.51853305 0.1943087 1.3010001
0.70470285 0.20850943 1.3026669
0.6812101 0.21803243 1.3010001
0.69949508 0.2139239 1.3035002
0.70267445 0.21125422 1.3010001
0.55646724 0.22905211 1.3020002
0.56228083 0.22731283 1.3050002
0.30505767 0.23928313 1.3060001
0.31526405 0.23928314 1.3060001
0.32320237 0.23928314 1.3060001
0.36581621 0.23778889 1.303143
0.37570247 0.23619847 1.3040003
0.38634223 0.23731451 1.3035002
0.39502132 0.23769104 1.3035001
0.40560004 0.23792008 1.3047502
0.41489789 0.2383111 1.3060002
0.42547524 0.23859978 1.3043336
0.43505692 0.23678821 1.3047501
0.44114286 0.23701507 1.3060001
0.45370331 0.23827989 1.3030002
0.46564138 0.23678821 1.3047502
0.47743225 0.23474698 1.3060001
0.49819845 0.23610766 1.3010001
0.50659156 0.2363345 1.3022501
0.51499987 0.23429546 1.3035002
0.53660828 0.23384826 1.3010001
0.54480433 0.232787 1.3035002
0.550978 0.23212114 1.3040003
-0.26623303 0.24853438 1.3010001
-0.053095981 0.2496641 1.3010001
-0.04422769 0.24835549 1.3060001
-0.03848584 0.24900979 1.3035002
-0.0045188069 0.24966408 1.3010001
0.0056485087 0.2496641 1.3010001
0.016519696 0.24778326 1.3030002
0.024888715 0.24606235 1.302875
0.032131229 0.2430633 1.3060001
0.10773412 0.24835549 1.3060001
0.11907455 0.24835549 1.3060001
0.1299157 0.24288587 1.3010001
0.13429262 0.2420851 1.3040001
0.1462916 0.24381933 1.3060001
0.15521957 0.24698591 1.3047501
0.16541295 0.24698375 1.3047501
0.17491934 0.24506851 1.3030002
0.18414138 0.24514528 1.3010001
0.20586912 0.24432674 1.3026669
0.21505579 0.24448232 1.3035001
0.22432242 0.2441508 1.3047501
0.23507099 0.24673545 1.3060002
0.24623747 0.2444282 1.3020002
0.25568217 0.24266782 1.302875
0.26586249 0.2440832 1.302875
0.27511793 0.24244726 1.3038573
0.28296599 0.24221855 1.3035002
0.29552683 0.24118133 1.3040001
0.30539602 0.24062648 1.3010001
0.31744617 0.24062647 1.3010001
0.32628864 0.24188489 1.3047502
0.33220351 0.24221855 1.3035002
0.34134704 0.24155124 1.3060001
0.35314205 0.24108885 1.3035002
0.41121143 0.24062647 1.3010001
-0.69516855 0.25969592 1.3060001
-0.45021522 0.25969592 1.3060001
-0.44454443 0.25827998 1.3026669
-0.43422335 0.25781837 1.3022501
-0.42866838 0.25969592 1.3060001
-0.39200649 0.25870168 1.3010001
-0.38974708 0.25644228 1.3010001
-0.37083218 0.25969592 1.3060001
-0.36553997 0.25969595 1.3060001
-0.35489008 0.25779179 1.3045716
-0.34248108 0.25742784 1.3060001
-0.33454281 0.25742784 1.3060001
-0.32471642 0.25790662 1.3041251
-0.31469974 0.25462908 1.3033079
-0.29259273 0.25192347 1.3010001
-0.28290936 0.25324941 1.302667
-0.27677691 0.25450566 1.3010001
-0.26821902 0.25414601 1.3021113
-0.14148407 0.25580102 1.3035002
-0.13716678 0.25542906 1.3024287
-0.12426719 0.25493604 1.3010001
-0.11393823 0.25466987 1.3035002
-0.10435493 0.25456154 1.3039167
-0.095052496 0.25524458 1.303143
-0.086178288 0.25345662 1.301625
-0.074563615 0.25314993 1.3050002
-0.064830095 0.25196049 1.3041251
-0.057836212 0.25062358 1.3060001
-0.032803319 0.25262132 1.3026669
-0.025272457 0.25411108 1.3032223
-0.014714777 0.25114354 1.3040003
0.01020639 0.25062358 1.3060001
-0.71073663 0.26657313 1.3026669
-0.70572364 0.26429114 1.3035002
-0.69603175 0.26280171 1.3026669
-0.48432109 0.26357618 1.3050002
-0.47765237 0.26146257 1.3035002
-0.45075098 0.26096109 1.3010001
-0.42245549 0.2616297 1.3043334
-0.41732794 0.26196402 1.3060001
-0.40405664 0.26096112 1.3010001
-0.37338018 0.26238286 1.3043334
-0.36512738 0.2615048 1.3018335
-0.32093427 0.26196402 1.3060001
-0.31518677 0.26096109 1.3010001
-0.27903631 0.26322049 1.3010001
-0.52408433 0.16765955 1.3135002
-0.51634693 0.16337693 1.3126668
-0.55307972 0.17826536 1.3160001
-0.5452565 0.17747423 1.3160002
-0.53421491 0.17578579 1.3145716
-0.52754152 0.17470334 1.312875
-0.55250198 0.18401147 1.3130001
-0.54570198 0.1847969 1.3140953
-0.5346992 0.18479355 1.3113573
-0.52934903 0.18441838 1.3110001
-0.55307972 0.19197808 1.3160001
-0.54517502 0.19418895 1.3137779
-0.5356102 0.19423693 1.3110001
-0.54073292 0.20149416 1.3110001
-0.53617942 0.20149416 1.3110001
0.56679243 0.21826079 1.3160001
0.57022065 0.21826079 1.3160001
0.68652928 0.21877724 1.3122501
0.69478488 0.21790417 1.3138573
0.70293611 0.21431771 1.3138573
0.54667002 0.22939718 1.3143334
0.55656534 0.22692959 1.3142145
0.5643357 0.22311929 1.3125385
0.57136333 0.22397444 1.3160001
0.36497569 0.23837617 1.3135002
0.37466717 0.23609507 1.3135002
0.38524273 0.23433399 1.311625
0.39592353 0.23618494 1.3140001
0.40608829 0.23570438 1.313143
0.41496316 0.23541026 1.312875
0.42450663 0.23731333 1.3118334
0.43309343 0.23654443 1.3160001
0.4461236 0.23755275 1.3140001
0.45706984 0.23822495 1.3126669
0.46446109 0.23792247 1.3110001
0.47591648 0.23624486 1.3143334
0.49861264 0.23792247 1.3110001
0.50644177 0.23554809 1.3130001
0.51420414 0.23420157 1.3138573
0.52427 0.23661292 1.3145716
0.54403865 0.23210423 1.3135
0.55439353 0.23109215 1.3110001
-0.32681984 0.2479717 1.3160001
-0.05360613 0.24863902 1.3135002
-0.049043901 0.24863902 1.3135002
-0.033468522 0.24885097 1.3110001
-0.025457218 0.24886146 1.3126669
-0.014229814 0.24930632 1.3110001
-0.0045535397 0.24930632 1.3110001
0.001138385 0.24930632 1.3110001
0.014817819 0.24810253 1.3126669
0.025330326 0.24439867 1.3140001
0.03161544 0.24187717 1.3160002
0.10586981 0.24702957 1.3110001
0.11450886 0.24841659 1.3143334
0.12572426 0.24607128 1.3145716
0.13091429 0.24247602 1.3110001
0.14418647 0.24385437 1.3143334
0.15583348 0.24659345 1.3147501
0.16465528 0.24686909 1.3150001
0.1747026 0.24504247 1.3150001
0.18493088 0.24421199 1.3130001
0.19580223 0.24247602 1.3110001
0.20683354 0.24340078 1.3160001
0.21494 0.24347201 1.3143334
0.22643061 0.24330127 1.3130001
0.23506793 0.24419346 1.3141251
0.24495846 0.24528496 1.3138573
0.25394586 0.24124235 1.313143
0.26519713 0.24202244 1.3126668
0.27542493 0.24118942 1.3143334
0.28549898 0.24083781 1.3120002
0.29464072 0.24103676 1.3135002
0.32899326 0.24019924 1.3110001
0.33591563 0.24232927 1.3143334
0.34389856 0.24302915 1.3140001
0.35538799 0.24225806 1.3160001
0.36224437 0.24111533 1.3160001
-0.70163417 0.25825626 1.3160001
-0.69783002 0.2584134 1.3110001
-0.50279975 0.25825626 1.3160001
-0.49412847 0.25644132 1.3160001
-0.48520175 0.25688496 1.3160001
-0.47898552 0.25717813 1.3140001
-0.45137703 0.25939897 1.3160001
-0.44623739 0.25754684 1.3143334
-0.43610591 0.25858119 1.3147501
-0.42509434 0.25939897 1.3160001
-0.41557163 0.259399 1.3160002
-0.40338254 0.25939897 1.3160001
-0.39602399 0.25830862 1.3143334
-0.38477415 0.25613663 1.3110001
-0.37367162 0.25939897 1.3160001
-0.36589029 0.25799713 1.3138573
-0.35691166 0.25711352 1.3160002
-0.34151551 0.25613663 1.3110001
-0.33421522 0.25515631 1.3147501
-0.32552168 0.25380415 1.3125385
-0.31912729 0.25234205 1.3110001
-0.14385006 0.25572872 1.3147501
-0.1357218 0.25434396 1.3135002
-0.12534501 0.2541019 1.3122501
-0.11455369 0.25222385 1.3132728
-0.10493114 0.25092012 1.3135
-0.095192105 0.25084645 1.3137778
-0.085919701 0.25206143 1.3135002
-0.075648509 0.25208554 1.3160001
-0.065473638 0.25085905 1.3151667
-0.058279064 0.25025713 1.3160001
-0.03187478 0.2515831 1.3110001
-0.025076311 0.25114113 1.3126668
-0.017856408 0.25114113 1.3126668
0.01028454 0.25025713 1.3160001
0.11770085 0.25025713 1.3160001
-0.71519983 0.26401359 1.3143334
-0.70533329 0.26207709 1.31225
-0.50373536 0.26125938 1.3110001
-0.49567237 0.26299483 1.3126669
-0.48628685 0.26219743 1.314
-0.47903129 0.26118731 1.3135002
-0.45594797 0.26168442 1.3160001
-0.42347923 0.26069018 1.3110001
-0.41437215 0.26069018 1.3110001
-0.40526506 0.26069018 1.3110001
-0.39843476 0.26069018 1.3110001
-0.37566707 0.26069018 1.3110001
-0.36542159 0.26069018 1.3110001
-0.52191609 0.1594425 1.3210001
-0.54173839 0.16868156 1.3260001
-0.5336287 0.16778676 1.3235002
-0.5258168 0.16253757 1.3228751
-0.51962197 0.16173664 1.3210001
-0.55173987 0.17320733 1.3210001
-0.54556572 0.17279623 1.3222501
-0.53568095 0.17091319 1.3210001
0.71232939 0.20991352 1.3210001
0.56542349 0.21777976 1.3235002
0.57157701 0.21630184 1.3226669
0.6893881 0.21679592 1.3210001
0.69541937 0.21649948 1.3220001
0.70467252 0.21332212 1.3238573
0.71042001 0.21070804 1.3260001
0.55481291 0.22516139 1.3223639
0.56206346 0.2213842 1.3210001
0.26038453 0.23973729 1.3210001
0.28447294 0.23973729 1.3210001
0.30397311 0.23973729 1.3210001
0.31085554 0.23973729 1.3210001
0.32694888 0.23917913 1.3230002
0.33557785 0.2390396 1.3235002
0.34196877 0.23834188 1.3260001
0.36546242 0.23903958 1.3235002
0.37881389 0.23603906 1.3260001
0.38446996 0.23497477 1.3243335
0.3949523 0.23444264 1.3235002
0.40453222 0.23444262 1.3235002
0.41372612 0.23329554 1.3235002
0.42349136 0.23559186 1.3235002
0.435175 0.23712492 1.3235002
0.44538242 0.23660068 1.3240002
0.455098 0.23750871 1.3235002
0.46570978 0.23744315 1.3210001
0.47463799 0.23674111 1.3235002
0.48122513 0.23544571 1.3226669
0.50532073 0.23532529 1.3220001
0.51503366 0.23285487 1.3210001
0.52606046 0.23300444 1.3235002
0.5344606 0.23459476 1.3252858
0.54001129 0.23373623 1.3260001
-0.33150277 0.24891384 1.3210001
-0.12435228 0.24985598 1.3260001
-0.11481863 0.24914937 1.3222501
-0.10563123 0.24914937 1.3222501
-0.095275275 0.24910228 1.3220001
-0.085204341 0.24985598 1.3260001
-0.074723557 0.24947913 1.3240002
-0.064357392 0.24823351 1.3235
-0.055962931 0.24724057 1.3243335
-0.044792112 0.24922788 1.3226669
-0.024853148 0.24891385 1.3210001
-0.014936203 0.2492907 1.3230002
-0.0038315211 0.24861732 1.3235002
0.0046056402 0.24985598 1.3260001
0.014923178 0.24772404 1.3220001
0.025308227 0.24329203 1.3247502
0.10680906 0.24693087 1.3226669
0.11533184 0.24636973 1.3237779
0.12434653 0.24467018 1.3228751
0.13241215 0.24294752 1.3260001
0.14739381 0.24386621 1.3226669
0.15566213 0.24464844 1.3240002
0.16452156 0.24411631 1.3232729
0.17468438 0.24363652 1.3235002
0.18353093 0.24432556 1.3210001
0.195384 0.24432556 1.3210001
0.20532525 0.24432556 1.3210001
0.21876791 0.24294752 1.3260001
0.22503707 0.24226046 1.3222501
0.23503286 0.2414151 1.3232224
0.24509326 0.24202715 1.3230835
0.25522923 0.24064469 1.3260001
0.26719487 0.24133807 1.3235002
0.2763384 0.24064469 1.3260001
0.29476097 0.24064469 1.3260001
0.30282083 0.24064469 1.3260001
0.32354623 0.24064469 1.3260001
0.34534532 0.24133807 1.3235
0.35455281 0.24123903 1.3238572
0.36039135 0.24064469 1.3260001
-0.71042001 0.25906727 1.3260001
-0.70645952 0.25720644 1.3243334
-0.480138 0.25676447 1.3260001
-0.45596501 0.25821596 1.3240002
-0.44245273 0.25857884 1.3235002
-0.4329904 0.25841603 1.3226669
-0.42456698 0.2580322 1.3226669
-0.41450763 0.25906727 1.3260001
-0.4039959 0.25821596 1.3240001
-0.39572281 0.25742739 1.3235002
-0.38312083 0.25809038 1.3210001
-0.37465632 0.25857884 1.3235002
-0.35511059 0.25857884 1.3235002
-0.34707242 0.25743175 1.3235002
-0.33379692 0.2527374 1.3210001
-0.15184394 0.25537097 1.3247501
-0.14566004 0.25490651 1.3243334
-0.13454372 0.25362909 1.3243335
-0.12400278 0.25259274 1.3222501
-0.11814804 0.25120798 1.3210001
-0.083735988 0.25178152 1.3210001
-0.075324163 0.25120801 1.3210001
-0.069971174 0.25120798 1.3210001
0.0057353415 0.25120801 1.3210001
-0.721506 0.26267865 1.3210001
-0.71680629 0.26180625 1.3243334
-0.7077412 0.26038453 1.3210001
-0.48013797 0.26252148 1.3260001
-0.46498483 0.26441568 1.323143
-0.45768031 0.26191399 1.3210001
-0.43244478 0.26038453 1.3210001
-0.41523874 0.26038453 1.3210001
-0.40644455 0.26038453 1.3210001
-0.37853256 0.26038453 1.3210001
-0.55360508 0.1698955 1.3310001
-0.54476595 0.16565727 1.3341252
-0.53629333 0.16375756 1.332364
0.55800492 0.21925765 1.3360001
0.56477398 0.21797836 1.3335003
0.57201159 0.21421567 1.3335001
0.69576252 0.21612556 1.3310001
0.70430255 0.21363562 1.3335001
0.71113724 0.21229708 1.3360001
0.53049004 0.2299946 1.3310001
0.546404 0.22621822 1.3360002
0.55409265 0.22489677 1.3336668
0.5605396 0.22074857 1.3310001
0.23669219 0.23861846 1.3318336
0.24478702 0.23850426 1.3324287
0.27391315 0.2392406 1.3310001
0.28315917 0.2392406 1.3310001
0.29009369 0.2392406 1.3310001
0.33569142 0.23746137 1.3340001
0.34522641 0.23657006 1.3337275
0.35469115 0.2372003 1.3325386
0.36484206 0.23743522 1.3338573
0.3737821 0.2373551 1.3360001
0.38399091 0.23781914 1.3360001
0.39600733 0.23389818 1.3335001
0.40487263 0.23317876 1.3360002
0.41518638 0.23288786 1.3343334
0.42753756 0.23597567 1.3343334
0.43423963 0.23590757 1.3345716
0.44444764 0.23552984 1.3324287
0.45535699 0.23589475 1.3330001
0.46541134 0.2366153 1.3341252
0.47481301 0.2358149 1.3328751
0.48555335 0.23331818 1.3335003
0.49400806 0.23416281 1.3339169
0.50379848 0.23600912 1.3342146
0.51411974 0.23389818 1.3335001
0.52552229 0.23085858 1.3360001
0.53568125 0.23249972 1.3343334
0.54574108 0.23185295 1.3360002
0.55104434 0.23201868 1.3360001
-0.13330172 0.2471512 1.3348891
-0.12542546 0.24691398 1.3325003
-0.1164933 0.24802437 1.3326668
-0.10517341 0.24848662 1.3310002
-0.094610825 0.24820928 1.3320001
-0.084526174 0.24779326 1.3335001
-0.074733697 0.24787028 1.3332224
-0.067285419 0.24709989 1.3360001
-0.055155959 0.24648337 1.3326669
-0.048541572 0.24848661 1.3310001
-0.024270788 0.24848661 1.3310001
-0.015039533 0.24867332 1.3320001
-0.0046273484 0.24779326 1.3335001
0.0041332669 0.24789232 1.333143
0.014281045 0.247408 1.3335001
0.023115035 0.24386361 1.3310001
0.10864066 0.24617511 1.3310001
0.1154034 0.24393496 1.3335003
0.12412667 0.24247384 1.3318336
0.13401917 0.2433157 1.3343334
0.14037129 0.24477971 1.3360001
0.15501508 0.24235684 1.3322501
0.1652725 0.2415521 1.3310002
0.1751741 0.24245952 1.3360002
0.18492028 0.24386361 1.3310001
0.19479901 0.24416898 1.3326669
0.20533653 0.24477971 1.3360001
0.21517496 0.24351257 1.3322501
0.22553745 0.24173358 1.3320001
0.23085858 0.24013932 1.3360001
0.25497848 0.24049251 1.3347501
0.26697865 0.2415521 1.3310001
0.27150846 0.24061024 1.3343334
0.28576967 0.24013934 1.3360002
0.29582381 0.24013934 1.3360002
0.30395344 0.24138366 1.3343334
0.3151477 0.24185458 1.3326668
0.32366604 0.24168614 1.3360002
0.35846886 0.24013932 1.3360001
0.36310923 0.24013932 1.3360001
0.37471017 0.24013932 1.3360001
0.50464064 0.24013932 1.3360001
-0.72389829 0.25870082 1.3360001
-0.71577764 0.25870082 1.3360001
-0.47475308 0.25592303 1.3317693
-0.46570784 0.2564669 1.333778
-0.45594031 0.25746223 1.3320001
-0.44199556 0.25870082 1.3360001
-0.43683717 0.25719187 1.3330001
-0.42571282 0.25797468 1.3322501
-0.41106248 0.25705665 1.3335001
-0.40480843 0.25566715 1.3335003
-0.39485377 0.25705665 1.3335001
-0.38167071 0.25870082 1.3360001
-0.37362227 0.25783005 1.3335001
-0.36416987 0.25763884 1.3335001
-0.35634577 0.25734884 1.3335001
-0.34788126 0.25542113 1.3310001
-0.33863524 0.25542113 1.3310001
-0.15472594 0.25440061 1.3347501
-0.14490488 0.25340626 1.335
-0.13406719 0.25156862 1.3310002
-0.037122987 0.25174025 1.3360001
-0.72451735 0.26175371 1.335
-0.71809781 0.26102102 1.3360001
-0.47501394 0.26235563 1.3310002
-0.46576795 0.26119989 1.3310002
-0.44034138 0.26004413 1.3310001
-0.38255382 0.26004413 1.3310001
-0.35250428 0.26004413 1.3310001
-0.56026 0.16959853 1.3470001
-0.55455238 0.16811629 1.3445001
0.71816206 0.20936646 1.3470001
0.54622424 0.21872362 1.3470001
0.55598974 0.21782455 1.3455716
0.56513882 0.21669473 1.3427144
0.5749799 0.21423043 1.3445001
0.6980167 0.21558112 1.342
0.70383859 0.21403624 1.3448573
0.71485978 0.21107708 1.3430001
0.72132277 0.21091992 1.342
0.48709685 0.22839946 1.342
0.49059272 0.22956476 1.342
0.53704786 0.22653583 1.3443334
0.54409337 0.22409005 1.3436667
0.55403143 0.22132145 1.34325
0.024562545 0.23977725 1.3470001
0.23457506 0.23877536 1.3440001
0.24540077 0.23721762 1.3457501
0.25460887 0.23826611 1.344143
0.26550943 0.23977725 1.3470001
0.27486658 0.23977724 1.3470001
0.28539339 0.23977724 1.3470001
0.29482177 0.23888719 1.342
0.30470008 0.23884915 1.3461668
0.31697381 0.23977724 1.3470001
0.32922554 0.23933221 1.3445001
0.33708638 0.23794223 1.34325
0.34618077 0.23480776 1.3453335
0.35523888 0.23488048 1.3457501
0.36583221 0.23484348 1.3438751
0.37457287 0.23496591 1.3447778
0.38598284 0.23743795 1.3470001
0.39786196 0.23373711 1.3436668
0.40402547 0.2327071 1.3440001
0.4136827 0.23306067 1.342
0.42639512 0.23480776 1.3453335
0.4356178 0.23417345 1.3461668
0.44437781 0.23367111 1.3447778
0.45475918 0.23341121 1.3447778
0.46510473 0.23419574 1.3442729
0.47603706 0.23320027 1.3445001
0.48281226 0.23241203 1.3450001
0.49641925 0.23189537 1.342
0.50675964 0.23296025 1.3436668
0.51485622 0.23349267 1.3445001
0.52456319 0.23263237 1.3447778
0.53478545 0.23152654 1.34325
-0.14243403 0.24867201 1.3445001
-0.13588268 0.24610586 1.34325
-0.12468746 0.24587901 1.342
-0.11317481 0.24851787 1.3436668
-0.10507268 0.24867201 1.3445001
-0.095943317 0.24820963 1.342
-0.089728363 0.24820961 1.342
-0.071348347 0.2467951 1.3470001
-0.063768841 0.2473609 1.3450001
-0.055546127 0.24665588 1.342
-0.025732189 0.24913439 1.3470001
-0.014014033 0.24867201 1.3445001
-0.0048986161 0.24699448 1.3430001
0.0053734207 0.24689479 1.3450001
0.016181268 0.24606709 1.3448573
0.025137259 0.24221663 1.3420001
0.10837321 0.24587901 1.342
0.11430284 0.24377525 1.34325
0.12486807 0.2415773 1.3440001
0.13567883 0.24328616 1.3470001
0.14566293 0.24587902 1.342
0.15205386 0.24445581 1.3470001
0.16725925 0.24211654 1.3470001
0.17544675 0.24211653 1.3470001
0.18288121 0.24364413 1.3457501
0.19503723 0.24455898 1.3450001
0.20602946 0.2430644 1.3448573
0.21525948 0.24293476 1.344143
0.22523351 0.2415773 1.3440001
0.25986266 0.24121779 1.342
0.26568916 0.24121779 1.342
0.2785075 0.24121779 1.342
0.2808381 0.24121779 1.342
0.3064748 0.24121779 1.342
0.31492174 0.24144247 1.34325
0.32358789 0.24181697 1.3453335
-0.73274469 0.25903997 1.3450001
-0.72221577 0.25940561 1.3436668
-0.71933168 0.25849155 1.3470001
-0.47194788 0.25287083 1.342
-0.4664005 0.25567687 1.3445001
-0.45592767 0.25708798 1.3470001
-0.44375512 0.25629526 1.3436668
-0.43698877 0.25753203 1.342
-0.41511908 0.25521225 1.3455716
-0.40495768 0.25418338 1.3440001
-0.39282462 0.25884807 1.3440001
-0.38526434 0.25839877 1.3445001
-0.37592235 0.25742695 1.3445001
-0.36535633 0.25613678 1.3428334
-0.35352254 0.25707209 1.3436668
-0.34615719 0.25801179 1.3445001
-0.1534656 0.25296828 1.3450001
-0.14515334 0.25180575 1.3434287
-0.042571563 0.25135624 1.34325
-0.034806795 0.25156641 1.3450001
-0.029132584 0.25054023 1.342
-0.73181057 0.26219326 1.342
-0.45265263 0.26083085 1.3470001
-0.44797406 0.26083085 1.3470001
-0.41756329 0.26083085 1.3470001
-0.34738457 0.26083085 1.3470001
-0.5623396 0.1678801 1.3520001
-0.55999166 0.1678801 1.3520001
0.54553568 0.21789841 1.3540001
0.55490667 0.21748696 1.3568
0.56240302 0.21649027 1.355
0.57191038 0.215793 1.358
0.58112341 0.21249159 1.3520001
0.70765007 0.21312027 1.3560002
0.71471477 0.2111567 1.3560002
0.7266978 0.21092628 1.3520001
0.73493379 0.21277432 1.3568001
0.74407315 0.215793 1.3580002
0.52867609 0.22960471 1.3559999
0.53518027 0.22503817 1.355857
0.5412513 0.22050978 1.358
0.1780587 0.23937693 1.358
0.18159628 0.23937693 1.358
0.2169722 0.23937693 1.358
0.22679883 0.23937695 1.3580002
0.23505653 0.23858371 1.3535001
0.25550884 0.23745213 1.3559999
0.26532102 0.23831931 1.3520001
0.27593201 0.23937693 1.358
0.28536561 0.23937693 1.358
0.29492804 0.23853083 1.3532002
0.30636963 0.23671639 1.3562858
0.31484553 0.23890527 1.358
0.33607107 0.23937695 1.3580002
0.34314626 0.2362324 1.3580002
0.35022143 0.23466015 1.358
0.36432719 0.23362336 1.3520001
0.37802371 0.23362336 1.3520001
0.38346064 0.23588334 1.3560002
0.40502542 0.23127538 1.3520001
0.43554908 0.23362336 1.3520001
0.47546464 0.23205805 1.3520001
0.48368251 0.23127538 1.3520001
0.50833625 0.23362336 1.3520001
0.5247547 0.23178858 1.355
-0.40682286 0.2488105 1.358
-0.14590259 0.24826086 1.355
-0.13853043 0.24653721 1.3520001
-0.12236293 0.24826086 1.355
-0.10483519 0.24794608 1.3564999
-0.095173158 0.24793105 1.3532002
-0.085164979 0.24844408 1.3559999
-0.076309137 0.24771121 1.3520001
-0.065817498 0.24622244 1.3535001
-0.055960029 0.24692854 1.3520001
-0.035375901 0.2488105 1.358
-0.025708375 0.2475085 1.3545717
-0.01408784 0.2477112 1.3520001
-0.0046959464 0.24595022 1.3520001
0.0046959468 0.24536322 1.3520001
0.014947243 0.24500051 1.3537145
0.10871765 0.24451689 1.3559999
0.11443476 0.24258861 1.3540001
0.12444259 0.24066727 1.3520001
0.13413405 0.24237789 1.355
0.14589998 0.24590766 1.355
0.15530489 0.24355447 1.355
0.16469447 0.24330759 1.3580002
0.17507927 0.24088088 1.3532002
0.18615738 0.24298167 1.3540001
0.1952906 0.24370053 1.3532002
0.20394169 0.24198395 1.3550003
0.21460539 0.24123661 1.3530002
0.22540545 0.24066727 1.3520001
0.26179904 0.24066727 1.3520001
0.31462842 0.24066727 1.3520001
0.32473931 0.2412013 1.355
-0.73491567 0.25827706 1.3520001
-0.47146162 0.25513196 1.3540001
-0.46431059 0.25629151 1.3559999
-0.45463818 0.2558066 1.3541819
-0.44646248 0.2556645 1.3526669
-0.43070436 0.25826606 1.3540001
-0.42327952 0.2561996 1.355
-0.41441733 0.25240713 1.3520001
-0.40604782 0.25342393 1.3562001
-0.39222166 0.2573292 1.3532002
-0.38435072 0.2564944 1.355
-0.37477618 0.25607055 1.3554286
-0.36329851 0.25591466 1.3540001
-0.35545456 0.25748342 1.3540001
-0.34789142 0.25788575 1.3520001
-0.16154994 0.25352728 1.358
-0.15496624 0.25182015 1.3520001
-0.14792232 0.25005916 1.3520001
-0.035219602 0.25005916 1.3520001
-0.019957773 0.25005916 1.3520001
-0.73228115 0.26060247 1.358
-0.72992277 0.26060247 1.358
-0.43276519 0.26060247 1.358
-0.42541146 0.26155278 1.3556002
0.71840781 0.20948629 1.363
0.72372621 0.20884338 1.3650001
0.73024315 0.20948629 1.363
0.7458111 0.20868266 1.3655
0.53824311 0.21869814 1.3663334
0.54465485 0.2174657 1.3652222
0.55588877 0.21595505 1.365
0.5666188 0.21738204 1.368
0.57374609 0.21738204 1.368
0.58340895 0.21369049 1.3646667
0.70893949 0.21185337 1.363
0.71504539 0.21065442 1.36675
0.72817045 0.21025477 1.368
0.73756093 0.21078764 1.3663334
0.74482709 0.21263652 1.3646666
0.75192809 0.21144265 1.368
0.53380585 0.22493654 1.3657777
0.020193961 0.23876388 1.368
0.11522436 0.2387639 1.368
0.17785421 0.23832755 1.3655
0.18497497 0.23832755 1.3655
0.19481233 0.23876388 1.368
0.20669112 0.23876388 1.368
0.21484566 0.23858936 1.367
0.2256972 0.23876388 1.368
0.23520024 0.23876388 1.368
0.2453502 0.23824029 1.365
0.25446075 0.23789121 1.363
0.26457742 0.238473 1.3663334
0.27677605 0.2387639 1.368
0.28564784 0.23824029 1.365
0.29523942 0.23713966 1.3655
0.30263263 0.23676389 1.36675
0.32904276 0.23876388 1.368
0.33594733 0.23793159 1.3655
0.34348783 0.23539458 1.365
0.3575519 0.23638813 1.368
0.36230341 0.23638813 1.368
0.38772473 0.23536001 1.3655
0.39419073 0.23712362 1.3644286
0.43476412 0.23638813 1.368
0.44426712 0.23401237 1.368
0.4525823 0.23401237 1.368
0.48880136 0.23078999 1.363
0.49116841 0.23078999 1.363
0.51483917 0.23434059 1.363
0.5249486 0.23186123 1.3646667
-0.15176861 0.24899676 1.3655
-0.148485 0.24826692 1.368
-0.12472741 0.24826692 1.368
-0.11145449 0.24899676 1.3655
-0.10543369 0.24817814 1.3642501
-0.09621828 0.24826692 1.368
-0.085163012 0.24837737 1.3660001
-0.074727036 0.24790397 1.3660001
-0.050892148 0.24972659 1.363
-0.041423842 0.24972659 1.363
-0.03478153 0.2470213 1.3655
-0.022924436 0.24662535 1.3655
-0.015011748 0.24687009 1.3646667
-0.0071120849 0.24662533 1.3655
0.0049786763 0.24505654 1.3660001
0.01501826 0.24306893 1.3655
0.020961277 0.24163489 1.3663334
0.10770199 0.24262537 1.363
0.11536232 0.24169679 1.366125
0.12536159 0.24084586 1.3663334
0.13579416 0.24119423 1.3638334
0.1444557 0.24348709 1.3666364
0.1543659 0.24266109 1.364875
0.16594492 0.24238709 1.367
0.17398015 0.24025831 1.3630002
0.18739359 0.24104732 1.3630002
0.19445631 0.2418825 1.3655
0.20408539 0.2407997 1.3638334
0.21303691 0.24025829 1.363
0.22368875 0.24025829 1.363
0.32627192 0.24084586 1.3663334
0.33139074 0.24025829 1.363
-0.74207854 0.25919491 1.363
-0.73971146 0.25919491 1.363
-0.46513057 0.25446075 1.363
-0.44341055 0.25655931 1.3657777
-0.43486452 0.25552747 1.3652728
-0.42883271 0.25469196 1.3642501
-0.40298975 0.25666401 1.3663334
-0.39484334 0.25611317 1.3655
-0.38606867 0.25461489 1.3638334
-0.37493289 0.25469196 1.3642501
-0.36485702 0.25454393 1.3660001
-0.35406929 0.25523943 1.3657777
-0.34722742 0.25508016 1.3663334
-0.16392598 0.25173482 1.3665715
-0.15716644 0.25151327 1.365
-0.11760013 0.25064272 1.368
-0.045601394 0.25173604 1.3665715
-0.74004924 0.26014572 1.368
-0.73410988 0.26014572 1.368
-0.4414598 0.26156199 1.363
-0.43909273 0.26156199 1.363
-0.40269133 0.26014572 1.368
0.71628898 0.20812055 1.3748335
0.72508407 0.20824574 1.3756669
0.73761797 0.20955054 1.3790001
0.74545544 0.20939858 1.3780001
0.7536993 0.20816533 1.37775
0.53525198 0.21913001 1.3790001
0.54398108 0.21639836 1.3768573
0.55466294 0.21461758 1.3756669
0.56450474 0.21527576 1.3773335
0.57472634 0.21708013 1.3768573
0.58300251 0.21583048 1.3754287
0.7131359 0.2114331 1.3756669
0.74568129 0.21117693 1.3740001
0.7528398 0.21117693 1.3740001
0.52726912 0.22791117 1.3790001
0.53332776 0.22402865 1.3775715
0.016703259 0.23861799 1.3740001
0.12288827 0.23981111 1.3740001
0.13481918 0.23981109 1.3740001
0.15629479 0.23981109 1.3740001
0.17538424 0.23981109 1.3740001
0.19997109 0.23828891 1.3790001
0.20398663 0.23889779 1.3770001
0.21475622 0.23742491 1.3740001
0.2245039 0.2376409 1.3752501
0.23448712 0.2380729 1.3777502
0.24144053 0.23785691 1.3765001
0.255788 0.23785691 1.3765001
0.27435023 0.23930371 1.3756669
0.28555837 0.23777051 1.376
0.29576564 0.23589404 1.3790001
0.32809976 0.23981109 1.3740001
0.35673392 0.23503874 1.3740001
0.36401922 0.23589404 1.3790001
0.37000638 0.23828891 1.3790001
0.40448663 0.23694748 1.3781667
0.41071907 0.23589404 1.3790001
0.42508826 0.23828891 1.3790001
0.43441242 0.2353224 1.3756669
0.44504404 0.23388408 1.37775
0.45486602 0.23401237 1.3773335
0.46172583 0.23503874 1.3740001
0.47538039 0.23589405 1.3790001
0.4836117 0.23335755 1.376143
0.4939445 0.2316204 1.3773335
0.50771105 0.23589404 1.3790001
0.51506877 0.23481068 1.3773335
0.52370673 0.23294994 1.3773333
0.53069365 0.23068535 1.3765001
-0.43786404 0.24935582 1.3740001
-0.39275759 0.2454735 1.3790001
-0.37548071 0.24723199 1.377125
-0.36372906 0.24798611 1.3770002
-0.35413012 0.24810386 1.3750001
-0.34957537 0.24935582 1.3740001
-0.16428988 0.24762574 1.3750002
-0.15634371 0.24773213 1.3767779
-0.14821452 0.24861209 1.3765001
-0.12527445 0.24935582 1.3740001
-0.10657142 0.24786836 1.3790001
-0.094254114 0.24935582 1.3740001
-0.082622796 0.24786836 1.3790001
-0.076635629 0.24786836 1.3790001
-0.053139176 0.24898395 1.3752501
-0.045333557 0.24775609 1.377182
-0.036674928 0.24597225 1.3773334
-0.025086729 0.24567556 1.3756666
-0.014343129 0.24502631 1.3765
-0.0053797597 0.24532458 1.3765001
0.0054995022 0.24415953 1.3770002
0.011952608 0.24383105 1.3765001
0.12766063 0.24219728 1.3740001
0.13530979 0.24068378 1.3790001
0.1466966 0.24098647 1.3780001
0.15418649 0.24144053 1.3765
0.16534588 0.24144053 1.3765001
0.17243016 0.24068378 1.3790001
0.31731939 0.24068378 1.3790001
0.32210913 0.24068378 1.3790001
-0.74446446 0.25852746 1.3783751
-0.73582178 0.25684908 1.3790001
-0.72923589 0.25984269 1.3790001
-0.44354951 0.25323641 1.3747145
-0.43627328 0.25253743 1.3740001
-0.40113962 0.25505295 1.3790001
-0.39434603 0.25294128 1.3758183
-0.38427854 0.25249615 1.3765001
-0.37430531 0.2513499 1.3762223
-0.36408859 0.251784 1.375875
-0.35687816 0.25316849 1.3745556
-0.34838229 0.25174201 1.3740001
-0.13052006 0.25026321 1.3790001
-0.1209406 0.25026321 1.3790001
-0.11615088 0.25026321 1.3790001
-0.74090892 0.26128671 1.3740001
-0.73336029 0.26259637 1.3777502
-0.72642648 0.26367402 1.3775716
-0.71679389 0.26471028 1.3773335
0.72759825 0.20805702 1.3850001
0.73240882 0.20805702 1.3850001
0.74443519 0.20805702 1.3850001
0.75165105 0.20805702 1.3850001
0.76127219 0.20805702 1.3850001
0.5279597 0.21767814 1.3850001
0.53497511 0.2158742 1.3850001
0.54599935 0.21527286 1.3850001
0.55441785 0.21286759 1.3850001
0.56403893 0.21286759 1.3850001
0.57486272 0.21527286 1.3850001
0.58328122 0.21527286 1.3850001
0.73721939 0.2104623 1.3850001
0.51833856 0.22970456 1.3850001
0.52486724 0.22575304 1.3850001
0.53096628 0.22188739 1.3850001
-0.0072158501 0.23812306 1.3850001
0.12146682 0.2393257 1.3850001
0.1527355 0.2393257 1.3850001
0.16596456 0.2393257 1.3850001
0.17678833 0.2393257 1.3850001
0.21767814 0.23692042 1.3850001
0.22850192 0.23692042 1.3850001
0.25255474 0.2393257 1.3850001
0.27781025 0.2393257 1.3850001
0.29544899 0.23692042 1.3850001
0.30306572 0.23692042 1.3850001
0.32351062 0.2393257 1.3850001
0.33484986 0.23829485 1.3850001
0.34114933 0.23772219 1.3850001
0.35718459 0.23692042 1.3850001
0.37281892 0.23692042 1.3850001
0.38123742 0.23692042 1.3850001
0.39687178 0.23692042 1.3850001
0.4040876 0.23571777 1.3850001
0.41130346 0.23451513 1.3850001
0.42934307 0.23692042 1.3850001
0.43559679 0.23403406 1.3850001
0.44257215 0.23451513 1.3850001
0.45820647 0.23451513 1.3850001
0.46381879 0.2353169 1.3850001
0.47424173 0.23611866 1.3850001
0.48466462 0.23271117 1.3850001
0.49308309 0.23210984 1.3850001
0.51473063 0.23391381 1.3850001
0.52194649 0.23210984 1.3850001
-0.1671672 0.24654154 1.3850001
-0.14792493 0.24894683 1.3850001
-0.13589852 0.24894683 1.3850001
-0.11425096 0.24894683 1.3850001
-0.10583247 0.24714287 1.3850001
-0.095008694 0.24854594 1.3850001
-0.085387558 0.2473433 1.3850001
-0.074162908 0.24814507 1.3850001
-0.06494265 0.24894683 1.3850001
-0.055321518 0.24834551 1.3850001
-0.046903025 0.24654154 1.3850001
-0.030066043 0.24654154 1.3850001
-0.02164755 0.24413626 1.3850001
-0.011625536 0.24333452 1.3850001
-0.0045700385 0.2436552 1.3850001
0.003607925 0.2433345 1.3850001
0.012026417 0.24173099 1.3850001
0.12868266 0.24173099 1.3850001
0.15995134 0.24173099 1.3850001
0.16235663 0.24173099 1.3850001
0.32351062 0.24173099 1.3850001
-0.73421276 0.25796664 1.3850001
-0.45099065 0.25375739 1.3850001
-0.41010082 0.25616267 1.3850001
-0.40689379 0.25776622 1.3850001
-0.38845327 0.25375739 1.3850001
-0.144317 0.2513521 1.3850001
-0.13349323 0.2513521 1.3850001
-0.058929443 0.2513521 1.3850001
-0.73541546 0.26097324 1.3850001
-0.72471189 0.26241642 1.3850001
-0.71797711 0.26337853 1.3850001
-0.40769553 0.26097324 1.3850001
0.72781098 0.20880812 1.3900001
0.73300791 0.20683961 1.3930001
0.74533677 0.20952919 1.3948001
0.75417447 0.2074431 1.3930001
0.76203811 0.20804659 1.3930001
0.52737796 0.21772504 1.393
0.53221631 0.21409714 1.3930001
0.54351652 0.21474811 1.3920002
0.55317527 0.21505897 1.3940001
0.56366354 0.21425085 1.3940001
0.57579184 0.21455823 1.3960001
0.58382368 0.21369308 1.3930001
0.59142184 0.21363606 1.3900001
0.48851392 0.22910455 1.396
0.49093831 0.22910455 1.396
0.51760656 0.22789235 1.396
0.52214956 0.22429791 1.3925003
-0.0024165716 0.23828891 1.3930001
0.0024139667 0.23777573 1.3900001
0.14788759 0.23880209 1.396
0.15087292 0.23777573 1.3900001
0.22668016 0.23880209 1.396
0.25401354 0.23828891 1.3930001
0.26062158 0.23880209 1.396
0.28807944 0.23730972 1.3920001
0.29573664 0.23576812 1.3924001
0.30481368 0.23647323 1.3930001
0.31301725 0.2379394 1.3945
0.32582128 0.23766954 1.3934287
0.33497334 0.23433726 1.3935002
0.34320903 0.23459212 1.395
0.35485309 0.23777573 1.3900001
0.36609778 0.23506334 1.3930001
0.37477246 0.23513664 1.3922502
0.38457027 0.23693691 1.3936
0.39638722 0.23556958 1.3960001
0.40472513 0.23369093 1.3930001
0.41625383 0.23380008 1.3915002
0.42469245 0.23524667 1.3934287
0.43303105 0.23296364 1.393
0.4448255 0.23193663 1.3930001
0.455367 0.23231721 1.3926668
0.46597585 0.23334794 1.3924
0.47536564 0.23496062 1.3930001
0.48483187 0.23189954 1.3924001
0.49486318 0.23053382 1.3900001
0.50629276 0.23314521 1.3960001
0.51393151 0.23314784 1.3938183
-0.39275065 0.24849965 1.396
-0.3879019 0.24849965 1.396
-0.17018466 0.24743159 1.3900001
-0.16371106 0.24447301 1.3924001
-0.15435767 0.24665657 1.3934286
-0.14490525 0.24788803 1.3938183
-0.13534316 0.24907649 1.3934287
-0.1257972 0.2491726 1.3930001
-0.11514523 0.24738896 1.3917146
-0.10278041 0.24581428 1.3925717
-0.094221115 0.24527514 1.3927275
-0.083973914 0.24527945 1.3915001
-0.07502678 0.24564908 1.3936001
-0.065737464 0.2464087 1.3933334
-0.056149911 0.24564908 1.3936001
-0.046147402 0.24474429 1.3912003
-0.035075456 0.2446373 1.3930001
-0.023770338 0.24335334 1.3920002
-0.015030107 0.2416686 1.3925716
-0.0024152691 0.24165587 1.3915002
0.0046607172 0.24137236 1.3908573
0.010862851 0.24018969 1.3900001
0.12914722 0.24018969 1.3900001
0.13789047 0.24070808 1.3930001
0.14483801 0.24018969 1.3900001
0.15811482 0.24018969 1.3900001
0.16173577 0.24018969 1.3900001
0.17259863 0.2401897 1.3900001
0.20001191 0.24122648 1.396
0.21122208 0.24018969 1.3900001
0.2491726 0.24070808 1.3930001
0.26304597 0.24122648 1.396
0.2763992 0.24018969 1.3900001
0.31864363 0.24018969 1.3900001
0.3270925 0.24079317 1.3900001
0.43210006 0.24018969 1.3900001
-0.73319244 0.25852326 1.3945
-0.72644943 0.25748828 1.3948001
-0.41278833 0.25467348 1.3900001
-0.40627059 0.25467348 1.3900002
-0.39153847 0.25092402 1.396
-0.38827527 0.25159177 1.3930001
-0.7454989 0.26062158 1.396
-0.7321648 0.26062158 1.396
-0.72453994 0.26167256 1.3930001
0.73793399 0.20769666 1.4070001
0.74498004 0.20779252 1.406
0.75490987 0.20854719 1.4045001
0.7733646 0.20891841 1.4070001
0.51801991 0.21869236 1.4070001
0.52533811 0.21742311 1.4055716
0.5317322 0.21586463 1.4045
0.5490489 0.2154804 1.4020001
0.55345052 0.21624887 1.4070001
0.5754419 0.21380538 1.4070001
0.58417463 0.212611 1.4045
0.59343004 0.21232401 1.404143
0.60242128 0.21517822 1.4053334
0.50946766 0.22724457 1.4070001
0.51599199 0.22475404 1.4048125
0.52272952 0.22115518 1.40325
-0.10104448 0.23982847 1.4020001
-0.098609671 0.23982847 1.4020001
0.15560564 0.23929909 1.4036669
0.22400221 0.23982847 1.4020001
0.23415391 0.23903438 1.4045001
0.24635182 0.23903438 1.4045
0.25344241 0.23760532 1.40325
0.26376268 0.23887555 1.4050001
0.27550352 0.23824029 1.4070001
0.2861166 0.23792063 1.4051251
0.29499596 0.23594859 1.4050001
0.30543625 0.23579679 1.4070001
0.31490409 0.23648116 1.4048573
0.32441717 0.23564181 1.4036669
0.33193171 0.23361206 1.4036667
0.34819734 0.23579679 1.4070001
0.35494357 0.23703432 1.4038181
0.36339492 0.23556755 1.4020001
0.37352076 0.233146 1.40575
0.38607144 0.23579679 1.4070001
0.39557543 0.2358807 1.4038751
0.40489864 0.2323278 1.4045001
0.41563094 0.23198597 1.4036669
0.42538032 0.23117435 1.4036667
0.43455374 0.23070467 1.40575
0.46531016 0.23155551 1.4050001
0.47413 0.23279902 1.4036667
0.48442188 0.23274243 1.4070001
0.49847198 0.23090981 1.4070001
0.50535196 0.23131336 1.40575
0.5136416 0.2310376 1.4028335
-0.17226605 0.2467925 1.4070001
-0.16554646 0.24618164 1.4070001
-0.15461025 0.24469809 1.4020002
-0.14414261 0.24524932 1.4028335
-0.13359544 0.24646342 1.404143
-0.12399775 0.24579504 1.4055001
-0.11516949 0.24473122 1.405
-0.10509331 0.24308687 1.4032501
-0.094957463 0.24226327 1.4020001
-0.086232454 0.24365085 1.4053334
-0.07496392 0.24344142 1.406
-0.065218039 0.24330677 1.4020002
-0.055796146 0.24292305 1.4030001
-0.044209026 0.24391265 1.4045
-0.033430662 0.24326864 1.4050001
-0.026199136 0.24308798 1.4032501
-0.012217451 0.24068378 1.4070001
0.11565332 0.24226329 1.4020002
0.12535653 0.24176154 1.4061668
0.1331702 0.24312726 1.4070001
0.14538766 0.24068378 1.4070001
0.16493559 0.24068378 1.4070001
0.185537 0.24291126 1.40575
0.19565652 0.2419474 1.4030001
0.20403144 0.24068378 1.4070001
0.24190551 0.24068378 1.4070001
0.26782876 0.24226327 1.4020001
0.27489263 0.24160008 1.4070001
0.28222311 0.24068378 1.4070001
-0.74149895 0.25733018 1.4045
-0.73367536 0.2547968 1.404
-0.72655869 0.25641385 1.4045
-0.75137317 0.2602317 1.4070001
-0.72395194 0.26230007 1.4050001
0.73985386 0.20735539 1.4130001
0.74721563 0.20735539 1.4130001
0.75521404 0.20703863 1.4142002
0.76547146 0.2076489 1.4150002
0.77634573 0.20805772 1.4178001
0.51809722 0.21829641 1.4150002
0.52538943 0.21696787 1.4170002
0.53536814 0.21453406 1.4164287
0.54508322 0.21532497 1.4170002
0.55523235 0.2159373 1.4178002
0.5637337 0.21540093 1.4175001
0.57295674 0.21562889 1.419
0.58362854 0.21368556 1.4170002
0.59592938 0.21122122 1.4170002
0.60742873 0.2135527 1.4175001
0.42698035 0.22944058 1.4130001
0.43434209 0.22944058 1.4130001
0.47237769 0.22944058 1.4130001
0.50918633 0.22944058 1.4130001
0.51358283 0.22331885 1.4164288
0.12514941 0.23925623 1.4130001
0.14846157 0.23925623 1.4130001
0.15479618 0.23842861 1.4164287
0.16413011 0.2375927 1.4148
0.17185101 0.23829065 1.4170002
0.19656341 0.23764895 1.4166
0.20412104 0.23760466 1.4178001
0.22944058 0.23925623 1.4130001
0.23641782 0.23838721 1.4166001
0.24450175 0.23645467 1.4162728
0.25561368 0.23594853 1.4152501
0.26665875 0.23809753 1.4178002
0.27603066 0.2370234 1.4164288
0.28481841 0.23596871 1.4164287
0.29366079 0.23468012 1.4150002
0.31476736 0.23545945 1.4160001
0.32378501 0.23320481 1.4160001
0.33373177 0.23189451 1.4130001
0.3487027 0.23534352 1.419
0.35641009 0.23419039 1.4170001
0.36563259 0.23434842 1.4130001
0.37088168 0.23287919 1.419
0.38458049 0.23468012 1.4150002
0.39491838 0.23407081 1.4155716
0.40400687 0.23209146 1.4142002
0.41804782 0.23238686 1.4160001
0.42509693 0.23041487 1.419
0.45739374 0.23238686 1.4160001
0.46404171 0.23140129 1.4150002
0.47594392 0.23152459 1.4145001
0.48506013 0.23115468 1.4160001
0.49200898 0.23189451 1.4130001
0.50816345 0.23090808 1.4170002
-0.13573873 0.24425486 1.4155716
-0.12651053 0.24319369 1.4145001
-0.053341545 0.24261145 1.4154001
-0.044357941 0.24273652 1.419
-0.015950415 0.24171014 1.4130001
0.0073929904 0.24273652 1.419
0.11631846 0.24123083 1.4150002
0.12427674 0.2407515 1.4170002
0.1351561 0.24205053 1.4150002
0.14232677 0.24171014 1.4130001
0.17575258 0.24113496 1.4154001
0.18501715 0.24124052 1.4164287
0.19331186 0.24123083 1.4150002
0.20793894 0.2407515 1.4170002
0.21316455 0.24273652 1.419
0.22795053 0.24027218 1.419
-0.75654936 0.25998682 1.419
-0.74604166 0.25715607 1.4170002
-0.73516142 0.25515717 1.4150002
-0.72620761 0.25847983 1.4175001
-0.7602458 0.26245114 1.419
-0.72682106 0.26278979 1.4175001
0.74861187 0.20664163 1.4250001
0.75851089 0.20664163 1.4250001
0.77418435 0.20664164 1.4250001
0.78078365 0.20787901 1.4250001
0.5168103 0.21819048 1.4250001
0.524647 0.21654063 1.4250001
0.53330863 0.21406588 1.4250001
0.54568243 0.21406588 1.4250001
0.55434406 0.21406588 1.4250001
0.56424302 0.21406588 1.4250001
0.57042992 0.21406588 1.4250001
0.58527839 0.21406588 1.4250001
0.60012692 0.21159112 1.4250001
0.61497539 0.21406588 1.4250001
0.47267729 0.22891438 1.4250001
0.50732374 0.22891438 1.4250001
0.51268578 0.22643964 1.4250001
0.14972238 0.23881339 1.4250001
0.158384 0.23633863 1.4250001
0.168283 0.23633863 1.4250001
0.17694464 0.23798847 1.4250001
0.18585372 0.23831844 1.4250001
0.19303051 0.23633863 1.4250001
0.20540425 0.23633863 1.4250001
0.21530324 0.23881339 1.4250001
0.22808945 0.23798847 1.4250001
0.23435883 0.23683357 1.4250001
0.24128813 0.23386388 1.4250001
0.25118715 0.23386388 1.4250001
0.26356089 0.23633863 1.4250001
0.27345988 0.23633863 1.4250001
0.28707099 0.23386388 1.4250001
0.29325789 0.23386388 1.4250001
0.30439427 0.23633863 1.4250001
0.31181851 0.23633863 1.4250001
0.32419226 0.2326265 1.4250001
0.35512665 0.23633863 1.4250001
0.366263 0.23386388 1.4250001
0.37739941 0.23386388 1.4250001
0.38606101 0.23386388 1.4250001
0.39571255 0.23237903 1.4250001
0.40585902 0.23138914 1.4250001
0.41699538 0.23386388 1.4250001
0.42441964 0.23138914 1.4250001
0.44545501 0.2326265 1.4250001
0.45560151 0.23287399 1.4250001
0.46525303 0.23138914 1.4250001
0.47886413 0.23138914 1.4250001
0.48257625 0.23138914 1.4250001
0.49453756 0.23221406 1.4250001
0.50484902 0.23138914 1.4250001
-0.070530377 0.24376288 1.4250001
-0.0346465 0.24376288 1.4250001
-0.02722225 0.24376288 1.4250001
0.008661625 0.24128813 1.4250001
0.11260113 0.24128813 1.4250001
0.13652371 0.24128813 1.4250001
0.14477289 0.24128813 1.4250001
0.17694463 0.24128813 1.4250001
0.18189412 0.24128813 1.4250001
0.21555074 0.24227802 1.4250001
0.22520226 0.24128813 1.4250001
-0.75108665 0.25861138 1.4250001
-0.73252606 0.25613663 1.4250001
-0.76469779 0.2623235 1.4250001
-0.72510177 0.26356089 1.4250001
-0.71644014 0.26356089 1.4250001
0.55543554 0.20999686 1.4310001
0.56385803 0.20967384 1.4322001
0.74927878 0.20751171 1.4310001
0.75707293 0.20794675 1.434
0.766675 0.20751171 1.4310001
0.7753731 0.20751171 1.4310001
0.78523672 0.20444824 1.4344287
0.50785255 0.21711634 1.437
0.51397073 0.21589275 1.4352354
0.52325493 0.21407996 1.4334
0.53246987 0.21333542 1.4334002
0.54346085 0.21266022 1.4322002
0.55476993 0.21270476 1.4325001
0.56335896 0.21216111 1.4322001
0.57486105 0.21333992 1.434
0.58277237 0.21496722 1.4310001
0.59353799 0.21277902 1.4330001
0.60638148 0.21248204 1.4310001
0.61344713 0.21277902 1.4330001
0.39430323 0.2283465 1.437
0.4005422 0.2283465 1.437
0.45822734 0.22911236 1.434
0.46403739 0.22786632 1.434
0.47385848 0.227855 1.4356667
0.48833591 0.22987823 1.4310001
0.49343914 0.22885709 1.4350002
0.50517499 0.22663276 1.4346
0.51200438 0.22400947 1.4323334
0.11766915 0.2378287 1.4340001
0.12394702 0.23918034 1.4335715
0.13323534 0.2390739 1.434
0.14466274 0.23896745 1.4344288
0.15424596 0.23695862 1.4325001
0.16323365 0.23550503 1.4350002
0.17414789 0.23643346 1.4346001
0.18429074 0.23658352 1.434
0.19374792 0.23613337 1.4358001
0.20566607 0.23620838 1.4355001
0.2154153 0.23658352 1.434
0.22503452 0.23698209 1.4334
0.23484859 0.23484859 1.4310001
0.24592113 0.23534091 1.4340001
0.25651175 0.23534092 1.434
0.26582116 0.23633343 1.4350002
0.27582693 0.23683357 1.4330001
0.28245756 0.2351768 1.4330001
0.29547632 0.23363987 1.4358001
0.30395922 0.23463808 1.4358
0.31515867 0.23543938 1.4346001
0.32374421 0.23285052 1.434
0.33316126 0.23333767 1.437
0.35413677 0.23484859 1.4310001
0.36359289 0.23285054 1.4340001
0.3743307 0.23206794 1.4335715
0.38428923 0.23171143 1.4335715
0.39375445 0.2313492 1.4350002
0.40428555 0.23084208 1.437
0.41378081 0.2323634 1.4310001
0.42336202 0.23285054 1.434
0.43298489 0.23084208 1.437
0.4485732 0.2323634 1.4310001
0.45449442 0.23243289 1.434
0.48539227 0.23084208 1.437
0.49731275 0.23185632 1.4330001
0.50180638 0.23160274 1.434
-0.17094792 0.24831121 1.437
-0.1636626 0.246255 1.4363335
-0.15454835 0.24617215 1.4370002
-0.14646092 0.24742812 1.4355001
-0.13226627 0.24581562 1.437
-0.12252792 0.24464165 1.4350002
-0.11854053 0.24581562 1.437
-0.092336833 0.24581562 1.437
-0.084850058 0.24581562 1.437
-0.076115504 0.24581562 1.437
-0.064744674 0.24530244 1.4340001
-0.042425029 0.24332003 1.437
-0.022366531 0.24478926 1.4310001
-0.014939675 0.24343336 1.434
-0.0024955901 0.24332003 1.437
0.011230155 0.24082445 1.437
0.10757522 0.24131767 1.4350002
0.11343083 0.24119437 1.4355001
0.13850525 0.24082445 1.437
0.14349642 0.24082445 1.437
0.21993755 0.24230409 1.4310001
0.22242272 0.24354666 1.4310001
-0.77238512 0.25829357 1.437
-0.76590824 0.25876248 1.4350002
-0.75520384 0.25775176 1.434
-0.74992484 0.25579798 1.437
-0.73188257 0.25721511 1.4310001
-0.72659075 0.25798398 1.4352859
-0.71997774 0.25704578 1.437
-0.78299135 0.26266086 1.437
-0.77618498 0.26316142 1.4363334
-0.76702929 0.26148731 1.434
-0.75990719 0.26078916 1.437
-0.72557342 0.26323745 1.4345001
0.61773151 0.20925184 1.4430001
0.75870365 0.20760548 1.4490001
0.7612201 0.20760548 1.4490001
0.77128583 0.20760548 1.4490001
0.78295535 0.20577765 1.4450001
0.79173851 0.20201342 1.4450001
0.50775099 0.2170686 1.4450001
0.51533413 0.21260916 1.4454001
0.52672708 0.21093988 1.4460001
0.53378016 0.21175785 1.4430001
0.54606533 0.21263835 1.4490001
0.55661643 0.21234486 1.4470003
0.56493855 0.21012191 1.4490001
0.57763535 0.21175785 1.4430001
0.58470964 0.21330437 1.4450001
0.59305781 0.21318021 1.4470003
0.60419482 0.21228614 1.4466002
0.61567271 0.21150604 1.4470003
0.38599482 0.22898732 1.4441999
0.39653051 0.22798491 1.4441999
0.40722665 0.22929993 1.4430002
0.45881605 0.22794358 1.4450001
0.48741898 0.22929993 1.4430002
0.495756 0.22717111 1.4454001
0.5044229 0.22397009 1.4455715
-0.16322932 0.2385633 1.4460001
-0.15820687 0.2385633 1.4460001
0.013840365 0.23780264 1.4490001
0.10775843 0.23932396 1.4430001
0.11151745 0.23932396 1.4430001
0.1262628 0.23771302 1.4454001
0.13619201 0.23751609 1.4441999
0.14549577 0.23706412 1.4445002
0.15411963 0.23681796 1.4430002
0.16915569 0.23681796 1.4430001
0.17917971 0.23681796 1.4430001
0.18244117 0.23780264 1.4490001
0.20407622 0.23520286 1.4454001
0.21512352 0.23437968 1.4460001
0.22554091 0.23431194 1.4430001
0.23581111 0.23455551 1.4445
0.25541764 0.23528621 1.4490001
0.2672565 0.23463671 1.4450001
0.27497861 0.2360521 1.4460001
0.28513551 0.23489653 1.4466002
0.29819697 0.23276979 1.4490001
0.30365011 0.2332873 1.4470003
0.31528267 0.2348965 1.4466
0.32896721 0.23228785 1.4460001
0.3359434 0.234028 1.4490001
0.34475091 0.23654443 1.4490001
0.35607487 0.23654443 1.4490001
0.36552787 0.23288754 1.4466
0.37558112 0.2308744 1.4466002
0.38968456 0.23180594 1.4430001
0.41685992 0.23291436 1.4460001
0.42594966 0.23328385 1.4470003
0.43569407 0.23228785 1.4460001
0.44448856 0.23228785 1.4460001
0.45437193 0.23189971 1.4475002
0.48441279 0.23025335 1.4490001
-0.17381343 0.24668571 1.4470003
-0.16682421 0.2430198 1.4445
-0.15520377 0.24369705 1.4446365
-0.14515693 0.24599054 1.4464288
-0.13491139 0.24444227 1.4466002
-0.12577723 0.24347858 1.4464288
-0.11722656 0.24524151 1.4454001
-0.1094647 0.24786836 1.4490001
-0.095027812 0.24520531 1.4481432
-0.085810266 0.24484864 1.4490002
-0.074234694 0.24535193 1.4490001
-0.065156266 0.24433598 1.4430001
-0.054691236 0.24369293 1.4455717
-0.048099589 0.24383581 1.4450001
-0.03435839 0.24403588 1.4441999
-0.024582643 0.24383807 1.4464288
-0.015895711 0.24216342 1.4450002
-0.0047707972 0.2429345 1.4466002
0.0067818575 0.24293451 1.4466002
0.011323935 0.24031907 1.4490001
0.11449756 0.24031907 1.4490001
-0.7845121 0.25777066 1.4468184
-0.77468687 0.2567381 1.4470001
-0.76461184 0.25771838 1.4478003
-0.75430906 0.25686604 1.4430001
-0.745736 0.25722206 1.4450001
-0.73469883 0.25578177 1.4463335
-0.72468966 0.25678787 1.4454001
-0.17866653 0.25038478 1.4490001
-0.78312814 0.26187804 1.4430001
-0.72247165 0.26302165 1.4470003
-0.71844077 0.26296693 1.4490001
0.59507316 0.20846513 1.455
0.61781484 0.20846513 1.455
0.62160516 0.20846513 1.455
0.76816243 0.20846513 1.455
0.77574301 0.20846513 1.455
0.78206009 0.20846513 1.455
0.7959578 0.20214801 1.455
0.5078969 0.2173091 1.455
0.52937508 0.21099198 1.455
0.53695571 0.21099198 1.4550002
0.54327273 0.21099198 1.455
0.55464357 0.21351883 1.455
0.58496577 0.21099198 1.455
0.59380972 0.21099198 1.455
0.39376745 0.22867994 1.4550002
0.40555945 0.22867993 1.455
0.48894548 0.22867993 1.455
0.49147233 0.22867993 1.455
0.50410658 0.22299452 1.455
-0.16803554 0.23878734 1.455
0.11749853 0.23878734 1.455
0.12507908 0.23626049 1.455
0.13518648 0.2362605 1.4550002
0.14403045 0.23626049 1.455
0.15034758 0.23626049 1.455
0.17435266 0.23626049 1.455
0.21478225 0.23373364 1.455
0.22488964 0.23373364 1.455
0.23120677 0.23373364 1.455
0.2463679 0.2362605 1.4550002
