# .PCD v0.7 - Point Cloud Data file format
VERSION 0.7
FIELDS x y z
SIZE 4 4 4
TYPE F F F
COUNT 1 1 1
WIDTH 1403
HEIGHT 1
VIEWPOINT 0 0 0 1 0 0 0
POINTS 1403
DATA ascii
-0.27522689 -0.34437069 0.88025606
-0.26553285 -0.34461769 0.88137496
-0.25536481 -0.34454674 0.88347912
-0.24498963 -0.34493652 0.88638169
-0.23719297 -0.34573936 0.88841176
-0.44137385 -0.33851454 0.88400006
-0.43491262 -0.33719626 0.88144445
-0.30213833 -0.3345376 0.88000005
-0.29724789 -0.33316213 0.88000005
-0.2821261 -0.33489144 0.88000005
-0.27469468 -0.33515117 0.88153499
-0.26458952 -0.33474764 0.88268089
-0.2547082 -0.3347384 0.886204
-0.24522534 -0.33548027 0.88856083
-0.23420911 -0.33826777 0.88900006
-0.30305529 -0.32873017 0.88000005
-0.29724789 -0.32934147 0.88000005
-0.28094637 -0.32832265 0.88000005
-0.2745747 -0.32508937 0.88005096
-0.26462781 -0.32435724 0.88179582
-0.25500572 -0.3250823 0.88748819
-0.24494897 -0.32450339 0.88851106
-0.23853204 -0.32113051 0.88900006
-0.43386009 -0.31460571 0.88036376
-0.28174692 -0.31416798 0.88000011
-0.27467847 -0.3149955 0.88036817
-0.26485616 -0.3146621 0.88237995
-0.25470033 -0.31521001 0.88665903
-0.24468105 -0.31492081 0.88890487
-0.43097121 -0.30947402 0.88000005
-0.42791468 -0.30947402 0.88000005
-0.28196523 -0.30764008 0.88000005
-0.27446717 -0.30560559 0.8799997
-0.26487455 -0.30466968 0.88188255
-0.25480995 -0.30504021 0.8864584
-0.24512495 -0.3053785 0.88900006
-0.23750278 -0.30646348 0.88900012
-0.27419102 -0.29585251 0.87999994
-0.26471433 -0.2950857 0.88162512
-0.25452787 -0.29466462 0.88570452
-0.24701653 -0.29409075 0.88870001
-0.28094637 -0.28272936 0.88000005
-0.27554652 -0.28395197 0.88000005
-0.2643429 -0.28438663 0.88210207
-0.25491312 -0.28507844 0.88619989
-0.24650225 -0.28497824 0.88871431
-0.23853204 -0.28021726 0.88900006
-0.28043693 -0.27890867 0.88000005
-0.27258572 -0.27583525 0.88025004
-0.26525512 -0.27494881 0.88199985
-0.25503591 -0.27427897 0.88280004
-0.24503036 -0.27475196 0.88722444
-0.2383115 -0.27426225 0.88900006
-0.27203152 -0.2682108 0.88000005
-0.2647033 -0.26518637 0.88010496
-0.25480098 -0.26460543 0.88191104
-0.24489291 -0.26486593 0.88705653
-0.23791449 -0.26601341 0.88900006
-0.26359668 -0.25464126 0.88034266
-0.2554028 -0.2550987 0.8829335
-0.24477267 -0.25497714 0.88645828
-0.23712853 -0.25383067 0.88900006
-0.27279565 -0.24131332 0.88000005
-0.26496994 -0.24483564 0.88160872
-0.25460052 -0.24452326 0.88392431
-0.24474168 -0.24480015 0.88694131
-0.23749803 -0.24505861 0.88860005
-0.27160701 -0.23441914 0.88000005
-0.26530135 -0.23507892 0.88248146
-0.25472909 -0.23489374 0.88652295
-0.24471197 -0.23470061 0.88862795
-0.23707895 -0.23453608 0.889
-0.28043693 -0.2223628 0.88000005
-0.27472013 -0.22383451 0.87999982
-0.26494604 -0.22491927 0.88265383
-0.25471699 -0.22482027 0.8862341
-0.2447556 -0.22509369 0.88839525
-0.23724547 -0.2282394 0.88900006
-0.28154844 -0.21263747 0.88000005
-0.27449602 -0.21468684 0.88024998
-0.2646991 -0.21502654 0.8824783
-0.2553089 -0.21517691 0.88730222
-0.24470763 -0.21460164 0.88900006
-0.28294331 -0.20439041 0.87999982
-0.27485976 -0.20464058 0.88182974
-0.26474515 -0.20504636 0.88415992
-0.25704935 -0.20483442 0.8881852
-0.30362055 -0.19322963 0.88039982
-0.29464456 -0.19293539 0.8802141
-0.28468236 -0.19492067 0.8822158
-0.27496812 -0.19504142 0.88634628
-0.26460549 -0.19500814 0.88810414
-0.25701004 -0.19822457 0.8888334
-0.31314185 -0.18201657 0.88000005
-0.30505788 -0.18476169 0.88133323
-0.29481998 -0.18469715 0.88290006
-0.28479597 -0.18525743 0.88588005
-0.27563944 -0.18627396 0.88828564
-0.26735148 -0.18809807 0.88900006
-0.37595361 -0.17040174 0.88000005
-0.34054875 -0.17091116 0.88000005
-0.33356261 -0.17193288 0.88094121
-0.32410914 -0.17431359 0.88197434
-0.31459391 -0.17522551 0.88206524
-0.30489752 -0.17491701 0.88464141
-0.29693341 -0.1769986 0.88715392
-0.28304771 -0.17832005 0.88900006
-0.27712947 -0.17986397 0.88900012
-0.39384937 -0.16297576 0.88506669
-0.38472521 -0.16269246 0.88171417
-0.37567851 -0.16451855 0.88291121
-0.36479622 -0.16418028 0.88318175
-0.3546209 -0.16491565 0.88339126
-0.34478322 -0.16495502 0.88379544
-0.33480141 -0.16514742 0.88463265
-0.32524979 -0.16676977 0.88644463
-0.31526023 -0.16748732 0.88737023
-0.30572236 -0.16817255 0.8881765
-0.39254341 -0.15853696 0.88814288
-0.38473901 -0.15789784 0.88655555
-0.37496436 -0.15895529 0.88791668
-0.36510822 -0.15817581 0.88811111
-0.35555586 -0.15819557 0.88822222
-0.34546441 -0.15786992 0.88852382
-0.33734405 -0.15941617 0.88833344
0.32702649 0.25962994 0.88200003
0.33008999 0.25962994 0.88200003
0.3690767 0.25960708 0.88366669
0.37356436 0.25924599 0.88442868
0.38740999 0.25930128 0.88350004
0.39336389 0.25773394 0.88250011
0.40499932 0.25649375 0.88275003
0.41033962 0.25904122 0.88000005
0.48569795 0.25812513 0.88420004
-0.035806414 0.26797369 0.8853572
-0.0057148878 0.26952633 0.88433343
0.014032962 0.26941398 0.88800013
0.025307685 0.26885283 0.88337505
0.03375588 0.26820213 0.88333338
0.045736816 0.26866484 0.8836956
0.054969661 0.26827526 0.88337511
0.063336231 0.26579022 0.88072729
0.076053128 0.26906234 0.88616669
0.084946975 0.26862007 0.88519973
0.094330654 0.26843452 0.88447827
0.10460819 0.26657003 0.88258332
0.11560959 0.26704836 0.88490915
0.12439061 0.26706848 0.88466674
0.13466719 0.26656809 0.88419992
0.14511029 0.26672241 0.88420004
0.15480651 0.26702592 0.88566667
0.16443859 0.26657507 0.88575
0.17486688 0.26745397 0.88560003
0.18523712 0.26650134 0.8851819
0.19473977 0.26608333 0.88468748
0.20515078 0.26560134 0.88427275
0.21483216 0.26718971 0.88676471
0.22390105 0.26650459 0.8861053
0.23496449 0.26489317 0.88526672
0.24591444 0.2643308 0.88373339
0.25487611 0.26401269 0.88423812
0.26445073 0.26371333 0.88399982
0.27495232 0.26305607 0.88387501
0.28441817 0.26400352 0.88606673
0.29517579 0.26386365 0.88594121
0.30541041 0.26357248 0.88595235
0.31464466 0.26298699 0.88423985
0.323814 0.26139188 0.88343751
0.33639514 0.26127914 0.88499999
0.34515354 0.26118338 0.88407695
0.35501337 0.26283163 0.8839525
0.36420617 0.26156703 0.88461906
0.37682819 0.26035902 0.88240004
0.38501635 0.26085663 0.88444442
0.4079468 0.26168704 0.88033342
0.48479572 0.26116168 0.88200003
-0.46326944 0.27884367 0.88587505
-0.4552812 0.27806053 0.88541675
-0.44501877 0.27872881 0.88428575
-0.43462005 0.27785772 0.88380009
-0.42452532 0.2761806 0.8842501
-0.41647711 0.27745375 0.8854118
-0.40499237 0.27671316 0.88378948
-0.39494923 0.27717954 0.88484001
-0.38521686 0.27676305 0.88390011
-0.37489128 0.27656013 0.88381249
-0.36568657 0.27499449 0.88420582
-0.35499969 0.27620193 0.88458824
-0.34478348 0.27546817 0.88477784
-0.33452678 0.27536026 0.88361114
-0.32579213 0.27458024 0.88538468
-0.31327978 0.27547511 0.88644451
-0.30408952 0.27578679 0.88600004
-0.2946184 0.27493107 0.8855201
-0.28495729 0.27451831 0.88345706
-0.27458224 0.2751393 0.8832438
-0.26500735 0.2744025 0.88312888
-0.25502992 0.27434695 0.88318527
-0.24567403 0.27419159 0.88223082
-0.2354515 0.27422896 0.88133335
-0.22366546 0.27549154 0.88416666
-0.21522467 0.27594444 0.8858667
-0.20467034 0.2749998 0.88499999
-0.19498497 0.27403763 0.88336682
-0.18578687 0.27374145 0.88274997
-0.17493737 0.27430141 0.88362503
-0.16542909 0.27316031 0.88200009
-0.15493362 0.27349874 0.88360006
-0.14521784 0.27392787 0.88300002
-0.13457592 0.27401373 0.88394439
-0.1246631 0.27403402 0.88478941
-0.11450811 0.27226022 0.88341361
-0.10544436 0.27382222 0.88450003
-0.094739601 0.27438876 0.88633341
-0.084419608 0.27340251 0.88510525
-0.074904539 0.27385566 0.88605887
-0.065320954 0.27297673 0.88500005
-0.054411434 0.27270046 0.88258338
-0.044138819 0.27228016 0.88405007
-0.035303369 0.27150232 0.88282353
-0.024159901 0.272989 0.88609999
-0.014762173 0.27224126 0.88691664
-0.003577244 0.27045113 0.88400006
0.0052302326 0.27179143 0.88570005
0.01498483 0.2705009 0.88499999
0.022314142 0.27106154 0.88600004
0.037221238 0.27043524 0.88514298
0.041356981 0.27035213 0.88200003
0.055845123 0.27080974 0.88100004
0.08515615 0.27080584 0.88350004
-0.48199636 0.28125975 0.88328576
-0.47543094 0.28147975 0.88418752
-0.46555525 0.28051805 0.88371444
-0.45549384 0.28059635 0.88340008
-0.44572768 0.2803067 0.88200009
-0.44796363 -0.3613109 0.89100003
-0.23326604 -0.36169773 0.89100003
-0.22639957 -0.36295497 0.89099985
-0.21175912 -0.36252958 0.89430767
-0.20609747 -0.36468929 0.89800024
-0.19831982 -0.36674869 0.89800012
-0.23278266 -0.35494614 0.89137506
-0.22528692 -0.35458967 0.8916924
-0.21510829 -0.35468972 0.89526528
-0.20871668 -0.35570204 0.898
-0.23430297 -0.34494045 0.89124012
-0.2251308 -0.34459791 0.89390492
-0.21554045 -0.3449187 0.8970477
-0.2090475 -0.34500983 0.89800006
-0.24113183 -0.33242667 0.89099997
-0.23487349 -0.33434612 0.89156103
-0.22534817 -0.33566648 0.89583325
-0.21656154 -0.33607805 0.89800012
-0.24061604 -0.32804245 0.89100003
-0.23476237 -0.32541803 0.8935352
-0.22492909 -0.32525674 0.896465
-0.21535598 -0.32486129 0.89773703
-0.20975636 -0.32360178 0.89800006
-0.23499039 -0.31491143 0.89195454
-0.22491592 -0.31538287 0.89641309
-0.21573564 -0.31563562 0.89793777
-0.20882063 -0.3179875 0.89800006
-0.24396867 -0.30418718 0.89099991
-0.23437195 -0.30459458 0.8922441
-0.22518349 -0.30517673 0.89618754
-0.21791385 -0.30596715 0.898
-0.24296804 -0.29545486 0.89100009
-0.23504151 -0.2949948 0.89258713
-0.22519089 -0.2948401 0.89682615
-0.21746223 -0.29397085 0.89799994
-0.2420667 -0.28481281 0.89099985
-0.23448381 -0.28502211 0.8920716
-0.22470291 -0.28457651 0.89542884
-0.21738981 -0.28559855 0.898
-0.23375258 -0.27497366 0.89176941
-0.22470298 -0.27513918 0.89626682
-0.21527173 -0.27514237 0.89800006
-0.2081051 -0.27397218 0.89799994
-0.23381771 -0.26470691 0.8919093
-0.22496471 -0.26512429 0.89500028
-0.21532337 -0.26473957 0.89726341
-0.20693721 -0.26517949 0.89800024
-0.23411706 -0.25571835 0.89100009
-0.2254204 -0.25485966 0.89211643
-0.21568298 -0.2548306 0.89712501
-0.20730568 -0.25509399 0.8980003
-0.24061604 -0.24603184 0.89100003
-0.23397875 -0.24518394 0.89147395
-0.22495076 -0.24540123 0.89523077
-0.21556422 -0.24567923 0.89800024
-0.20719427 -0.24673942 0.898
-0.23236354 -0.23511827 0.89188904
-0.22504717 -0.23497085 0.89637214
-0.21527176 -0.2345946 0.89800006
-0.20801336 -0.2348005 0.89799994
-0.2437108 -0.22075813 0.89099997
-0.23453736 -0.22459742 0.8933183
-0.22524588 -0.22524694 0.89675552
-0.21630315 -0.22526896 0.89766681
-0.20897658 -0.22847067 0.89800006
-0.25299501 -0.21121602 0.89100003
-0.24525815 -0.21508436 0.89100027
-0.23543064 -0.21492897 0.89444453
-0.22568673 -0.21576488 0.89705288
-0.25290906 -0.20545636 0.89099991
-0.24515086 -0.2050575 0.89192313
-0.23477957 -0.20533514 0.89700001
-0.22775088 -0.20471786 0.898
-0.25460166 -0.19355787 0.89185327
-0.24514505 -0.19502455 0.89416677
-0.23683375 -0.19651055 0.89772737
-0.22847067 -0.19883965 0.89800006
-0.27265573 -0.18245316 0.89099985
-0.26414379 -0.18429624 0.89207715
-0.25559556 -0.18548769 0.89580005
-0.24493234 -0.18896265 0.89800006
-0.23899747 -0.18831286 0.89800006
-0.29358262 -0.17354284 0.89152968
-0.28545377 -0.17445344 0.89118773
-0.27488676 -0.17463176 0.89282995
-0.26549369 -0.175376 0.89663839
-0.25794575 -0.17653844 0.89800006
-0.39844775 -0.16015279 0.89100003
-0.33152401 -0.16053964 0.89100003
-0.32445297 -0.16191666 0.89219999
-0.31463429 -0.16258836 0.89256537
-0.30492842 -0.16351591 0.89300019
-0.29537126 -0.16499491 0.89491129
-0.28502196 -0.16619506 0.89528978
-0.27573189 -0.16755621 0.89652014
-0.26719892 -0.16868882 0.89800012
-0.40101284 -0.15620708 0.89500004
-0.39536941 -0.15408699 0.89425021
-0.38506001 -0.15328862 0.89426488
-0.37519726 -0.15385932 0.89412844
-0.36494005 -0.15313269 0.89409411
-0.35454863 -0.15300043 0.8931179
-0.34465513 -0.15322517 0.89434409
-0.33537868 -0.15627426 0.89484406
-0.32520759 -0.15707859 0.89613354
-0.3147462 -0.1572213 0.89669234
-0.30446687 -0.15842018 0.89762497
-0.29515949 -0.15840594 0.89766663
-0.28851247 -0.15985149 0.89800006
-0.3937805 -0.1489348 0.89800006
-0.38754243 -0.14893481 0.89800012
-0.36570901 -0.1489348 0.89800006
-0.35572806 -0.1489348 0.89800006
-0.084994204 0.22379208 0.89800006
0.33607802 0.2596612 0.89800006
0.34426695 0.2582005 0.89780009
0.3532328 0.25914139 0.89800012
0.3691462 0.25930953 0.8950001
0.37409514 0.2589325 0.89500004
0.38684875 0.25897175 0.89485717
0.39306456 0.25897178 0.89485723
0.48974261 0.25608975 0.89100003
0.49359021 0.25654215 0.89800006
-0.10347755 0.26997527 0.89600003
-0.092516288 0.26977441 0.89533341
-0.085195653 0.26958537 0.89600003
-0.039457936 0.26846871 0.89100003
0.0046690283 0.2694968 0.89700007
0.015299744 0.26864317 0.89588898
0.024493795 0.26850519 0.89629412
0.035268363 0.26927462 0.89646167
0.044068415 0.26851895 0.89485729
0.054500073 0.26861894 0.89666671
0.066319071 0.26799101 0.8958751
0.07498423 0.26793143 0.89490002
0.085108027 0.26618418 0.89335716
0.095536053 0.26692206 0.8944667
0.10452263 0.26770535 0.89645457
0.11543346 0.26738581 0.8947857
0.12546052 0.26651943 0.89547056
0.13346466 0.26578906 0.8956154
0.14627276 0.26628301 0.89510012
0.15519305 0.26471156 0.89531249
0.16461243 0.26483613 0.89474994
0.1756186 0.26660457 0.8949092
0.18411098 0.26561844 0.89399999
0.19510423 0.26529241 0.89353842
0.20484041 0.26560155 0.8955
0.21541227 0.26555184 0.89473343
0.22475451 0.2650958 0.89562505
0.23424661 0.2653428 0.89525008
0.24485427 0.26480907 0.8935715
0.25623542 0.26401871 0.89625007
0.26441732 0.26265299 0.89579999
0.27447352 0.26291427 0.89433342
0.28596193 0.2632601 0.89540005
0.29520339 0.26312789 0.89592308
0.30613109 0.26310116 0.89555573
0.31487608 0.26168957 0.8946923
0.32563099 0.26212561 0.89630002
0.33545771 0.26117653 0.89538461
0.3449384 0.26134798 0.89515382
0.3552475 0.26131639 0.89399999
0.36444983 0.26097032 0.89491671
0.37678352 0.26037127 0.89375001
0.38386008 0.26047599 0.89366668
0.39125016 0.26005715 0.89400005
-0.48746717 0.2789942 0.89250004
-0.47097707 0.27993503 0.89800006
-0.46402791 0.27895209 0.89342856
-0.45205727 0.27750564 0.89420003
-0.44429916 0.27723232 0.89378947
-0.43467325 0.27615392 0.89353842
-0.42403406 0.27508289 0.89505875
-0.41544536 0.27631009 0.89488232
-0.40490118 0.27688277 0.89569998
-0.39514214 0.27548954 0.8947857
-0.38518775 0.27636471 0.89615387
-0.3759633 0.2746686 0.89609104
-0.36333588 0.27365208 0.8944667
-0.35512653 0.27431113 0.89331836
-0.34524977 0.27542204 0.89516658
-0.33498958 0.27467421 0.89472723
-0.32440397 0.27490917 0.89492309
-0.31471765 0.2740261 0.89424992
-0.3052749 0.27288729 0.89414287
-0.29626444 0.27268934 0.89441174
-0.28423908 0.2736055 0.89600003
-0.27511495 0.27304047 0.89499998
-0.26380336 0.27349395 0.89225006
-0.25519958 0.27432495 0.89727283
-0.24385397 0.27635357 0.8955
-0.23464116 0.27658513 0.89662504
-0.22450151 0.27520892 0.89500004
-0.21531938 0.27426359 0.89318746
-0.20489022 0.27382764 0.89472729
-0.19356476 0.27343971 0.89525002
-0.18418172 0.27546221 0.89636374
-0.17483534 0.27515024 0.89657146
-0.16517243 0.27580503 0.89725006
-0.15516827 0.272901 0.89200002
-0.14397135 0.27492955 0.89621425
-0.13483456 0.27272713 0.89452934
-0.12562804 0.2721898 0.89306247
-0.11590655 0.27032313 0.89137495
-0.10382073 0.27121425 0.89359999
-0.095449537 0.27166942 0.89215791
-0.08550784 0.27158129 0.89376473
-0.075915903 0.27255765 0.89393336
-0.065513037 0.27276063 0.89460003
-0.054825585 0.27345741 0.89562494
-0.046097502 0.27190256 0.89466667
-0.030723371 0.27083492 0.89200008
-0.02485778 0.27241963 0.89466661
-0.015417632 0.27214214 0.89400005
-0.0041848458 0.27061975 0.89300007
0.0041749468 0.2710351 0.89437497
0.015742885 0.27031913 0.89200008
0.025594128 0.27062219 0.89300007
0.034135051 0.27038383 0.89350003
-0.48353845 0.28154522 0.89469999
-0.4754985 0.2815102 0.89360011
-0.46810287 0.28024068 0.89400005
-0.45318246 0.2807532 0.89316672
-0.44794017 0.28054416 0.89250004
-0.18192887 -0.37094945 0.90700006
-0.17661205 -0.37135839 0.90800005
-0.20311487 -0.36283836 0.90100008
-0.19448876 -0.36432299 0.9010005
-0.18486132 -0.36509869 0.90546829
-0.17715791 -0.3672342 0.90800011
-0.21045709 -0.35441285 0.90100002
-0.2044014 -0.35495797 0.901061
-0.19511986 -0.35496807 0.90274024
-0.18512531 -0.35526463 0.90648818
-0.1789774 -0.35085878 0.90800005
-0.21045709 -0.34033024 0.90100002
-0.2046203 -0.34480417 0.90133369
-0.19551711 -0.34506261 0.90563279
-0.18562117 -0.34629554 0.90681618
-0.1789774 -0.34849343 0.90800005
-0.2128042 -0.3347114 0.90100014
-0.20482855 -0.33452976 0.90214324
-0.19506802 -0.33480188 0.90633982
-0.18824165 -0.3356812 0.90800005
-0.21123946 -0.32937708 0.90100002
-0.20457287 -0.32523128 0.90285009
-0.19492027 -0.32508406 0.90743291
-0.18843876 -0.32641691 0.90800005
-0.21228263 -0.31242579 0.90100002
-0.20436232 -0.3149811 0.90234816
-0.19509254 -0.31481421 0.90673721
-0.22141024 -0.30590603 0.90100002
-0.21408501 -0.30496329 0.90125036
-0.20488679 -0.30519027 0.90421295
-0.195559 -0.3058489 0.90792155
-0.18843876 -0.30355197 0.90800005
-0.21297184 -0.29562351 0.90100032
-0.20511854 -0.29494238 0.903
-0.19509947 -0.2943337 0.90734249
-0.18669586 -0.29475462 0.90800017
-0.21273306 -0.28513771 0.90100014
-0.20456146 -0.28521994 0.90261906
-0.19492824 -0.28512755 0.90659571
-0.18659262 -0.28550094 0.90742874
-0.20350201 -0.27598789 0.90151882
-0.19440168 -0.27501798 0.90595788
-0.18644689 -0.27359101 0.90800017
-0.2028681 -0.26483169 0.90100002
-0.19480993 -0.26491371 0.90380019
-0.18646765 -0.26499695 0.90800017
-0.20279521 -0.25458252 0.90211117
-0.19495685 -0.25534302 0.90513742
-0.18577021 -0.25551736 0.90800041
-0.22141024 -0.24018708 0.90100002
-0.213065 -0.24214302 0.90100002
-0.2042522 -0.2440411 0.90148306
-0.19536103 -0.24502367 0.90404356
-0.18702699 -0.24576767 0.90728027
-0.20379825 -0.23422451 0.90171462
-0.19516487 -0.23530179 0.90630805
-0.18736738 -0.23537675 0.90740007
-0.21266614 -0.22398748 0.90100002
-0.20478073 -0.22498403 0.90359581
-0.19465369 -0.225391 0.90757179
-0.18615644 -0.22564864 0.90785736
-0.22323579 -0.21254341 0.90100002
-0.21515124 -0.21515128 0.90100056
-0.20455596 -0.21473865 0.90309328
-0.19507533 -0.21624014 0.90735185
-0.18688951 -0.21735919 0.90750015
-0.22350457 -0.20523673 0.90174091
-0.21494326 -0.20497338 0.90295237
-0.20538627 -0.20542048 0.90548885
-0.19860096 -0.20613499 0.90800011
-0.23369633 -0.19365065 0.90100026
-0.22492065 -0.19493817 0.90253186
-0.2151307 -0.19514233 0.90584344
-0.20736149 -0.1966386 0.90800011
-0.25287881 -0.18211798 0.90100002
-0.24505046 -0.1841526 0.9010005
-0.23450145 -0.18435492 0.9023416
-0.22532421 -0.18495311 0.90539157
-0.2164472 -0.18537769 0.90771008
-0.26105022 -0.17186026 0.90100002
-0.2541779 -0.17408328 0.90165037
-0.24478385 -0.17495614 0.90354371
-0.23579526 -0.17607564 0.90624362
-0.22617912 -0.17740051 0.90800011
-0.21997663 -0.1789774 0.90800005
-0.28418207 -0.16145834 0.90116668
-0.27482042 -0.16265149 0.90242881
-0.26499373 -0.16468967 0.90440029
-0.25508064 -0.16513239 0.90582526
-0.2455741 -0.16655079 0.90703374
-0.23837373 -0.16899042 0.90800011
-0.40135497 -0.15099709 0.90100002
-0.38257813 -0.15099709 0.90100002
-0.37944865 -0.15099709 0.90100002
-0.3415038 -0.15138827 0.90100002
-0.33468291 -0.15177153 0.902125
-0.32557204 -0.15260486 0.9017778
-0.31453606 -0.15266693 0.90266705
-0.30503604 -0.15331003 0.90263659
-0.29466334 -0.15378746 0.90308863
-0.28544766 -0.15635559 0.90515167
-0.27618331 -0.15727383 0.90660894
-0.26807189 -0.15847778 0.90800005
-0.40210781 -0.14822797 0.90800005
-0.39434707 -0.14594299 0.90241671
-0.38524616 -0.14612773 0.90305918
-0.3747144 -0.14796294 0.90452188
-0.36498919 -0.14707585 0.90359104
-0.355014 -0.1459256 0.90386701
-0.34570542 -0.1468855 0.90403044
-0.33478016 -0.14716524 0.90564305
-0.32493785 -0.14742145 0.90520012
-0.3164781 -0.14823027 0.90588897
-0.30536368 -0.14815423 0.90675008
-0.29514191 -0.14901643 0.90800011
-0.12155018 0.18752922 0.90700001
-0.11489963 0.18621483 0.90631282
-0.10816061 0.18731007 0.90700006
-0.12449122 0.1952028 0.90558636
-0.115103 0.19496672 0.90173501
-0.10494588 0.19532347 0.90484458
-0.093510531 0.19501652 0.90785736
-0.088947296 0.19600412 0.90650004
-0.13009371 0.20657304 0.90800005
-0.12489406 0.20500685 0.904576
-0.11508924 0.20512234 0.90161943
-0.10429476 0.20493563 0.90313989
-0.097627476 0.20589508 0.90762502
-0.12502629 0.21518508 0.90553367
-0.11524687 0.21528985 0.90286952
-0.10472986 0.21534728 0.90390235
-0.098708376 0.21185772 0.90700006
-0.085278153 0.2198455 0.90100002
-0.13009371 0.22234197 0.90800005
-0.12491494 0.22503988 0.90545183
-0.1150366 0.2250113 0.90122277
-0.10443851 0.22486225 0.90286708
-0.095768705 0.2263529 0.90775007
-0.0871429 0.22502187 0.90292859
-0.12455075 0.23457116 0.9060387
-0.1149566 0.23474368 0.90148813
-0.10441323 0.23478003 0.90382528
-0.098555833 0.23338023 0.90800005
-0.086729139 0.23101488 0.90800005
-0.12265979 0.2416026 0.90800011
-0.11468501 0.24491082 0.90670037
-0.10731541 0.24445875 0.90768433
0.33775511 0.25948283 0.90500003
0.3437154 0.25831482 0.90342867
0.35470811 0.2587193 0.90425003
0.36568791 0.2587893 0.90518743
0.37276721 0.25853911 0.9037779
0.3897002 0.25953877 0.90300006
0.3962639 0.25839576 0.9048667
0.40486735 0.25861052 0.90800005
0.41078073 0.25939897 0.90800005
0.49612203 0.2568962 0.90475005
-0.10405499 0.26991707 0.90100002
-0.087495297 0.26979262 0.90233338
-0.053498279 0.26856604 0.90329999
-0.047259431 0.26920485 0.90211117
-0.014930992 0.26954371 0.90500003
-0.00078714418 0.26920199 0.90650004
0.0056330962 0.26927155 0.90541667
0.0147951 0.26800227 0.90466666
0.025889216 0.26713294 0.90350002
0.034723442 0.26792884 0.9042778
0.045196753 0.26941952 0.90525001
0.055765677 0.26807407 0.90594441
0.064609334 0.26792404 0.9052
0.073721796 0.26707378 0.90433335
0.086041413 0.2668868 0.90240002
0.094651267 0.26654115 0.9035455
0.10587626 0.26704252 0.90414292
0.11470151 0.26695904 0.90385723
0.12546697 0.26557699 0.90463638
0.13686661 0.2661356 0.90411115
0.14450438 0.2662442 0.90388894
0.1551677 0.26405996 0.90314293
0.16624156 0.26489639 0.90166676
0.17656887 0.26537389 0.90508336
0.18519863 0.26493061 0.90468746
0.19497848 0.26569468 0.90483344
0.20591423 0.26502305 0.90484613
0.21455356 0.26490638 0.90420002
0.22460021 0.26383057 0.9035455
0.2346904 0.2643519 0.9042778
0.24466257 0.26417243 0.90404767
0.25403821 0.26438743 0.90476471
0.26443204 0.26229203 0.90463638
0.27577335 0.26283276 0.90482354
0.28473079 0.26206535 0.90489477
0.29440594 0.26260886 0.90412503
0.30530402 0.26354998 0.90485722
0.31733173 0.26213089 0.90383339
0.32549676 0.26239893 0.9051429
0.33478129 0.26122856 0.90433335
0.34815392 0.26052865 0.90100002
0.35665366 0.2604101 0.90214288
0.36536601 0.26052865 0.90100002
0.37956154 0.2601136 0.90500003
0.38657883 0.26082626 0.90514296
0.39979023 0.26052865 0.90100002
0.40454209 0.26059389 0.90462506
0.41078073 0.26097587 0.90800005
-0.49456751 0.27991205 0.90550005
-0.47228998 0.27961552 0.90200007
-0.46288335 0.27992553 0.90300006
-0.45453733 0.27735981 0.90407699
-0.44469124 0.27685037 0.90319997
-0.43532366 0.27614108 0.90509099
-0.42365569 0.27433187 0.90336359
-0.41476637 0.27590078 0.90466672
-0.40578088 0.27612597 0.90414286
-0.3941741 0.27585596 0.90509087
-0.38515562 0.27496666 0.90364289
-0.36507601 0.27353144 0.90260011
-0.35470873 0.27377248 0.90275002
-0.34490985 0.27465329 0.90274996
-0.33484358 0.27439144 0.90309095
-0.32572818 0.27408275 0.90323079
-0.31606641 0.27339789 0.90320009
-0.3012118 0.27148181 0.90100002
-0.28541422 0.27522087 0.90300006
-0.27362642 0.27484807 0.90522224
-0.265118 0.2754344 0.90600002
-0.25451326 0.2741566 0.90500003
-0.2450559 0.27503252 0.90427279
-0.23494105 0.27435178 0.90433329
-0.22576095 0.27421275 0.90446162
-0.21564893 0.27430955 0.90310013
-0.20449312 0.27412966 0.90509999
-0.19513282 0.27436146 0.90581828
-0.18476905 0.27373698 0.90355015
-0.17523427 0.27366903 0.90305877
-0.16516902 0.27485165 0.90452933
-0.15231831 0.27533537 0.90485722
-0.1447071 0.2730113 0.90389472
-0.13457017 0.27194661 0.90478581
-0.12507787 0.27192566 0.90312505
-0.11498991 0.27328971 0.90700006
-0.10759476 0.27174795 0.90450001
-0.094549999 0.27112904 0.90375
-0.08305537 0.27142408 0.90516675
-0.074169122 0.27179995 0.90438896
-0.06476707 0.27162719 0.90410012
-0.055662502 0.2717315 0.90281248
-0.044100698 0.27149504 0.90300012
-0.032777958 0.27124381 0.90412503
-0.024603359 0.27143532 0.90433335
-0.014915362 0.27089044 0.90399998
-0.0052020224 0.27090561 0.90431243
0.0035317289 0.27049649 0.90425009
0.046518356 0.27043721 0.90800005
-0.4920074 0.28148276 0.90600008
-0.48523706 0.2816669 0.90244454
-0.47664413 0.28138369 0.90433347
-0.46676046 0.28147545 0.90800005
-0.17225997 -0.37138617 0.91000003
-0.16474822 -0.37132651 0.91088229
-0.15481189 -0.37243757 0.91550004
-0.18095198 -0.36190397 0.91000003
-0.17448118 -0.36437353 0.91010714
-0.16521397 -0.3649236 0.91181386
-0.15648034 -0.36538902 0.91641188
-0.17466107 -0.35520366 0.91123402
-0.16476245 -0.35526949 0.91458869
-0.15765983 -0.3551327 0.91699994
-0.18271632 -0.34212977 0.91092306
-0.1752342 -0.34472233 0.91317022
-0.16587591 -0.34560516 0.91677135
-0.15845607 -0.34876263 0.91700006
-0.19043419 -0.33424756 0.91000003
-0.18432468 -0.33483484 0.91021419
-0.17483538 -0.3347536 0.91239476
-0.16797823 -0.33449182 0.91636837
-0.19156304 -0.32137886 0.91000003
-0.18455049 -0.32462701 0.91031575
-0.17521165 -0.32505843 0.91305989
-0.16880746 -0.32598954 0.91699994
-0.19043419 -0.31528318 0.91000003
-0.18510304 -0.31483898 0.91099995
-0.17556816 -0.31510705 0.91472083
-0.16960374 -0.31691214 0.91700006
-0.19230191 -0.30321494 0.90999997
-0.18461891 -0.30516899 0.91100007
-0.17572634 -0.30512345 0.91591305
-0.16880748 -0.3017832 0.917
-0.19296278 -0.29884735 0.91000003
-0.18231764 -0.29587072 0.91233337
-0.17534459 -0.29440609 0.9156003
-0.16783427 -0.29390907 0.91699994
-0.18329491 -0.28433722 0.91042858
-0.17550337 -0.28488976 0.91389209
-0.16547231 -0.28495812 0.91666669
-0.18325828 -0.27642766 0.91099995
-0.17489029 -0.27527279 0.91249996
-0.16597052 -0.27521107 0.91665518
-0.15845607 -0.27152523 0.91700006
-0.18243359 -0.26540282 0.90999991
-0.17507216 -0.26505274 0.91155821
-0.16477002 -0.26515248 0.91607159
-0.15735357 -0.26368514 0.91699994
-0.18161047 -0.25496584 0.90999997
-0.17533278 -0.25545254 0.91272706
-0.16445389 -0.25502899 0.91495556
-0.15757135 -0.25648472 0.91699994
-0.18253237 -0.24495687 0.90999997
-0.17498375 -0.24502127 0.91239971
-0.16487166 -0.24521901 0.91551125
-0.15686356 -0.24206355 0.91700006
-0.18365179 -0.23573802 0.90999997
-0.17531113 -0.2351312 0.91299999
-0.16453965 -0.23493667 0.91636175
-0.15686356 -0.23574655 0.91699994
-0.18253238 -0.22485109 0.90999997
-0.17533569 -0.22509824 0.91423404
-0.16570114 -0.22519381 0.91622239
-0.15845607 -0.22773084 0.91700006
-0.19372663 -0.21216422 0.90999997
-0.18419349 -0.21381046 0.91039997
-0.17583454 -0.21493749 0.91519988
-0.16801122 -0.21493758 0.91699994
-0.20228693 -0.20149675 0.91000003
-0.19411558 -0.20488012 0.91080552
-0.18503559 -0.20518066 0.9142226
-0.17539564 -0.2052604 0.91675752
-0.16864823 -0.20750581 0.917
-0.21097896 -0.19122437 0.91000003
-0.20413071 -0.19412172 0.90999991
-0.19517854 -0.19526973 0.91369057
-0.1850601 -0.19596973 0.91676468
-0.17629234 -0.19816302 0.91699994
-0.21227548 -0.18275513 0.91158825
-0.20499253 -0.18500288 0.91337818
-0.19643651 -0.18564232 0.91566688
-0.18791777 -0.18791777 0.91700006
-0.23355564 -0.1721471 0.91000003
-0.22427404 -0.17350368 0.91073334
-0.21531354 -0.1754261 0.91471732
-0.2052232 -0.17557785 0.91649997
-0.19842841 -0.17724784 0.91699994
-0.26234087 -0.16040722 0.91000003
-0.25364888 -0.16067061 0.91000003
-0.24394761 -0.16216381 0.91049999
-0.23515998 -0.16465698 0.91345984
-0.22553904 -0.16698141 0.91477776
-0.21844113 -0.1677458 0.917
-0.30105987 -0.15092503 0.91000003
-0.29236785 -0.1517152 0.91000003
-0.28424028 -0.15216675 0.90999997
-0.27393141 -0.15319702 0.91186208
-0.2648752 -0.15437967 0.91374403
-0.25551173 -0.15627803 0.91463894
-0.24571462 -0.15827364 0.91544449
-0.2388785 -0.15845607 0.91700006
-0.40269265 -0.14462917 0.91350007
-0.39486849 -0.14380902 0.91500008
-0.38328061 -0.14478576 0.9145
-0.37523937 -0.14317723 0.91495657
-0.36540085 -0.14249371 0.91338104
-0.35543835 -0.14146593 0.91220009
-0.3442809 -0.14219463 0.91145837
-0.33482683 -0.14210761 0.91138095
-0.32488784 -0.14280197 0.91348153
-0.31461042 -0.14409944 0.91314822
-0.30473927 -0.14443032 0.91393745
-0.29540297 -0.14608321 0.91328579
-0.28563023 -0.14778455 0.91276926
-0.27659488 -0.14876071 0.91533339
-0.2683402 -0.14890094 0.91700006
-0.37185425 -0.13934579 0.91700006
-0.3638916 -0.13934579 0.917
-0.35378033 -0.13730705 0.9165293
-0.34533656 -0.13758521 0.91588891
-0.33605239 -0.1387957 0.91600001
-0.1226243 0.17915888 0.91700006
-0.11508022 0.17936556 0.91400009
-0.1083191 0.17929666 0.91500008
-0.13128766 0.18857567 0.91633338
-0.12552997 0.18469067 0.91340011
-0.11548269 0.1817631 0.91090006
-0.10436653 0.18414263 0.91186494
-0.096971184 0.18690631 0.91256249
-0.13290821 0.19557482 0.91413051
-0.12834387 0.19238257 0.91049999
-0.10098543 0.19169848 0.91000003
-0.096360773 0.19534163 0.90999997
-0.13398725 0.20512865 0.91340756
-0.093366399 0.20457432 0.90999997
-0.089290716 0.20149675 0.91000003
-0.13402279 0.21495785 0.91227281
-0.12879989 0.21888079 0.91000003
-0.095211625 0.21579976 0.91084617
-0.08997757 0.21897197 0.91700006
-0.13343529 0.22480132 0.91042852
-0.094467662 0.22455953 0.91040617
-0.088776521 0.22114351 0.91283339
-0.13242464 0.23503481 0.91249996
-0.12879989 0.237055 0.91000003
-0.095310234 0.23527171 0.91173923
-0.089437902 0.23269814 0.91150004
-0.13320796 0.24325058 0.9156667
-0.12573849 0.24611954 0.91308343
-0.11931769 0.24890776 0.91000003
-0.10315536 0.24575636 0.91126311
-0.097760834 0.24330316 0.91533333
-0.12433848 0.25302321 0.91653842
-0.10457599 0.25089782 0.91380006
0.32337168 0.25980967 0.91500002
0.33485109 0.25991678 0.91166675
0.34495693 0.25970787 0.91325003
0.3569521 0.25910887 0.91309994
0.36388728 0.258176 0.91259998
0.37564287 0.2586247 0.913625
0.38555601 0.25919849 0.91417646
0.39456025 0.25806239 0.91444999
0.40516621 0.25788775 0.91312504
0.41591847 0.25734723 0.91386962
0.50186074 0.25529298 0.91428584
-0.14093831 0.26993272 0.91700006
-0.13854954 0.26993272 0.91700006
-0.090871088 0.26945251 0.91000003
-0.089290716 0.26945251 0.91000003
-0.073123217 0.26945913 0.91385722
-0.064865112 0.26917148 0.91549999
-0.057782382 0.26915681 0.91514289
-0.043140538 0.26896799 0.91575003
-0.035648037 0.26911911 0.91639996
-0.024469513 0.26879513 0.91314286
-0.015346009 0.26897413 0.91405553
-0.0044270116 0.26961181 0.91514289
0.0044089006 0.26877075 0.9122858
0.014964486 0.26775807 0.91385716
0.024974618 0.26747948 0.91466671
0.035248097 0.26660553 0.91481251
0.044828162 0.2677331 0.91472
0.053751409 0.26637554 0.91368747
0.064492203 0.26725087 0.91125
0.074937485 0.26774177 0.91545457
0.085067771 0.26848888 0.91557139
0.095590413 0.26661897 0.91446155
0.10498859 0.26553565 0.91342103
0.11425053 0.26611739 0.91449994
0.12548909 0.2659345 0.91466665
0.13439392 0.26613948 0.91491669
0.14568697 0.26533127 0.91350001
0.15451813 0.26547822 0.91491669
0.16546544 0.26562586 0.91466671
0.17483938 0.26454583 0.91385722
0.18547532 0.26385233 0.91359997
0.19481723 0.26465788 0.91400003
0.20489931 0.26419711 0.91461116
0.21479431 0.2634185 0.91237497
0.22424603 0.26388747 0.91308331
0.23549275 0.26339564 0.91366667
0.24548066 0.26270962 0.91364294
0.25517526 0.26263884 0.91347063
0.26455 0.26216757 0.91491669
0.27381483 0.26213428 0.91354549
0.28568602 0.26189089 0.91340011
0.29539812 0.26232475 0.91408336
0.3048498 0.26280269 0.91473335
0.31501749 0.26288483 0.91520005
0.32523254 0.26152816 0.91342103
0.33344546 0.26138842 0.91386664
0.34358692 0.26037759 0.91700006
0.38631943 0.26140413 0.91280001
0.41518819 0.26136985 0.91075003
-0.49753091 0.27951249 0.91500008
-0.4742561 0.27898312 0.91600001
-0.46619248 0.27926186 0.91328585
-0.45407113 0.27912211 0.91580009
-0.44502997 0.27773729 0.9160769
-0.43523562 0.27624723 0.91550004
-0.42489523 0.27583653 0.91633338
-0.41396436 0.27501938 0.91315389
-0.40467539 0.27517387 0.91425002
-0.39608493 0.27522722 0.91384614
-0.38492697 0.27619165 0.91400003
-0.37569961 0.27630368 0.91509092
-0.3653478 0.2755352 0.91533345
-0.35537103 0.27564487 0.91557151
-0.34454104 0.27509329 0.91510004
-0.33482525 0.27452728 0.91374993
-0.32485062 0.27533862 0.91380006
-0.3124747 0.27537024 0.9156667
-0.30619887 0.27502766 0.91474998
-0.29434088 0.27619246 0.91570586
-0.28460297 0.27498356 0.9143889
-0.27514902 0.27363279 0.91413641
-0.26593217 0.27386683 0.91420013
-0.25472727 0.27253333 0.91299999
-0.24527036 0.27317223 0.91293335
-0.23603587 0.27220386 0.9121666
-0.224833 0.27432281 0.91175008
-0.21437947 0.27489269 0.91373336
-0.20497704 0.27409747 0.91400003
-0.19466366 0.27312353 0.91377777
-0.18614195 0.27189603 0.91290909
-0.17436594 0.27341741 0.91110003
-0.16481298 0.27366212 0.91382349
-0.15535569 0.27402923 0.91347617
-0.14557832 0.27134353 0.91257149
-0.13515174 0.27110192 0.91269231
-0.12460455 0.27288318 0.91399997
-0.11546244 0.27345034 0.91472733
-0.10330718 0.27395347 0.91660005
-0.095751636 0.27294314 0.91508335
-0.08409097 0.27115062 0.91359997
-0.076815374 0.27083492 0.91199994
-0.063939184 0.27060035 0.91187501
-0.059459127 0.27034083 0.91300005
-0.043569107 0.2706373 0.91222221
-0.035210758 0.27081692 0.91218185
-0.02849349 0.27068686 0.91150004
-0.015062978 0.27034083 0.91300005
-0.0063423067 0.27034083 0.91300005
0.044396147 0.27034083 0.91300005
-0.49352348 0.2811172 0.91336364
-0.48549831 0.28297406 0.91563636
-0.47532606 0.28169543 0.91555554
-0.46572486 0.28070006 0.91060001
-0.15098581 -0.37147301 0.92000002
-0.14468458 -0.37413782 0.92215168
-0.1353889 -0.37508044 0.92647058
-0.12744963 -0.37738508 0.92700005
-0.15224117 -0.36348441 0.92000008
-0.14508767 -0.36492062 0.92276013
-0.13713184 -0.36643118 0.92655563
-0.15311377 -0.35510367 0.92262512
-0.14522798 -0.35526553 0.92676675
-0.13818224 -0.35444412 0.92700005
-0.16204703 -0.34381992 0.92000002
-0.15438056 -0.34510249 0.92211604
-0.14625852 -0.34572393 0.92700005
-0.13871887 -0.34800458 0.92700005
-0.16288631 -0.33517677 0.92023093
-0.15485065 -0.3350904 0.92384017
-0.1467683 -0.33405218 0.92700005
-0.17015861 -0.32034555 0.92000002
-0.16439331 -0.32457098 0.92027783
-0.15479828 -0.32485011 0.92371798
-0.14764991 -0.32577276 0.92700011
-0.17015861 -0.31315574 0.92000002
-0.16456653 -0.31475344 0.91999996
-0.15448399 -0.31488201 0.92206961
-0.1478994 -0.31542405 0.92684627
-0.17055805 -0.3079631 0.92000002
-0.16425641 -0.30548483 0.92030317
-0.15491742 -0.30510342 0.9231739
-0.14570768 -0.30435437 0.92669243
-0.13898718 -0.30319595 0.92700005
-0.16310194 -0.29611325 0.92000002
-0.1546265 -0.29499963 0.92155892
-0.14511439 -0.29512048 0.92569226
-0.13925549 -0.29460987 0.92700005
-0.16163735 -0.28413025 0.91999996
-0.15469517 -0.2850731 0.92075521
-0.14522602 -0.28506315 0.9254998
-0.13810559 -0.28495058 0.92700011
-0.16278446 -0.27462581 0.92000002
-0.1545845 -0.27521223 0.92092115
-0.14488776 -0.27464405 0.92510498
-0.13698702 -0.27565706 0.92700005
-0.1532903 -0.26542789 0.92025012
-0.14531641 -0.26487705 0.92390692
-0.13744453 -0.26536044 0.92678952
-0.15427235 -0.25405934 0.92025006
-0.14488934 -0.25455895 0.92188126
-0.13586833 -0.25485831 0.92587882
-0.15478219 -0.24470353 0.92012131
-0.14524654 -0.24502659 0.9248125
-0.1366318 -0.2454049 0.92684627
-0.15285225 -0.23394687 0.92092592
-0.14508502 -0.23513618 0.92636842
-0.13784686 -0.23484275 0.92700005
-0.16177049 -0.22288379 0.92000002
-0.15475515 -0.22510661 0.92005885
-0.14541949 -0.22496861 0.9252857
-0.13677874 -0.22482733 0.92700011
-0.17228892 -0.21063451 0.92000002
-0.16350995 -0.21494667 0.92000002
-0.15478852 -0.21495908 0.92178255
-0.14632381 -0.21576978 0.9259063
-0.17079769 -0.20179372 0.92000002
-0.16468406 -0.20465691 0.92066681
-0.15513295 -0.20499828 0.92484111
-0.14891483 -0.20848076 0.92700005
-0.18373933 -0.191728 0.92000002
-0.17432596 -0.19400075 0.92012507
-0.16462845 -0.19464912 0.92302281
-0.1574713 -0.19616289 0.9265455
-0.19228108 -0.18404661 0.92000002
-0.18464407 -0.18435518 0.92115366
-0.17519251 -0.18532977 0.92293477
-0.16549036 -0.18570717 0.92627019
-0.15857416 -0.1875522 0.92700005
-0.21276483 -0.17042491 0.92000002
-0.20414676 -0.1710301 0.92000002
-0.19433354 -0.17463487 0.92215014
-0.1852369 -0.17551674 0.92489988
-0.17670573 -0.17635608 0.92665219
-0.23167133 -0.1605722 0.92000002
-0.22480111 -0.16185039 0.92000008
-0.21430445 -0.1640507 0.9214046
-0.20483197 -0.16571243 0.9242571
-0.19666739 -0.16802894 0.92646682
-0.18545933 -0.16919947 0.92700005
-0.17950274 -0.16984341 0.92700005
-0.253714 -0.15184785 0.921
-0.24467646 -0.15332098 0.92282856
-0.23481038 -0.15443553 0.92247629
-0.22554788 -0.15610775 0.92402714
-0.21646239 -0.15815264 0.92580014
-0.4105745 -0.14514235 0.92350006
-0.40674752 -0.14469147 0.92575002
-0.39340621 -0.14280002 0.92650008
-0.38591734 -0.14201501 0.92178583
-0.32184255 -0.14010559 0.92200005
-0.31601062 -0.14091422 0.92075002
-0.30309871 -0.14075249 0.921
-0.29458499 -0.14184216 0.92290002
-0.28496361 -0.14333193 0.92356676
-0.27476615 -0.14436382 0.9232704
-0.26540512 -0.14554136 0.92382956
-0.25582016 -0.14775972 0.92525005
-0.24497162 -0.14864652 0.92700005
-0.39039832 -0.13845055 0.92700005
-0.38364217 -0.13797596 0.92236376
-0.37547719 -0.13813649 0.92133331
-0.36428326 -0.13710549 0.92000002
-0.35677385 -0.13596711 0.92000002
-0.34367672 -0.13551793 0.92130005
-0.33421546 -0.1362333 0.92245841
-0.32569018 -0.13750093 0.92335713
-0.31433186 -0.13779567 0.92358834
-0.30543023 -0.13741408 0.92466682
-0.29564866 -0.13864277 0.92681825
-0.28495055 -0.13925551 0.92700005
-0.13243733 0.17878133 0.9266001
-0.12484495 0.17770293 0.92405891
-0.1148487 0.17763864 0.92412508
-0.10944474 0.17814727 0.92000002
-0.14086539 0.18755218 0.92700005
-0.13484181 0.18475443 0.92341942
-0.12808959 0.18117951 0.92080003
-0.14118832 0.19552596 0.92527282
-0.13760845 0.19363175 0.92176932
-0.14267355 0.20389089 0.92566675
-0.13920252 0.20431015 0.92000002
-0.1413994 0.21090081 0.92000002
-0.13980167 0.21249853 0.92000002
-0.091070801 0.21809061 0.92000002
-0.092141241 0.23877236 0.92275
-0.087303452 0.23811665 0.92580003
-0.13500847 0.2480481 0.92000002
-0.093420848 0.24544978 0.92182171
-0.087307312 0.24344127 0.92527783
-0.13325371 0.25387785 0.92068005
-0.12731929 0.2566855 0.9208889
-0.10244447 0.25534454 0.92413342
-0.094911031 0.25464159 0.92548275
-0.089348897 0.25838736 0.92700005
0.19721155 0.25999725 0.92700005
0.30829394 0.25999725 0.92700005
0.31553847 0.25999725 0.92700005
0.32693836 0.25962746 0.92283338
0.33531663 0.25950754 0.92383337
0.34377676 0.25937128 0.92477787
0.35474628 0.25979137 0.92500007
0.36363974 0.25833625 0.92271441
0.37588868 0.25849482 0.92328578
0.38501167 0.25832203 0.92341673
0.39506188 0.25723261 0.92285717
0.40455261 0.25740656 0.92350006
0.41500691 0.25750503 0.92342865
0.42098624 0.25516757 0.92700005
0.50626808 0.25413316 0.92325008
-0.30265933 0.26965657 0.92700005
-0.14528911 0.26972997 0.92450005
-0.13378659 0.26576239 0.92675006
-0.12841365 0.26471406 0.9266001
-0.10061813 0.26965657 0.92700005
-0.081299447 0.26965657 0.92700005
-0.075624801 0.26962438 0.92322224
-0.065299749 0.26855141 0.92275
-0.057738524 0.26943907 0.92350006
-0.044133738 0.26948258 0.92420006
-0.032076236 0.26943731 0.92350006
-0.025718778 0.26865453 0.92233342
-0.013485218 0.26818538 0.92345458
-0.005729822 0.26888508 0.92435724
0.0054522655 0.26942334 0.92400008
0.014610663 0.26812476 0.92450011
0.025965976 0.26712218 0.92338473
0.034494258 0.26637691 0.92400014
0.046088655 0.26568621 0.92200005
0.05394065 0.26650366 0.92375004
0.065467127 0.26705468 0.92357886
0.075547569 0.26580977 0.92323822
0.084593251 0.26643601 0.92255014
0.094524316 0.2659429 0.92250007
0.10540403 0.26511452 0.9252001
0.11668998 0.26528016 0.92384619
0.12473271 0.26506793 0.92411125
0.13528694 0.26528966 0.92189997
0.14548206 0.26477632 0.92437506
0.15338217 0.26464015 0.92481834
0.16596219 0.26358002 0.92483342
0.17438088 0.263226 0.92421436
0.18583231 0.26414365 0.92461544
0.19555549 0.26269162 0.92374992
0.20432553 0.26277411 0.92368758
0.21524319 0.26305676 0.9233638
0.22635049 0.26405233 0.92383337
0.23445255 0.26296121 0.92411768
0.24500553 0.26236919 0.92308342
0.2549628 0.26178083 0.92383337
0.26425555 0.26211253 0.92500007
0.27476206 0.26272911 0.92387509
0.28547794 0.26278389 0.92330784
0.29541898 0.2614122 0.92307156
0.30526811 0.26164079 0.92307156
0.3145605 0.26110226 0.92263651
0.32224822 0.26105851 0.92316675
0.333051 0.26019609 0.92200005
0.34538028 0.26019609 0.92200005
0.35413358 0.26019609 0.92200011
-0.50329572 0.27921435 0.92560005
-0.49517635 0.27858511 0.92425007
-0.48463532 0.27731472 0.92291325
-0.47616106 0.27766374 0.9222858
-0.46283302 0.27759734 0.92500007
-0.45498082 0.27566335 0.92348391
-0.44537136 0.27446246 0.92292583
-0.43560055 0.27439293 0.9224211
-0.42640162 0.27498928 0.92293346
-0.41425714 0.27430359 0.9224546
-0.40445614 0.2740387 0.92333347
-0.39471421 0.27530786 0.92368758
-0.38504919 0.27632326 0.92352635
-0.3749963 0.27489331 0.92399997
-0.36558381 0.27564231 0.92481256
-0.35533786 0.27517483 0.92423534
-0.34466937 0.27461767 0.92144448
-0.33508587 0.27400383 0.92393345
-0.32497299 0.27586946 0.92278582
-0.3148196 0.27481014 0.92364711
-0.30456588 0.27326542 0.92329645
-0.29570898 0.27320614 0.92215014
-0.286962 0.27327657 0.92292321
-0.27515855 0.27215084 0.92250001
-0.26597884 0.27339008 0.92262506
-0.25478089 0.27320313 0.92266673
-0.24463266 0.27261096 0.92066669
-0.2332439 0.27558556 0.9258889
-0.22575355 0.27529949 0.92433351
-0.21489249 0.2739996 0.92320013
-0.20456237 0.27432832 0.9246667
-0.19467078 0.27190071 0.92260009
-0.18457222 0.27391359 0.9241668
-0.17503516 0.27513286 0.92466676
-0.1652073 0.27295557 0.92392313
-0.15542588 0.27213261 0.92266673
-0.14484225 0.27105924 0.92287505
-0.13402769 0.27112609 0.92333341
-0.12521954 0.2721014 0.92405891
-0.1146988 0.27272934 0.92495239
-0.10500278 0.27275851 0.92376202
-0.097055979 0.27196312 0.92157155
-0.084307842 0.27165326 0.9246667
-0.079087801 0.27081582 0.92000002
-0.052612077 0.27107334 0.92400008
-0.048863292 0.2707485 0.92250001
-0.0016064168 0.2706812 0.92500007
0.0016064168 0.2706812 0.92500007
-0.50361162 0.28031972 0.92500007
-0.4937669 0.28095403 0.92050004
-0.48552662 0.28175414 0.92000002
-0.47089285 0.2825357 0.92700005
-0.46829391 0.28054926 0.92400002
-0.12194006 -0.38035607 0.93000007
-0.11445338 -0.38113803 0.93349999
-0.10634279 -0.38154751 0.93489999
-0.13082311 -0.37228057 0.93000019
-0.12400093 -0.37433994 0.93158823
-0.1158818 -0.37535962 0.93587506
-0.10760415 -0.37616873 0.93642879
-0.13300648 -0.36450416 0.93000025
-0.12485017 -0.36488077 0.93307489
-0.11795484 -0.36606723 0.93683356
-0.14492419 -0.35575685 0.93000025
-0.1336138 -0.3554641 0.93018204
-0.12495074 -0.35487938 0.9348973
-0.11960337 -0.35392833 0.93700004
-0.14364298 -0.34411725 0.93000025
-0.13455378 -0.34513295 0.93040007
-0.12563664 -0.34511071 0.9363237
-0.11960337 -0.34904656 0.93700004
-0.14334014 -0.33610234 0.93000025
-0.13516419 -0.33547539 0.93189597
-0.12537542 -0.3352806 0.93675697
-0.11960337 -0.33358762 0.93700004
-0.14314108 -0.32443178 0.93062079
-0.1348244 -0.32490361 0.93288362
-0.12617932 -0.32526952 0.93664312
-0.143445 -0.31531382 0.9308002
-0.13487871 -0.31475884 0.93378389
-0.12657817 -0.31610513 0.93660009
-0.14275689 -0.30731764 0.93000019
-0.13462074 -0.30527914 0.93321621
-0.12625752 -0.30451816 0.93678594
-0.13459972 -0.29513538 0.93057603
-0.12500276 -0.29466113 0.93482357
-0.13288754 -0.28553641 0.93013364
-0.12485145 -0.28484508 0.9336943
-0.11871579 -0.28380838 0.93700022
-0.13223067 -0.27444726 0.9300912
-0.1248467 -0.27498066 0.93220562
-0.1164505 -0.27454859 0.93642879
-0.13221797 -0.26517007 0.93000025
-0.12455471 -0.26535586 0.93273664
-0.11666487 -0.26540795 0.93603861
-0.13082312 -0.25518581 0.93000025
-0.12455176 -0.25504538 0.93091428
-0.11649009 -0.25480554 0.93574089
-0.13172568 -0.24468765 0.93000025
-0.12453053 -0.24502027 0.93127489
-0.11518242 -0.24493389 0.93569231
-0.13319682 -0.23470344 0.93000025
-0.12466829 -0.23474623 0.93279481
-0.11565859 -0.2346326 0.93648738
-0.10983983 -0.23757948 0.93700004
-0.13368298 -0.22381325 0.93051636
-0.12517159 -0.22461645 0.93487513
-0.11732521 -0.22553778 0.93700022
-0.14268787 -0.21362807 0.93000025
-0.13514107 -0.21479939 0.93197626
-0.12527585 -0.21475907 0.9368335
-0.11878975 -0.21479785 0.93700022
-0.15101185 -0.2035026 0.93000007
-0.14524363 -0.20500237 0.93000019
-0.13526639 -0.2051577 0.93283719
-0.12527594 -0.20499773 0.9368335
-0.11919656 -0.20706841 0.93700004
-0.15296699 -0.19470455 0.93000019
-0.14493349 -0.19473659 0.93108886
-0.13530338 -0.19553471 0.93495244
-0.12808836 -0.19608445 0.93700027
-0.1712006 -0.18008366 0.93000007
-0.16372137 -0.18122493 0.93033355
-0.15486133 -0.18486874 0.93154997
-0.14545754 -0.18546462 0.93509752
-0.13652682 -0.18859905 0.93700022
-0.19461955 -0.17039305 0.93000007
-0.17328806 -0.17328839 0.93008721
-0.16458502 -0.17464861 0.93435568
-0.15532108 -0.17621626 0.93681264
-0.14780915 -0.17872703 0.93700016
-0.20527922 -0.16134849 0.93000025
-0.1944591 -0.16395749 0.93074203
-0.18500262 -0.16431409 0.93356097
-0.17522208 -0.16507588 0.93422502
-0.16660278 -0.16746394 0.93594134
-0.23015176 -0.15101185 0.93000007
-0.22309771 -0.15241191 0.93033355
-0.21409757 -0.15358153 0.93153131
-0.20504627 -0.15467241 0.93286377
-0.19561666 -0.15579531 0.9343847
-0.18713452 -0.15735573 0.93700022
-0.41126308 -0.14301407 0.93050009
-0.40443632 -0.14238481 0.93084228
-0.39790481 -0.14186856 0.93057162
-0.26289368 -0.14104916 0.93209106
-0.25470373 -0.14308648 0.93282765
-0.24477294 -0.14416561 0.9331795
-0.23513325 -0.14567846 0.93407154
-0.22496054 -0.14722238 0.93389654
-0.2153468 -0.1483867 0.93586689
-0.20584798 -0.14889398 0.9370001
-0.39456895 -0.1387371 0.93000013
-0.34266138 -0.13418019 0.93512511
-0.33508518 -0.13239641 0.93466687
-0.32420471 -0.13400812 0.9336502
-0.31499505 -0.13303466 0.93375015
-0.30506209 -0.13272271 0.9342609
-0.29521924 -0.13461763 0.93275005
-0.28494591 -0.13586041 0.93309379
-0.27489337 -0.13784875 0.9332
-0.26619503 -0.13866983 0.93490922
-0.25547934 -0.13913046 0.93700016
-0.24761423 -0.13913044 0.93700004
-0.31656966 -0.1279524 0.93685734
-0.30836517 -0.1293669 0.93700004
-0.28883806 -0.12773965 0.93700004
-0.14119998 0.17914152 0.93633336
-0.13473535 0.17675181 0.93442112
-0.12510373 0.17522112 0.933231
-0.11591656 0.17571943 0.93257165
-0.14346175 0.18532932 0.9340626
-0.13841407 0.18137573 0.93000013
-0.15052125 0.19567762 0.93700004
-0.14630181 0.19484074 0.93318188
-0.14773875 0.20222597 0.93380004
-0.089638054 0.23822726 0.93000007
-0.092868254 0.25922355 0.93000007
0.21398425 0.25954744 0.93700004
0.27826089 0.25954744 0.93700004
0.28449875 0.25900501 0.93700016
0.2962307 0.25905308 0.93522233
0.30567586 0.25898758 0.93453866
0.3152186 0.25935051 0.93363655
0.32578343 0.25956374 0.93511128
0.33496544 0.25935081 0.93363655
0.34599262 0.25888866 0.93316686
0.35459396 0.25760439 0.93327999
0.36375567 0.25818011 0.93523097
0.37424117 0.25895676 0.93370008
0.38456172 0.25853759 0.93433344
0.39561462 0.25839049 0.93400013
0.40460843 0.25719249 0.93280029
0.41442195 0.2573905 0.93377793
0.42233419 0.25637659 0.93533343
0.50875652 0.25518581 0.93000007
0.51284611 0.25418919 0.93525004
-0.31354541 0.26892525 0.93425012
-0.30534899 0.26794726 0.93194455
-0.29958802 0.26873615 0.93500006
-0.14162517 0.26949248 0.93200004
-0.13782188 0.26783741 0.93000019
-0.12627091 0.26761407 0.93260026
-0.11168157 0.26949248 0.93200004
-0.10433462 0.26654139 0.93365395
-0.095303863 0.26541269 0.9338823
-0.084978081 0.26815003 0.93457156
-0.074687451 0.26917645 0.93325013
-0.065694191 0.26925716 0.93400013
-0.053480305 0.26934728 0.93600005
-0.045875292 0.26933691 0.93628585
-0.034532532 0.26935634 0.93575013
-0.024088919 0.26930723 0.93511128
-0.015415739 0.26899621 0.9345001
