# .PCD v0.7 - Point Cloud Data file format
VERSION 0.7
FIELDS x y z
SIZE 4 4 4
TYPE F F F
COUNT 1 1 1
WIDTH 1499
HEIGHT 1
VIEWPOINT 0 0 0 1 0 0 0
POINTS 1499
DATA ascii
0.43388012 0.20197868 1.723
0.58199781 0.20197868 1.723
0.097248994 0.21993235 1.723
0.10398161 0.21918428 1.723
0.11520266 0.21993236 1.723
0.12118721 0.21993235 1.723
0.19449799 0.21993235 1.723
0.20796323 0.21993235 1.723
0.22890916 0.21993235 1.723
0.23489372 0.21993236 1.723
0.24686283 0.21993235 1.723
0.28426629 0.21993235 1.723
0.29473925 0.21694006 1.723
0.30471355 0.21295038 1.723
0.31269291 0.21694006 1.723
0.3276543 0.21694006 1.723
0.3346363 0.21993236 1.723
0.34411183 0.21993235 1.723
0.35458481 0.21993236 1.723
0.3665539 0.21843621 1.723
0.37553072 0.21694008 1.723
0.38493505 0.21480274 1.7229999
0.39408287 0.21364856 1.7229998
0.40246123 0.21095552 1.723
0.085279889 0.22591689 1.723
0.13914087 0.22591689 1.723
0.14811771 0.22292462 1.723
0.15410225 0.22292463 1.723
0.18701729 0.22292462 1.723
0.20497096 0.22292462 1.723
0.21245165 0.22292462 1.723
0.22442076 0.22292462 1.723
-0.94107103 0.24387056 1.723
-0.93508649 0.24486798 1.723
-0.92411488 0.24786025 1.723
-0.91294366 0.24746127 1.7229999
-0.88322037 0.2458654 1.723
-0.87823325 0.24536669 1.723
-0.83334911 0.24087828 1.723
-0.82437223 0.24087828 1.723
-0.81539541 0.24087828 1.723
-0.8064186 0.24187571 1.723
-0.79295337 0.24387056 1.723
-0.78547263 0.24686283 1.723
-0.77549839 0.24786025 1.723
0.88282061 0.18498626 1.7320001
0.902372 0.18498626 1.7320001
0.91741157 0.18799417 1.7320001
0.92643529 0.18799417 1.7320001
0.93997085 0.18799417 1.7320001
0.94448268 0.18649021 1.7320001
0.95200247 0.18799417 1.7320001
0.51284808 0.19701789 1.7320001
0.58804578 0.19701789 1.7320001
0.59255767 0.19701789 1.7320001
0.60910112 0.19400999 1.7320001
0.61812484 0.19400999 1.7320001
0.62414068 0.19300735 1.7320001
0.64519602 0.19701789 1.7320001
0.66023552 0.19400999 1.7320001
0.67527509 0.19400999 1.7320001
0.68429875 0.19400999 1.7320001
0.69482642 0.19400999 1.7320001
0.70535415 0.19400999 1.7320001
0.71437788 0.19400999 1.7320001
0.72039366 0.19100209 1.7320001
0.93320304 0.19175407 1.7320001
0.38651603 0.20904952 1.7320001
0.39591575 0.20528963 1.7320002
0.40381148 0.20378567 1.7320001
0.41509113 0.2030337 1.7320001
0.42561883 0.2030337 1.7320001
0.44968206 0.2030337 1.7320001
0.46321765 0.2000258 1.7320001
0.52487969 0.2000258 1.7320001
0.54593509 0.2000258 1.7320001
0.56398255 0.2000258 1.7320001
0.57601416 0.20152974 1.7320001
0.58353388 0.20152974 1.7320001
0.10828464 0.21807323 1.7320001
0.1158044 0.21807323 1.7320001
0.19551393 0.21807323 1.7320001
0.23311278 0.21807323 1.7320001
0.29327092 0.21807323 1.7320001
0.30229464 0.21356139 1.7320001
0.31432626 0.21606797 1.7320001
0.32334995 0.21807323 1.7320001
0.34440535 0.21807323 1.7320001
0.35493299 0.21807323 1.7320001
0.36546069 0.21807323 1.7320001
0.37598836 0.21506533 1.7320001
0.38350809 0.21306007 1.7320001
0.082717434 0.22709696 1.7320001
0.14588347 0.22408906 1.7320001
0.1549072 0.22108115 1.7320001
0.16543487 0.22108115 1.7320001
0.17596255 0.22108117 1.7320001
0.18197836 0.22108115 1.7320001
0.19100209 0.22108115 1.7320001
0.20303372 0.22108117 1.7320001
0.21506533 0.22258511 1.7320001
0.22408906 0.22208379 1.7320001
0.2511602 0.22108115 1.7320001
0.26770371 0.22108115 1.7320001
0.27221557 0.22108115 1.7320001
0.33838952 0.22108115 1.7320001
-0.8316862 0.23912859 1.7320001
-0.82567042 0.23912859 1.7320001
-0.8166467 0.23912859 1.7320001
-0.94598669 0.24213649 1.7320001
-0.93395507 0.24614704 1.7320001
-0.92793924 0.2481523 1.7320001
-0.91891551 0.24664834 1.7320001
-0.90537995 0.24364044 1.7320001
-0.88582855 0.2451444 1.7320001
-0.80461502 0.24213651 1.7320001
-0.79258341 0.2451444 1.7320001
-0.78055179 0.2451444 1.7320001
-0.77453601 0.2481523 1.7320001
-0.7775439 0.2511602 1.7320001
-0.68634284 0.18594751 1.7410001
0.92671406 0.18695536 1.7410001
0.93654048 0.18745929 1.7410001
0.94409931 0.18670338 1.7410001
0.95543766 0.18594751 1.7410001
0.47015998 0.19804166 1.7410001
0.52458364 0.19804166 1.7410001
0.53516603 0.19804166 1.7410001
0.54423666 0.19804166 1.7410001
0.55481905 0.19804166 1.7410001
0.56540138 0.19804166 1.7410001
0.57447195 0.19804166 1.7410001
0.5880779 0.19804166 1.7410001
0.59714854 0.19501813 1.7410001
0.60470736 0.19501813 1.7410001
0.6168015 0.19501813 1.7410001
0.62436032 0.19199458 1.7410001
0.63645446 0.19501813 1.7410001
0.64250153 0.19501813 1.7410001
0.65610749 0.19501813 1.7410001
0.69541341 0.19199458 1.7410001
0.7059958 0.19199459 1.7410001
0.38751662 0.20610443 1.7410001
0.39396685 0.20348401 1.7410001
0.40666568 0.20106521 1.7410001
0.41422454 0.2010652 1.7410001
0.4489952 0.20408873 1.7410001
0.45504227 0.2010652 1.7410001
0.57900727 0.2010652 1.7410001
0.58354259 0.2010652 1.7410001
0.15420038 0.21920641 1.7410001
0.16629452 0.21920641 1.7410001
0.1723416 0.21920641 1.7410001
0.19199458 0.21920641 1.7410001
0.20408873 0.21920642 1.7410001
0.2101358 0.21920641 1.7410001
0.2343241 0.21920641 1.7410001
0.24490649 0.21920641 1.7410001
0.25246531 0.21920641 1.7410001
0.29177129 0.21920641 1.7410001
0.3008419 0.21618287 1.7410001
0.31898314 0.21618287 1.7410001
0.32200667 0.21618287 1.7410001
0.3356126 0.21920641 1.7410001
0.34468317 0.21769464 1.7410001
0.37643033 0.21467111 1.7410001
0.3824774 0.21164757 1.7410001
0.087682568 0.22525349 1.7410001
0.12648463 0.22424565 1.7410001
0.13454738 0.22525351 1.7410001
0.14462584 0.22424565 1.7410001
0.15571214 0.22222996 1.7410001
0.18745928 0.22222996 1.7410001
0.21769464 0.22222996 1.7410001
0.22222996 0.22222996 1.7410001
0.25700063 0.22222996 1.7410001
0.2630477 0.22222996 1.7410001
0.2781654 0.22222996 1.7410001
0.28270069 0.22222996 1.7410001
-0.84356678 0.23734763 1.7410001
-0.83600795 0.23734765 1.7410001
-0.82844907 0.23734763 1.7410001
-0.81635493 0.23734763 1.7410001
-0.78309602 0.23734763 1.7410001
-0.94485521 0.2433947 1.7410001
-0.9357847 0.24541041 1.7410001
-0.92721796 0.24339472 1.7410001
-0.91461986 0.2433947 1.7410001
-0.84507859 0.24037117 1.7410001
-0.83903146 0.24037117 1.7410001
-0.82391375 0.24037117 1.7410001
-0.81635493 0.24037117 1.7410001
-0.79216659 0.24641825 1.7410001
-0.78359997 0.24339472 1.7410001
-0.77674657 0.24520884 1.7410001
-0.76949012 0.24641825 1.7410001
0.93935001 0.1787056 1.7590001
0.94822001 0.17779125 1.7500001
0.95767879 0.1787056 1.7590001
-0.68431902 0.18589568 1.7500002
0.56564653 0.18583345 1.7590002
0.62776071 0.18787 1.7590001
0.63081551 0.18787 1.7590001
0.69665313 0.18925528 1.7530001
0.7041623 0.18892008 1.7525716
0.71268463 0.18994792 1.7500001
0.91787446 0.18519783 1.7530001
0.92542624 0.18538916 1.7500001
0.93491042 0.18484893 1.7545002
0.94527382 0.18316653 1.753
0.95446116 0.18281499 1.7545002
0.96378839 0.18379693 1.7590002
-0.70107591 0.19397959 1.7590002
-0.6949662 0.19397958 1.7589999
-0.68667471 0.19441599 1.7590001
0.39813083 0.19906542 1.7500001
0.40331814 0.19723585 1.7554001
0.52273667 0.19906542 1.7500001
0.53321791 0.19754337 1.7545002
0.54541361 0.1980499 1.7545002
0.55356741 0.19737536 1.7530001
0.56505054 0.19477893 1.7540001
0.57435215 0.19500293 1.7545002
0.5819388 0.19703439 1.7590001
0.59568107 0.19576663 1.7545002
0.6039111 0.19297163 1.7554001
0.61486441 0.19277313 1.7536001
0.62463129 0.19195592 1.7545002
0.63278407 0.19161223 1.7560003
0.65413111 0.19669835 1.756
0.67663747 0.19397959 1.7590001
0.68462706 0.19364876 1.7560003
0.69276273 0.1926305 1.7560003
0.71796381 0.19229965 1.7530001
0.72441792 0.19195594 1.7545002
0.73162383 0.19092479 1.7590001
-0.70107591 0.203144 1.7590002
-0.69466996 0.20458476 1.7582501
-0.68580186 0.20314398 1.7589999
0.38586465 0.20589513 1.7564287
0.39306065 0.20109689 1.7545002
0.41392499 0.20008919 1.7590002
0.42298147 0.20160073 1.7522501
0.43308124 0.2021046 1.7500002
0.44141814 0.20314398 1.7590001
0.45435542 0.20210458 1.7500001
0.46427268 0.20143279 1.7530001
0.47502089 0.20008919 1.7590001
0.48265788 0.20008919 1.7590001
0.49334967 0.20008919 1.7590002
0.50862366 0.20008919 1.7590001
0.51626062 0.20008919 1.7590001
0.52121711 0.20210458 1.7500001
0.58652103 0.20008919 1.7590001
0.5911032 0.20008919 1.7590001
-0.70413065 0.21230838 1.7590001
0.10844529 0.21841797 1.7590001
0.11455488 0.21841797 1.7590001
0.12187536 0.21785921 1.7545002
0.13746585 0.21841797 1.7590001
0.14510284 0.21841797 1.7590002
0.15386868 0.21709549 1.7545002
0.1645292 0.21785919 1.7545
0.17412342 0.21841797 1.7590001
0.1848152 0.21841797 1.7590001
0.19703439 0.21841797 1.7590001
0.20440373 0.21813861 1.7567501
0.2143279 0.21737489 1.7567501
0.22452757 0.21841797 1.7590002
0.23431087 0.21757981 1.7522501
0.24630031 0.21582268 1.7545002
0.25383207 0.21548028 1.7564287
0.26347619 0.21765429 1.7590001
0.28562349 0.21841797 1.7590002
0.29570642 0.21713649 1.7536001
0.30242488 0.21536317 1.7590001
0.31455377 0.21426126 1.7500002
0.32601923 0.21633181 1.7545002
0.33430833 0.21730043 1.7500001
0.34539577 0.21736 1.7554001
0.35741121 0.21841797 1.7590001
0.36504823 0.21841797 1.7590002
0.37525353 0.21661511 1.7567501
0.38086879 0.21176523 1.7545002
0.082264602 0.22700015 1.7545002
0.11700792 0.2203396 1.7500001
0.12612543 0.22135267 1.7500002
0.13524292 0.22185919 1.7500002
0.14436042 0.22185919 1.7500002
0.1549975 0.2203396 1.7500001
0.16259542 0.2203396 1.7500001
0.17779125 0.2203396 1.7500001
0.18538916 0.2203396 1.7500001
0.21578085 0.2203396 1.7500001
0.22518556 0.22062288 1.7522501
0.25832915 0.2203396 1.7500001
0.26592711 0.2203396 1.7500002
0.27504462 0.2203396 1.7500002
0.28464922 0.22071731 1.7530001
0.29024044 0.2203396 1.7500001
0.3571021 0.2203396 1.7500001
0.36014125 0.2203396 1.7500001
-0.82665336 0.23857459 1.7500001
-0.79170293 0.23857459 1.7500001
-0.95277876 0.24161376 1.7500001
-0.94062209 0.24465293 1.7500001
-0.93758297 0.24465293 1.7500001
-0.92102122 0.24285634 1.7590001
-0.91409063 0.24223505 1.7545002
-0.90719128 0.24161376 1.7500001
-0.8144967 0.24161376 1.7500001
-0.80439925 0.24375466 1.7545002
-0.79495174 0.24368577 1.7518002
-0.7780267 0.24465293 1.7500001
0.95336753 0.17961997 1.7680001
-0.68624038 0.18883124 1.7680001
0.56649375 0.18883124 1.7680001
0.57263458 0.18883124 1.7680001
0.71387422 0.18883124 1.7680001
0.72001505 0.18883124 1.7680001
0.91652238 0.18576083 1.7680001
0.9288041 0.18576083 1.7680001
0.93340969 0.18576083 1.7680001
0.94108582 0.1826904 1.7680001
-0.70773339 0.1949721 1.7680001
-0.6852169 0.1949721 1.7680001
0.39608505 0.19804253 1.7680001
0.40376112 0.19701907 1.7680001
0.41604286 0.19804254 1.7680001
0.50201476 0.19804253 1.7680001
0.5296486 0.19804253 1.7680001
0.54653597 0.19804253 1.7680001
0.55421203 0.19804253 1.7680001
0.5618881 0.1949721 1.7680001
0.58491629 0.19599557 1.7680001
0.5941276 0.19701907 1.7680001
0.61408532 0.19190167 1.7680001
0.62329662 0.19190167 1.7680001
0.64786005 0.1965073 1.7680001
0.65553617 0.1949721 1.7680001
0.66474742 0.1949721 1.7680001
0.67242348 0.1949721 1.7680001
0.72922635 0.19190167 1.7680001
-0.71080381 0.20571859 1.7680001
-0.70773339 0.20418338 1.7680001
-0.69238126 0.2072538 1.7680001
-0.6822927 0.20462202 1.768
-0.60026842 0.20111296 1.7680001
0.25382197 0.20623033 1.768
0.38533854 0.20418338 1.7680001
0.3914794 0.20111296 1.7680001
0.42678931 0.20111296 1.7680001
0.43139496 0.20111296 1.7680001
0.4574936 0.20264816 1.7680001
0.46209922 0.20111296 1.7680001
0.48973307 0.20111296 1.7680001
-0.71080381 0.21032423 1.7680001
-0.70466292 0.21185943 1.7680001
-0.69468409 0.21262704 1.7680001
-0.68501228 0.21155241 1.768
0.11207058 0.21953551 1.7680001
0.14738047 0.21646509 1.7680001
0.15505655 0.21646509 1.7680001
0.16426784 0.21646509 1.7680001
0.17961997 0.21953551 1.7680001
0.19420449 0.21800029 1.7680001
0.20418338 0.21646509 1.7680001
0.21544161 0.21646509 1.7680001
0.23488764 0.21646509 1.7680001
0.24486655 0.21416226 1.7680001
0.25576657 0.21216647 1.768
0.26559192 0.21544163 1.7680001
0.27480322 0.21953551 1.7680001
0.28401446 0.21748857 1.7680001
0.29322577 0.21646509 1.7680001
0.3346765 0.21646509 1.7680001
0.34542298 0.21646509 1.7680001
0.35616952 0.21646509 1.7680001
0.36589253 0.21646509 1.7680001
0.37674138 0.21400873 1.768
0.38226813 0.21032423 1.7680001
0.084436737 0.22567637 1.7680001
0.13049313 0.22260594 1.7680001
-0.93340969 0.24409893 1.7680001
-0.92573369 0.24205199 1.7680001
-0.91805756 0.2410285 1.7680001
-0.8244096 0.2410285 1.7680001
-0.71287912 0.18979248 1.7770001
0.56629139 0.18979248 1.7770001
0.57863563 0.18979248 1.7770001
0.58172172 0.18979248 1.7770001
0.72573769 0.18979248 1.7770002
0.91347277 0.18670644 1.7770001
0.92736006 0.18362038 1.7770001
0.93507516 0.18362038 1.7770001
0.94279033 0.18362038 1.7770001
-0.71365064 0.1959646 1.7770001
-0.68433309 0.19673611 1.7770001
-0.67276037 0.19905066 1.7770001
-0.66710258 0.19802198 1.7770002
-0.6573301 0.19905066 1.7770001
-0.63727075 0.19905066 1.7770001
-0.60332412 0.19905066 1.7770002
0.39192921 0.19905066 1.7770001
0.4243328 0.19905066 1.7770001
0.46290851 0.19905066 1.7770001
0.47679576 0.19905066 1.7770002
0.48605394 0.19905066 1.7770002
0.49685514 0.19905066 1.7770001
0.50457025 0.19905066 1.7770001
0.51074237 0.19905066 1.7770001
0.52308661 0.19905066 1.7770001
0.56474835 0.19365005 1.7770001
0.57709265 0.19287854 1.7770001
0.58172172 0.19287854 1.7770001
0.5940659 0.19596462 1.7770002
0.60949624 0.19287854 1.7770001
0.6465289 0.1959646 1.7770001
0.65270102 0.1959646 1.7770001
-0.72368038 0.20654538 1.7770002
-0.71673667 0.20445125 1.7770001
-0.68047559 0.20522277 1.7770002
-0.67430341 0.20522279 1.7770002
-0.66592693 0.20478193 1.7770002
-0.65534621 0.20434104 1.7770002
-0.64858627 0.20625147 1.7770002
-0.61412525 0.20213671 1.7770001
-0.6048671 0.20213671 1.7770001
0.24842757 0.20830883 1.7770001
0.28700328 0.2067658 1.7770001
0.37804195 0.20830883 1.7770001
0.3842141 0.20522277 1.7770002
0.44747823 0.20367974 1.7770001
0.45519337 0.2041941 1.7770002
0.46753761 0.20213671 1.7770001
0.47062364 0.20213671 1.7770001
-0.74219668 0.21602398 1.7770001
-0.7360245 0.21448095 1.7770002
-0.72638059 0.21332368 1.7770002
-0.7175082 0.21139489 1.7770001
-0.68047553 0.21139489 1.7770001
-0.67430341 0.21139489 1.7770002
-0.66658825 0.21139489 1.7770001
-0.64961493 0.21139489 1.7770001
0.10955501 0.217567 1.7770001
0.11264107 0.217567 1.7770001
0.14350164 0.217567 1.7770001
0.17436221 0.21756701 1.7770002
0.18670645 0.21756701 1.7770002
0.19596462 0.21550964 1.7770002
0.20522277 0.21448097 1.7770002
0.21293792 0.21448095 1.7770001
0.22682518 0.21756701 1.7770002
0.23608334 0.217567 1.7770001
0.24534151 0.21448095 1.7770001
0.28607747 0.21386373 1.7770001
0.29394689 0.21370944 1.7770001
0.30474812 0.21370944 1.7770001
0.32249293 0.21448095 1.7770001
0.33483717 0.21448095 1.7770001
0.3425523 0.21448095 1.7770001
0.36724073 0.21602398 1.7770001
0.37495589 0.21293792 1.7770001
-0.76225603 0.22682518 1.7770001
-0.75608391 0.22682518 1.7770001
0.084095046 0.22528216 1.7770001
0.094124734 0.2247678 1.7770002
0.10338291 0.22271043 1.7770002
0.11881319 0.22065306 1.7770001
-0.9314748 0.23814073 1.7770002
-0.92489117 0.23793498 1.7770001
-0.76379907 0.23454031 1.7770001
-0.95204848 0.24225545 1.7770001
-0.94896245 0.24225545 1.7770001
-0.93353218 0.24225545 1.7770001
-0.82243413 0.24534151 1.7770001
-0.81471896 0.24302697 1.7770001
-0.80700386 0.24225545 1.7770001
0.72114217 0.18765205 1.7860001
0.73354894 0.18765205 1.7860001
0.91654843 0.18455036 1.7860001
0.92585349 0.18455037 1.7860001
0.93826026 0.18455036 1.7860001
0.94291276 0.18299952 1.7860001
0.95583647 0.18144867 1.7860001
0.9754805 0.18144867 1.7860001
0.98168385 0.18455036 1.7860001
-0.72114217 0.19695711 1.7860001
-0.68392199 0.19695711 1.7860001
-0.67616773 0.19695711 1.7860001
-0.66531181 0.19695711 1.7860001
-0.65600675 0.19695711 1.7860001
-0.6461848 0.19488934 1.7860001
-0.60637975 0.19695711 1.7860001
0.38926169 0.19695711 1.7860001
0.39546508 0.19695711 1.7860001
0.40166843 0.19695711 1.7860001
0.41097349 0.19695711 1.7860001
0.46215135 0.19695711 1.7860001
0.50402409 0.19695711 1.7860001
0.53504097 0.19695711 1.7860001
0.54589689 0.19695711 1.7860001
0.5567528 0.19695711 1.7860001
0.58776963 0.19385542 1.7860001
0.6032781 0.19385542 1.7860001
0.64670169 0.19385542 1.7860001
0.65678215 0.19307999 1.7860001
0.66453636 0.19307999 1.7860001
0.67461693 0.19385543 1.7860001
0.68237108 0.19540626 1.7860001
0.70563376 0.19075374 1.7860001
0.73820144 0.19075374 1.7860001
0.74440479 0.19075374 1.7860001
-0.74518025 0.20858844 1.7860001
-0.7357201 0.20564185 1.7860001
-0.72424388 0.20109271 1.7860001
-0.68082023 0.2000588 1.7860001
-0.66453636 0.20626219 1.7860001
-0.6552313 0.20316049 1.7860001
-0.64550871 0.20459203 1.7859999
-0.63584578 0.20316048 1.7860001
-0.61361706 0.20212659 1.7860001
-0.60482895 0.20316049 1.7860001
-0.59397304 0.20471132 1.7860001
-0.58776963 0.20626217 1.7860001
0.2822535 0.20781302 1.7860001
0.29310939 0.20781302 1.7860001
0.30551615 0.20936386 1.7860001
0.36754987 0.20936386 1.7860001
0.37547642 0.20660679 1.7860001
0.38512611 0.20212659 1.7860001
0.42958361 0.2000588 1.7860001
0.43888867 0.20316048 1.7860001
0.44509205 0.20212659 1.7860001
0.45517254 0.20238507 1.7860001
0.46525303 0.2000588 1.7860001
0.47300723 0.2000588 1.7860001
0.49471903 0.2000588 1.7860001
0.51643085 0.2000588 1.7860001
0.52573591 0.2000588 1.7860001
0.53193927 0.2000588 1.7860001
-0.75215906 0.21556723 1.7860001
-0.7482819 0.2147918 1.7860001
-0.66221011 0.21246554 1.7860001
0.1070082 0.21866892 1.7860001
0.11476241 0.21711808 1.7860001
0.12406747 0.21866892 1.7860001
0.13802506 0.21866892 1.7860001
0.14112675 0.21866892 1.7860001
0.15663518 0.21556723 1.7860001
0.16594024 0.21556723 1.7860001
0.17524531 0.21556723 1.7860001
0.18455036 0.21711808 1.7860001
0.19385543 0.21453333 1.7860001
0.20471133 0.21246554 1.7860001
0.2217706 0.21556723 1.7860001
0.23727904 0.21556723 1.7860001
0.24348241 0.21556723 1.7860001
0.26829591 0.21556723 1.7860001
0.27605012 0.21866892 1.7860001
0.2822535 0.21556723 1.7860001
0.29621109 0.21246554 1.7860001
0.3039653 0.21246554 1.7860001
0.32412624 0.21556723 1.7860001
0.3334313 0.21556723 1.7860001
0.34893975 0.21556723 1.7860001
0.35359228 0.21556723 1.7860001
0.36522362 0.2147918 1.7860001
0.3722024 0.21246554 1.7860001
-0.77154458 0.22564772 1.7860001
-0.76518613 0.22363162 1.7860001
-0.75603616 0.22254603 1.7860001
-0.7475065 0.2217706 1.7860001
0.079093009 0.22487229 1.7860001
0.085296385 0.22280449 1.7860001
0.094601452 0.22332144 1.7860001
0.10235566 0.2217706 1.7860001
0.12872 0.2217706 1.7860001
0.13337253 0.2217706 1.7860001
0.18765205 0.2217706 1.7860001
-0.93826026 0.23727904 1.7860001
-0.78007424 0.23727904 1.7860001
-0.77387089 0.23417735 1.7860001
-0.76456583 0.23107567 1.7860001
-0.95066696 0.24348241 1.7860001
-0.94446361 0.24348241 1.7860001
-0.82970119 0.24348241 1.7860001
-0.78162503 0.24193157 1.7860001
-0.77542168 0.24038072 1.7860001
0.71542418 0.18859766 1.7950001
0.72789347 0.18859766 1.7950001
0.73256946 0.18859766 1.7950001
0.7403627 0.18859766 1.7950001
0.9242844 0.18548034 1.7950001
0.93519503 0.18236303 1.7950001
0.94610566 0.18236303 1.7950001
0.95234025 0.18236303 1.7950001
0.98351341 0.18548034 1.7950001
-0.74348003 0.19794962 1.7950001
-0.72633481 0.19639096 1.7950001
-0.69048566 0.1948323 1.7950001
-0.68425101 0.1948323 1.7950001
-0.67334044 0.1948323 1.7950001
-0.66398847 0.1948323 1.7950001
-0.65723431 0.19379318 1.7950001
-0.64684319 0.19545577 1.7950001
-0.63749129 0.19794962 1.7950001
-0.61567008 0.19794962 1.7950001
-0.60320079 0.19794962 1.7950001
-0.59280974 0.1969105 1.7950001
-0.58410722 0.19522198 1.7950001
-0.57826227 0.19794962 1.7950001
0.36940202 0.19794962 1.7950001
0.376416 0.19717029 1.7950001
0.3856121 0.1967027 1.7950001
0.39356124 0.19405296 1.7950001
0.40057519 0.1948323 1.7950001
0.4192791 0.19794962 1.7950001
0.45824558 0.19794962 1.7950001
0.46603885 0.19639096 1.7950001
0.47539079 0.19794962 1.7950001
0.48162544 0.19794962 1.7950001
0.49253604 0.19794962 1.7950001
0.50448579 0.19794962 1.7950001
0.51435727 0.19794962 1.7950001
0.5268265 0.19794962 1.7950001
0.53306115 0.19794962 1.7950001
0.54241312 0.19794962 1.7950001
0.56579298 0.19379321 1.7950001
0.59488797 0.19379318 1.7950001
0.60423994 0.1948323 1.7950001
0.61255276 0.1948323 1.7950001
0.62502199 0.19171499 1.7950001
0.65619516 0.19275409 1.7950001
0.66866446 0.19171499 1.7950001
0.6748991 0.19171499 1.7950001
0.68425101 0.19275409 1.7950001
0.69827896 0.1948323 1.7950001
0.70295495 0.1948323 1.7950001
-0.76374263 0.20730156 1.7950001
-0.75532585 0.20605464 1.7950001
-0.74597389 0.20356078 1.7950001
-0.73412818 0.20106694 1.7950001
-0.64060861 0.20106693 1.7950001
-0.63437396 0.20106693 1.7950001
-0.62346333 0.2057429 1.7950001
-0.61878735 0.20730156 1.7950001
-0.60008347 0.20106693 1.7950001
-0.59384882 0.2026256 1.7950001
-0.58494228 0.20329361 1.7950002
-0.57826227 0.20262559 1.7950001
0.27899984 0.20730156 1.7950001
0.36862269 0.20496356 1.7950001
0.3750132 0.20231386 1.7950001
0.38187131 0.20106693 1.7950001
0.43486568 0.20106693 1.7950001
0.44577628 0.20106693 1.7950001
0.45512825 0.20106693 1.7950001
-0.77309453 0.21821217 1.7950001
-0.76501799 0.21551995 1.7950001
-0.75844318 0.21415968 1.7950001
-0.65931249 0.2135362 1.7950001
0.085726202 0.21977083 1.7950001
0.095078163 0.21977083 1.7950001
0.10532077 0.21576287 1.7950002
0.11689938 0.21977083 1.7950001
0.12936865 0.21977083 1.7950001
0.13404462 0.21977083 1.7950001
0.14495523 0.21665351 1.7950001
0.15118986 0.21665351 1.7950001
0.16677645 0.21665351 1.7950001
0.17612839 0.2135362 1.7950001
0.18392169 0.21665351 1.7950001
0.1948323 0.2135362 1.7950001
0.2057429 0.2135362 1.7950001
0.21665353 0.21457532 1.7950001
0.22756413 0.21665351 1.7950001
0.23379876 0.21665351 1.7950001
0.24470937 0.21509486 1.7950001
0.26653057 0.21197754 1.7950001
0.27692163 0.21457529 1.7950001
0.28211716 0.2135362 1.7950001
0.29770374 0.21041888 1.7950001
0.30082107 0.2135362 1.7950001
0.33511156 0.2135362 1.7950001
0.34446353 0.21197757 1.7950001
0.3522568 0.2135362 1.7950001
0.36316741 0.21301667 1.7950001
-0.78244656 0.22600546 1.7950001
-0.77777052 0.2244468 1.7950001
-0.76530129 0.22288814 1.7950001
0.077413373 0.22392726 1.7950001
0.088843524 0.22288814 1.7950001
0.093519509 0.22288814 1.7950001
-0.79023981 0.23847473 1.7950001
-0.78587556 0.23473394 1.7950001
-0.94610566 0.24159205 1.7950001
-0.84323418 0.24159205 1.7950001
-0.83388221 0.24263117 1.7950001
-0.8245303 0.24263117 1.7950001
-0.816737 0.24159205 1.7950001
-0.80270904 0.24159205 1.7950001
-0.79424781 0.24292806 1.7950002
-0.5874275 0.18954328 1.8040001
0.66888416 0.18954328 1.8040001
0.72371072 0.18954328 1.8040001
0.74407494 0.18745467 1.8040003
0.93518466 0.18223308 1.8040003
0.94614995 0.18327738 1.8040001
0.96338111 0.18014444 1.8040001
0.97434646 0.18014444 1.8040001
0.99157763 0.18327738 1.8040001
-0.76522219 0.19815889 1.8040001
-0.75608444 0.19789782 1.8040001
-0.74407494 0.19789782 1.8040003
-0.73467606 0.19789782 1.8040003
-0.72841012 0.19267623 1.8040001
-0.69081473 0.19267623 1.8040001
-0.68454885 0.19580917 1.8040001
-0.6720171 0.19580917 1.8040001
-0.66261822 0.19267623 1.8040001
-0.65008646 0.19267623 1.8040001
-0.64225411 0.19580917 1.8040001
-0.63755465 0.19894212 1.8040001
-0.62658936 0.19894212 1.8040001
-0.61405754 0.19580917 1.8040001
-0.60622519 0.19580917 1.8040003
-0.59578204 0.19476488 1.8040001
-0.58116162 0.1942427 1.8040001
-0.57646221 0.19737566 1.8040001
0.36812124 0.19894212 1.8040001
0.37517038 0.19502594 1.8040001
0.38378596 0.19372055 1.8040003
0.39005187 0.19267623 1.8040001
0.41824839 0.19894212 1.8040001
0.42608076 0.19894212 1.8040001
0.43078017 0.19894212 1.8040001
0.44957787 0.19894212 1.8040001
0.45584378 0.19789782 1.8040003
0.46602583 0.1942427 1.8040001
0.47307497 0.19580917 1.8040001
0.48717323 0.19894212 1.8040001
0.49500561 0.19894212 1.8040001
0.51536977 0.19580917 1.8040003
0.52320212 0.19894212 1.8040001
0.53416741 0.19580917 1.8040003
0.54043329 0.19580917 1.8040001
0.55766451 0.19737566 1.8040001
0.56549692 0.1942427 1.8040001
0.59682637 0.19267623 1.8040001
0.60935813 0.19267623 1.8040001
0.63755465 0.19267623 1.8040001
0.64068758 0.19267623 1.8040001
0.65635234 0.19267623 1.8040001
0.69499207 0.19476485 1.8040001
0.70585293 0.19330283 1.8040001
-0.77501273 0.20559964 1.804
-0.76600552 0.20364153 1.8040001
-0.75504017 0.20207506 1.8040001
-0.63379514 0.20395485 1.8040001
-0.62658936 0.20207506 1.8040001
-0.57489574 0.20207506 1.8040003
-0.5320788 0.2041637 1.8040003
-0.52790153 0.20520802 1.8040001
0.36707693 0.205208 1.8040003
0.44174549 0.20207506 1.8040001
-0.78401995 0.21695656 1.8040001
-0.77603096 0.2127271 1.8040001
0.088244669 0.21669549 1.8040003
0.095554873 0.21648662 1.8040001
0.10182077 0.21617332 1.8040001
0.11121961 0.21460685 1.8040001
0.1237514 0.21773981 1.8040003
0.13471672 0.21773981 1.8040001
0.14568204 0.21773981 1.8040001
0.1644797 0.21460685 1.8040003
0.17387855 0.21251822 1.8040003
0.18484387 0.21382362 1.8040001
0.19737566 0.21147391 1.8040001
0.2475028 0.21304038 1.8040001
0.27413285 0.21460685 1.8040001
0.30389583 0.21147391 1.8040001
0.32426 0.21460685 1.8040001
0.33522528 0.21225715 1.8040001
0.35637271 0.21225715 1.8040001
0.36185536 0.21147391 1.8040001
-0.79106903 0.2240057 1.8040003
-0.78480315 0.22087274 1.8040003
0.095554873 0.22087274 1.8040001
-0.95084935 0.23967043 1.8040001
-0.84276271 0.23967043 1.8040001
-0.83571351 0.23888719 1.8040001
-0.82553148 0.23967044 1.8040003
-0.81691587 0.23732072 1.8040001
-0.80516732 0.23810396 1.8040001
-0.79472423 0.23444885 1.8040001
-0.96338117 0.24280338 1.8040003
-0.95398229 0.24280338 1.8040001
-0.91168749 0.24280338 1.8040001
-0.90385514 0.24436985 1.8040001
-0.86469328 0.24280338 1.8040001
-0.85529447 0.24280338 1.8040001
-0.84432918 0.24280338 1.8040001
-0.83336383 0.24280338 1.8040001
-0.68519318 -0.20949584 1.8140001
0.93721825 0.1779927 1.8140001
0.94194371 0.1779927 1.8140001
-0.59068376 0.18744364 1.8140001
0.47569734 0.18744364 1.8140001
0.73874849 0.18744364 1.8140001
0.74189883 0.18744364 1.8140001
0.75134975 0.18744364 1.8140001
0.92776728 0.18429333 1.8140001
0.9340679 0.18271817 1.8140001
0.94561905 0.18114302 1.8140001
0.95927042 0.18114302 1.8140001
0.96399593 0.18114302 1.8140001
0.9860481 0.18114302 1.8140001
0.9939239 0.18429333 1.8140001
-0.77277189 0.19563447 1.8140001
-0.76316345 0.19295669 1.8140001
-0.75450009 0.19426934 1.8140001
-0.7456792 0.19500439 1.8140001
-0.73638576 0.19374427 1.8140001
-0.70094472 0.19374427 1.8140001
-0.69464415 0.19269417 1.8140001
-0.68519318 0.19374427 1.8140001
-0.67574227 0.19374427 1.8140001
-0.66944158 0.19374427 1.8140001
-0.64108878 0.19689459 1.8140001
-0.6340006 0.19610702 1.8140001
-0.62533724 0.19689459 1.8140001
-0.60328501 0.19374427 1.8140001
-0.5938341 0.19059396 1.8140001
-0.58359557 0.19138154 1.8140001
-0.5755623 0.19437435 1.8140001
-0.56863159 0.19531943 1.8140001
-0.55445516 0.19689459 1.8140001
-0.54500425 0.19689459 1.8140001
-0.53555328 0.19689459 1.8140001
0.37016183 0.19689459 1.8140001
0.3859134 0.19374427 1.8140001
0.45522028 0.19689459 1.8140001
0.46467125 0.19216911 1.8140001
0.47475225 0.1918541 1.8140001
0.48294303 0.19563447 1.8140001
0.50720048 0.19689459 1.8140001
0.51192594 0.19689459 1.8140001
0.52452719 0.1958445 1.8140001
0.5339781 0.19531943 1.8140001
0.54500425 0.19531943 1.8140001
0.55603039 0.19689459 1.8140001
0.56705642 0.19374427 1.8140001
0.60580534 0.1918541 1.8140001
0.61588633 0.19269417 1.8140001
0.62533724 0.19374427 1.8140001
0.63478816 0.19374427 1.8140001
0.65526521 0.19374427 1.8140001
0.66629124 0.19059396 1.8140001
0.67731738 0.19059396 1.8140001
0.68519324 0.19059396 1.8140001
0.69306898 0.19059396 1.8140001
0.70409507 0.19059396 1.8140001
0.71564621 0.19059396 1.8140001
0.75450009 0.19059396 1.8140001
-0.79387897 0.2079207 1.8140001
-0.78639698 0.20516416 1.8140001
-0.77812743 0.2000449 1.8140001
-0.63636327 0.2000449 1.8140001
-0.57335705 0.2000449 1.8140001
-0.56548131 0.20109501 1.8140001
-0.55445516 0.2000449 1.8140001
-0.54531926 0.2019351 1.8140001
-0.5339781 0.20130502 1.8140001
-0.52610236 0.20477037 1.8140001
0.27722758 0.20949584 1.8140001
0.34653449 0.20949584 1.8140001
0.35441026 0.20949584 1.8140001
0.36491132 0.20582049 1.8140001
0.43789357 0.2000449 1.8140001
0.44734448 0.2000449 1.8140001
-0.79419398 0.2151664 1.8140001
-0.78810346 0.21369627 1.8140001
0.085058466 0.21658406 1.8140001
0.096084557 0.21579647 1.8140001
0.1165616 0.21894678 1.8140001
0.15751567 0.21579647 1.8140001
0.16854177 0.21264616 1.8140001
0.2441493 0.21474636 1.8140001
0.2662015 0.21579647 1.8140001
0.27486485 0.21343374 1.8140001
0.32290712 0.21894678 1.8140001
-0.79860443 0.22524743 1.8140001
0.073244788 0.22367224 1.8140001
0.080332994 0.2220971 1.8140001
-0.95296979 0.23784867 1.8140001
-0.94981951 0.23627351 1.8140001
-0.91359091 0.23784867 1.8140001
-0.844284 0.23469836 1.8140001
-0.83483303 0.2362735 1.8140001
-0.82695729 0.23627351 1.8140001
-0.8041175 0.23548593 1.8140001
-0.97502202 0.2441493 1.8140001
-0.96242076 0.2441493 1.8140001
-0.91516608 0.24099898 1.8140001
-0.90571517 0.24519941 1.8140001
-0.87421197 0.2441493 1.8140001
-0.85531014 0.24099898 1.8140001
-0.68580276 -0.21065073 1.8240001
-0.663629 -0.21223456 1.8240001
-0.68738663 -0.20748305 1.8240001
-0.63195217 -0.18530929 1.8240001
0.93763328 0.17897393 1.8240001
0.94555253 0.17580625 1.8240001
0.95294374 0.17791805 1.8240001
-0.76499474 0.18847696 1.8240001
-0.59394002 0.18847696 1.8240001
0.46723282 0.18847696 1.8240001
0.47198433 0.18847696 1.8240001
0.48307121 0.18847696 1.8240001
0.61294609 0.18847696 1.8240001
0.6683805 0.18847696 1.8240001
0.67471588 0.18847696 1.8240001
0.68580282 0.18847696 1.8240001
0.69530576 0.18847696 1.8240001
0.70480889 0.18847696 1.8240001
0.71114421 0.18847696 1.8240001
0.73806942 0.18847696 1.8240001
0.74915636 0.18530929 1.8240001
0.75549173 0.18636519 1.8240001
0.76182705 0.18847696 1.8240001
0.93446565 0.1821416 1.8240001
0.95822322 0.1821416 1.8240001
0.96139091 0.1821416 1.8240001
0.9772293 0.1821416 1.8240001
0.98039699 0.1821416 1.8240001
0.99781919 0.1821416 1.8240001
1.0025707 0.1821416 1.8240001
-0.76499474 0.19164464 1.8240001
-0.75549173 0.19322848 1.8240001
-0.74598867 0.19243655 1.8240001
-0.69530576 0.19164464 1.8240001
-0.68738663 0.19164464 1.8240001
-0.63511986 0.19481233 1.8240001
-0.62561679 0.19481234 1.8240001
-0.61611384 0.19481234 1.8240001
-0.60449898 0.19270055 1.8240001
-0.57598984 0.19270055 1.8240001
-0.56543088 0.19798 1.8240001
-0.55592787 0.19481234 1.8240001
-0.54484099 0.19639617 1.8240001
-0.53375411 0.19692412 1.8240001
0.36903474 0.19798 1.8240001
0.37537012 0.19481234 1.8240001
0.38170546 0.19164464 1.8240001
0.4276368 0.19798 1.8240001
0.43555602 0.19798002 1.8240001
0.44822672 0.19798 1.8240001
0.45139441 0.19798 1.8240001
0.46248129 0.19322848 1.8240001
0.4862389 0.19322848 1.8240001
0.49574193 0.19798002 1.8240001
0.50524497 0.19692412 1.8240001
0.51791567 0.19481233 1.8240001
0.52425104 0.19481233 1.8240001
0.53375411 0.19481234 1.8240001
0.54959249 0.19481233 1.8240001
0.55592793 0.19481234 1.8240001
0.56384706 0.19481233 1.8240001
0.57493395 0.19164464 1.8240001
0.59710771 0.19164464 1.8240001
0.6097784 0.19164464 1.8240001
0.61928147 0.19164464 1.8240001
0.62561679 0.19164464 1.8240001
0.63353598 0.19164464 1.8240001
0.64462292 0.19322848 1.8240001
0.663629 0.19164464 1.8240001
0.70164114 0.19164464 1.8240001
0.71747953 0.19164464 1.8240001
0.76182705 0.19164464 1.8240001
-0.79033619 0.20114769 1.8240001
-0.56384706 0.20114769 1.8240001
-0.5474807 0.20220357 1.8240001
-0.53058642 0.20114769 1.8240001
-0.52345908 0.2019396 1.8240001
0.16947089 0.20748305 1.8240001
0.34686098 0.20748305 1.8240001
0.35478017 0.20748305 1.8240001
0.36396644 0.20368183 1.8240002
0.44505906 0.20114769 1.8240001
-0.80300689 0.2138184 1.8240001
0.049099043 0.21698609 1.8240001
0.083943531 0.21593019 1.8240001
0.095030397 0.2138184 1.8240001
0.1267072 0.21698609 1.8240001
0.1346264 0.2169861 1.8240001
0.14412946 0.21698609 1.8240001
0.15468839 0.21593019 1.8240001
0.16630322 0.21276252 1.8240001
0.17263857 0.21223456 1.8240001
0.18689314 0.2138184 1.8240001
0.19322848 0.2138184 1.8240001
0.20431536 0.2138184 1.8240001
0.22807297 0.21698609 1.8240001
0.23599216 0.2169861 1.8240001
0.2454952 0.2138184 1.8240001
0.30568117 0.21065073 1.8240001
0.33419025 0.2138184 1.8240001
0.34210944 0.21065073 1.8240001
0.35636401 0.21065073 1.8240001
-0.80662715 0.223774 1.8240004
0.048043154 0.22226557 1.8240001
0.055434402 0.22252953 1.8240001
0.068105124 0.22490528 1.8240001
0.075496376 0.22120968 1.8240001
0.31835184 0.22015376 1.8240001
0.32151952 0.22015376 1.8240001
-0.96139091 0.23915985 1.8240001
-0.8631928 0.23915985 1.8240001
-0.8552736 0.23915985 1.8240001
-0.80934227 0.23440832 1.8240001
-0.97247779 0.24232753 1.8240001
-0.9645586 0.24232753 1.8240001
-0.90754032 0.2454952 1.8240001
-0.87269586 0.24232753 1.8240001
-0.86794436 0.24232753 1.8240001
-0.67327011 -0.21169013 1.8330001
-0.66212845 -0.21328178 1.8330001
-0.65417022 -0.21169013 1.8330001
-0.6478036 -0.21169013 1.8330001
-0.69236994 -0.2053235 1.8330001
-0.68706453 -0.2063846 1.8330001
-0.67167842 -0.20691516 1.8330001
-0.66435683 -0.20723347 1.8330001
-0.65417022 -0.20850681 1.8330001
-0.64408976 -0.2053235 1.8330001
-0.63507038 -0.18304034 1.8330001
-0.64143699 -0.17189875 1.8330001
-0.63825369 -0.17667371 1.8330001
-0.68600333 0.13210736 1.8330001
0.9374848 0.17985702 1.8330001
0.94385147 0.17667371 1.8330001
0.95021808 0.17349041 1.8330001
0.9629513 0.17985702 1.8330001
0.97568452 0.17985702 1.8330001
0.9884178 0.17985702 1.8330001
0.99796772 0.17985702 1.8330001
1.0043343 0.17985702 1.8330001
-0.76558608 0.18940695 1.8330001
-0.75762784 0.18940695 1.8330001
-0.60164559 0.18781529 1.8330001
-0.59368736 0.18781529 1.8330001
-0.58254576 0.18940695 1.8330001
-0.56185424 0.18622366 1.8330001
-0.55548763 0.18813363 1.8330001
-0.54684722 0.18667842 1.8330002
0.60960388 0.18940695 1.8330001
0.61676633 0.18781529 1.8330001
0.62552047 0.18940696 1.8330001
0.63507038 0.18940696 1.8330001
0.65098691 0.18940695 1.8330001
0.67167842 0.18622364 1.8330001
0.68282002 0.18940695 1.8330001
0.6955533 0.18728475 1.8330001
0.70669484 0.18622364 1.8330001
0.71783644 0.18940695 1.8330001
0.72101974 0.18940695 1.8330001
0.73375297 0.18940695 1.8330001
0.74966955 0.18622364 1.8330001
0.76558608 0.18781529 1.8330001
0.9343015 0.18304034 1.8330001
-0.70510316 0.19259027 1.8330001
-0.69555324 0.19259027 1.8330001
-0.68441164 0.19259027 1.8330001
-0.67804503 0.19259027 1.8330001
-0.65576184 0.19577357 1.8330001
-0.63188708 0.19259027 1.8330001
-0.62392879 0.19259027 1.8330001
-0.61597049 0.19259027 1.8330001
-0.60960388 0.19259027 1.8330001
-0.57299578 0.19418192 1.8330001
-0.56567425 0.1951369 1.8330001
-0.55469179 0.19338611 1.8330001
-0.54673344 0.19338608 1.8330001
-0.53384113 0.19577356 1.8330001
-0.52524614 0.19895688 1.8330001
0.36608067 0.19895688 1.8330001
0.37403893 0.19418192 1.8330001
0.38040555 0.19259027 1.8330001
0.41383031 0.19895688 1.8330001
0.42338026 0.19895688 1.8330001
0.44566342 0.19895688 1.8330001
0.45574388 0.19577357 1.8330001
0.46317163 0.19259027 1.8330001
0.4886381 0.19259027 1.8330001
0.49500474 0.19471249 1.8330001
0.50296295 0.19577357 1.8330001
0.51569629 0.19577357 1.8330001
0.52683783 0.19259027 1.8330001
0.53426558 0.19259028 1.8330001
0.54593772 0.19259028 1.8330001
0.55548763 0.19259028 1.8330001
0.56503761 0.19259028 1.8330001
0.57299578 0.19259027 1.8330001
0.58254576 0.19259027 1.8330001
0.60323727 0.19259027 1.8330001
0.64462036 0.19259028 1.8330001
0.65576184 0.19259027 1.8330001
0.66372013 0.19259027 1.8330001
0.76876938 0.19259027 1.8330001
-0.52285874 0.2053235 1.8330001
-0.51728791 0.2053235 1.8330001
0.16553213 0.20850681 1.8330001
0.34698081 0.20691516 1.8330001
0.35557574 0.20405018 1.8330001
0.36130568 0.20373185 1.8330001
-0.81094825 0.21487343 1.8330001
0.054116271 0.21805674 1.8330001
0.074807793 0.21805674 1.8330001
0.082766064 0.21487343 1.8330001
0.10345758 0.21487343 1.8330001
0.11778247 0.21805674 1.8330001
0.12574075 0.21593454 1.8330001
0.13847399 0.21487343 1.8330001
0.14484061 0.21805674 1.8330001
0.15439054 0.21487343 1.8330001
0.16553213 0.21169013 1.8330001
0.20850681 0.21328178 1.8330001
0.21169013 0.21487343 1.8330001
0.22442336 0.21805674 1.8330001
0.24352323 0.21487343 1.8330001
0.31355605 0.21169013 1.8330001
0.3262893 0.21805674 1.8330001
0.33583921 0.21487343 1.8330001
-0.81333572 0.22442336 1.8330001
0.027058136 0.22442336 1.8330001
0.033424757 0.22442336 1.8330001
0.044035792 0.22230117 1.8330001
0.055707924 0.22124006 1.8330001
0.065257855 0.22442336 1.8330001
0.07162448 0.22124006 1.8330001
-0.81545794 0.23397331 1.8330001
-0.97250122 0.24352323 1.8330001
-0.91520166 0.24352323 1.8330001
-0.90883505 0.24670653 1.8330001
-0.89291847 0.24670653 1.8330001
-0.88496023 0.24511488 1.8330001
-0.86426872 0.24033991 1.8330001
-0.68494487 -0.212845 1.8430001
-0.69401336 -0.20217608 1.8430002
-0.68425912 -0.20438606 1.8430004
-0.67374247 -0.20164263 1.8430002
-0.66374034 -0.20284288 1.8430002
-0.65453845 -0.20324299 1.8430002
-0.64653671 -0.20004229 1.8430001
-0.68441135 -0.19364095 1.8430002
-0.67374241 -0.19364095 1.8430002
-0.66734111 -0.19364095 1.8430002
-0.65240467 -0.19577473 1.8430002
-0.64493638 -0.19364095 1.8430002
-0.68094397 -0.18483908 1.8430001
-0.67374247 -0.18403891 1.8430002
-0.66734111 -0.18403892 1.8430002
-0.64253581 -0.18483907 1.8430001
-0.68014383 -0.1744369 1.8430002
-0.67694318 -0.1744369 1.8430002
-0.66459769 -0.17352241 1.8430002
-0.64653671 -0.17603722 1.8430001
-0.68494487 -0.16696864 1.8430002
-0.67310232 -0.16675527 1.8430001
-0.66414046 -0.16483484 1.8430002
-0.64493638 -0.16803554 1.8430001
-0.66368324 -0.15431833 1.8430002
-0.6577391 -0.15203215 1.8430001
-0.66414046 -0.14563079 1.8430002
-0.65667224 -0.14349702 1.8430002
-0.67054176 -0.13282809 1.8430001
-0.6641404 -0.13602877 1.8430002
-0.65613878 -0.13602877 1.8430002
-0.66414046 -0.12482639 1.8430003
-0.6577391 -0.12802707 1.8430001
-0.67054176 -0.11362402 1.8430002
-0.66414046 -0.11362403 1.8430002
-0.67214215 -0.10082132 1.8430001
-0.66414046 -0.104022 1.8430002
-0.67334235 -0.09482006 1.8430002
-0.66574073 -0.094419971 1.8430002
-0.67320907 -0.084284484 1.8430002
-0.66505492 -0.084360704 1.8430002
-0.68014383 -0.075215906 1.8430002
-0.67374247 -0.075215913 1.8430002
-0.66414046 -0.075215913 1.8430002
-0.6577391 -0.072015226 1.8430001
-0.67374247 -0.065613873 1.8430002
-0.66414046 -0.065613873 1.8430002
-0.67282796 -0.05646909 1.8430002
-0.66505498 -0.056469087 1.8430002
-0.6719135 -0.045495339 1.8430002
-0.66627425 -0.045876369 1.8430002
-0.67054176 -0.033607107 1.8430002
-0.66574073 -0.036807783 1.8430001
-0.68974584 -0.024005076 1.8430001
-0.67054176 -0.024005076 1.8430002
-0.66734111 -0.022404738 1.8430001
-0.68014383 -0.011202369 1.8430001
-0.67374247 -0.014403045 1.8430002
-0.66734111 -0.014403045 1.8430001
-0.68014383 -0.0048010154 1.8430002
-0.67374247 -0.0048010154 1.8430002
-0.66734111 -0.0048010154 1.8430002
-0.66093975 0.011202369 1.8430001
-0.65453839 0.011202369 1.8430001
-0.68334448 0.040008459 1.8430001
-0.62573236 0.046943258 1.8430002
-0.62733269 0.056011848 1.8430002
-0.62893301 0.062413197 1.8430001
-0.62253165 0.097620644 1.8430001
-0.61933094 0.097620644 1.8430001
-0.6246655 0.104022 1.8430002
-0.619331 0.104022 1.8430002
-0.62253165 0.11202368 1.8430001
-0.61933094 0.11042335 1.8430001
-0.68654519 0.12802707 1.8430001
-0.68374461 0.13642885 1.8430002
-0.67566288 0.13538863 1.8430001
-0.68334454 0.14669769 1.8430002
-0.67694318 0.14563081 1.8430002
0.94740033 0.17603722 1.8430001
0.95220131 0.17443688 1.8430001
0.96500403 0.17763756 1.8430001
1.006613 0.17763756 1.8430002
1.0130142 0.17763756 1.8430001
-0.62893301 0.18723959 1.8430001
-0.60652822 0.18723959 1.8430001
-0.55745125 0.1851058 1.8430002
-0.54571533 0.18403892 1.8430001
0.63533437 0.18723959 1.8430002
0.69294649 0.18723959 1.8430001
0.70414889 0.18723959 1.8430001
0.75055867 0.18723959 1.8430001
0.76496172 0.18563925 1.8430001
0.77296346 0.18723959 1.8430001
0.93619794 0.18403891 1.8430001
0.97460616 0.18083826 1.8430002
0.98580843 0.18083824 1.8430001
0.99381018 0.18083824 1.8430001
1.0002115 0.18083824 1.8430001
-0.7665621 0.19044027 1.8430001
-0.75375938 0.19044027 1.8430001
-0.6961472 0.19044027 1.8430001
-0.68494481 0.19044027 1.8430001
-0.67374247 0.19364095 1.8430002
-0.66414046 0.19364095 1.8430002
-0.65453845 0.19577473 1.8430002
-0.64493638 0.19236067 1.8430001
-0.63613451 0.19204062 1.8430001
-0.62573236 0.19044027 1.8430002
-0.61693043 0.19124043 1.8430001
-0.60972893 0.19044027 1.8430001
-0.58092284 0.19044027 1.8430001
-0.5723877 0.19257407 1.8430002
-0.56812012 0.19044027 1.8430001
-0.54251468 0.19044027 1.8430001
-0.53547329 0.19236068 1.8430001
-0.5273115 0.19604146 1.8430001
0.36807781 0.19684163 1.8430001
0.43529207 0.19684163 1.8430001
0.44489405 0.19684163 1.8430001
0.45449609 0.19524129 1.8430001
0.49770525 0.19364095 1.8430001
0.51210827 0.19524129 1.8430001
0.52651131 0.19364095 1.8430001
0.53931403 0.19364095 1.8430001
0.55851811 0.19044027 1.8430001
0.56491947 0.19044027 1.8430002
0.57132077 0.19044027 1.8430001
0.60012692 0.19364095 1.8430001
0.64813703 0.19044027 1.8430001
0.65453839 0.19044027 1.8430001
0.6641404 0.19150716 1.8430002
0.67054176 0.19044027 1.8430001
0.74095666 0.19044027 1.8430001
0.77616411 0.19204061 1.8430001
-0.5233106 0.20452325 1.8430001
-0.5143488 0.20516339 1.8430001
0.34567308 0.20804399 1.8430001
0.35527509 0.20164263 1.8430001
0.36167645 0.20004229 1.8430001
0.42088899 0.20004229 1.8430001
-0.81777292 0.21924636 1.8430001
0.027205752 0.21924636 1.8430001
0.033607107 0.21924636 1.8430001
0.044809476 0.21924636 1.8430001
0.059212521 0.21924636 1.8430001
0.067214213 0.21924636 1.8430001
0.075215906 0.21604568 1.8430001
0.12162571 0.21444534 1.8430001
0.14243011 0.21604568 1.8430001
0.15523282 0.212845 1.8430001
0.16163418 0.212845 1.8430001
0.20644365 0.212845 1.8430001
0.21604568 0.21604568 1.8430001
0.2416511 0.21604568 1.8430001
0.25125313 0.212845 1.8430001
0.31846735 0.212845 1.8430001
0.32486868 0.21711259 1.8430002
0.3376714 0.212845 1.8430001
-0.82097358 0.22884838 1.8430001
0.017603721 0.22564772 1.8430001
0.023364941 0.22372733 1.8430001
0.032806937 0.2232472 1.8430001
0.040008459 0.22244704 1.8430001
0.064013533 0.22244704 1.8430001
-0.97140539 0.23845042 1.8430001
-0.8721844 0.23685008 1.8430001
-0.86418271 0.23845042 1.8430001
-0.82310742 0.23524974 1.8430002
-0.98100746 0.2416511 1.8430001
-0.97620642 0.2416511 1.8430001
-0.92179489 0.2416511 1.8430001
-0.91539359 0.24325144 1.8430001
-0.9041912 0.24485177 1.8430002
-0.89458913 0.24485177 1.8430002
-0.88498724 0.2416511 1.8430002
-0.87698543 0.2416511 1.8430001
-0.6902703 -0.19469164 1.853
-0.66452599 -0.19469164 1.853
-0.65701723 -0.19254628 1.853
-0.69187939 -0.18503749 1.853
-0.68705225 -0.18342847 1.853
-0.66452599 -0.18503749 1.853
-0.65487176 -0.18503749 1.853
-0.64843577 -0.18342847 1.853
-0.69187927 -0.17538337 1.853
-0.68705225 -0.17538337 1.853
-0.67578912 -0.17538336 1.853
-0.6632387 -0.17667058 1.853
-0.65527409 -0.17538336 1.8529999
-0.6934883 -0.16444202 1.853
-0.68383425 -0.16379844 1.853
-0.67578912 -0.1625112 1.853
-0.66130793 -0.16572925 1.853
-0.65487182 -0.16572924 1.853
-0.64736313 -0.16358389 1.853
-0.69256896 -0.15561539 1.853
-0.68383425 -0.15607511 1.853
-0.67509961 -0.15653484 1.853
-0.66345334 -0.15822047 1.853
-0.65487182 -0.15607511 1.853
-0.69187933 -0.14963903 1.853
-0.68343192 -0.14682323 1.8529999
-0.67578912 -0.14642099 1.853
-0.66130793 -0.14963903 1.853
-0.65446961 -0.14682323 1.8529999
-0.64763129 -0.14561647 1.853
-0.68276161 -0.13497904 1.853
-0.67601901 -0.13538769 1.853
-0.65379912 -0.13462149 1.853
-0.6470567 -0.13446824 1.853
-0.68222523 -0.12389468 1.853
-0.67578912 -0.12389468 1.853
-0.66130793 -0.12228565 1.853
-0.65487182 -0.12389468 1.853
-0.64843577 -0.12389468 1.853
-0.68222523 -0.11424054 1.853
-0.67739815 -0.11424054 1.853
-0.66130793 -0.11424054 1.853
-0.65487182 -0.11424054 1.853
-0.64763123 -0.11424054 1.853
-0.68383425 -0.10458641 1.853
-0.67578912 -0.10619543 1.853
-0.66130793 -0.10458641 1.853
-0.65487182 -0.10458642 1.853
-0.64629042 -0.10351373 1.853
-0.6902703 -0.094932288 1.853
-0.68475372 -0.094472557 1.853
-0.66291702 -0.09493228 1.853
-0.65487182 -0.094932295 1.853
-0.64613718 -0.095392019 1.853
-0.69155753 -0.084634542 1.853
-0.68423653 -0.08568041 1.8529999
-0.67418009 -0.085278153 1.853
-0.66259521 -0.085921764 1.853
-0.65487176 -0.085278153 1.853
-0.64843577 -0.086887173 1.853
-0.69308615 -0.076026283 1.8529999
-0.68705225 -0.075624019 1.853
-0.66130793 -0.077233046 1.853
-0.65487182 -0.075624026 1.853
-0.69348836 -0.065969884 1.853
-0.68544328 -0.065969884 1.853
-0.66130793 -0.065969899 1.853
-0.65527415 -0.066372149 1.8529999
-0.69241565 -0.05738844 1.853
-0.68423647 -0.055913504 1.8529999
-0.66259521 -0.055672158 1.853
-0.65579128 -0.055856042 1.853
-0.64682674 -0.054706737 1.853
-0.6916495 -0.044363029 1.853
-0.68383425 -0.04505261 1.8530002
-0.67739815 -0.040225543 1.853
-0.66388237 -0.044408999 1.853
-0.65567636 -0.044248097 1.8529999
-0.64586133 -0.045052607 1.853
-0.63878161 -0.04505261 1.853
-0.69187939 -0.033789456 1.853
-0.68383425 -0.033789452 1.853
-0.6748237 -0.033145849 1.853
-0.66412371 -0.033387199 1.8529999
-0.65527415 -0.034191713 1.8529999
-0.64481544 -0.034191713 1.8529999
-0.63878161 -0.033789456 1.853
-0.6902703 -0.024135327 1.853
-0.68383431 -0.024135325 1.853
-0.67578912 -0.024939837 1.853
-0.66452593 -0.024135325 1.853
-0.65527409 -0.023733068 1.8529999
-0.6448155 -0.023733068 1.8529999
-0.63717258 -0.027353369 1.853
-0.69134301 -0.015553877 1.853
-0.68576509 -0.015124804 1.853
-0.67096204 -0.014481195 1.853
-0.66452599 -0.014481197 1.853
-0.65487182 -0.014481195 1.853
-0.64682674 -0.014481197 1.853
-0.6902703 -0.0048270654 1.853
-0.68705225 -0.0048270654 1.853
-0.66452599 -0.0048270649 1.853
-0.65487182 -0.0048270649 1.853
-0.64521772 -0.0048270659 1.853
-0.63878167 -0.0048270654 1.853
-0.68383431 0.0048270654 1.853
-0.67377782 0.0044248095 1.8529999
-0.66452599 0.0048270649 1.853
-0.65487188 0.0048270645 1.853
-0.64521772 0.0048270649 1.853
-0.63717258 0.0048270654 1.853
-0.68383425 0.014481195 1.853
-0.67257112 0.014481197 1.853
-0.66498578 0.015400638 1.853
-0.65487182 0.014883451 1.8529999
-0.646505 0.013193979 1.853
-0.63717258 0.011263152 1.853
-0.6902703 0.025744347 1.853
-0.68383425 0.024135325 1.853
-0.67418009 0.024135325 1.853
-0.66452599 0.024135325 1.853
-0.65487182 0.022526301 1.853
-0.64843577 0.020917282 1.853
-0.63234556 0.024135327 1.853
-0.6902703 0.033789456 1.853
-0.68383425 0.033789456 1.853
-0.67418009 0.033789456 1.853
-0.66544551 0.033329736 1.853
-0.63234556 0.033789456 1.853
-0.6291275 0.037007499 1.853
-0.69187939 0.04505261 1.853
-0.68504101 0.045052607 1.8529999
-0.67471641 0.042370908 1.853
-0.66581327 0.042156368 1.853
-0.63234556 0.041834563 1.853
-0.6291275 0.043443587 1.853
-0.69187933 0.053097717 1.853
-0.68544328 0.053097717 1.853
-0.67176658 0.055511251 1.853
-0.66452599 0.056315761 1.853
-0.65165377 0.053097717 1.853
-0.64521778 0.053097717 1.853
-0.63717258 0.056315765 1.853
-0.67224926 0.066613495 1.853
-0.66452599 0.065969892 1.853
-0.65406728 0.065969892 1.853
-0.64843577 0.062751845 1.853
-0.63556361 0.063824534 1.853
-0.6291275 0.064360872 1.853
-0.67224926 0.074980415 1.853
-0.66452599 0.075624026 1.853
-0.65487182 0.074015006 1.853
-0.64843577 0.075624019 1.853
-0.69885176 0.087423518 1.853
-0.6806162 0.088496193 1.853
-0.67418009 0.085278153 1.8529999
-0.66452599 0.085278146 1.853
-0.65567636 0.08769168 1.853
-0.64843577 0.085278153 1.853
-0.69670641 0.091714241 1.853
-0.67377782 0.095334537 1.8529999
-0.66452599 0.09493228 1.853
-0.65487182 0.09533453 1.8529999
-0.64714855 0.095575891 1.853
-0.63234556 0.0965413 1.853
-0.6291275 0.098150328 1.853
-0.67257106 0.10458641 1.853
-0.66452599 0.10458641 1.853
-0.65487182 0.10458641 1.853
-0.64562005 0.10498866 1.8529999
-0.63449097 0.10458641 1.853
-0.6291275 0.10780445 1.853
-0.68705225 0.11745858 1.853
