# .PCD v0.7 - Point Cloud Data file format
VERSION 0.7
FIELDS x y z
SIZE 4 4 4
TYPE F F F
COUNT 1 1 1
WIDTH 1416
HEIGHT 1
VIEWPOINT 0 0 0 1 0 0 0
POINTS 1416
DATA ascii
-0.49167091 0.24570158 0.95700014
-0.48450336 0.24422571 0.95125932
-0.47430369 0.24494824 0.95250028
-0.464598 0.24432628 0.95500004
-0.45682523 0.24177121 0.95550007
-0.49218583 0.25150001 0.95800006
-0.48471928 0.25449133 0.95516676
-0.47756875 0.25441006 0.95538902
-0.46778449 0.25094545 0.95800006
0.26543969 0.25964898 0.95230001
0.27335012 0.25911462 0.95600009
0.29457647 0.25951576 0.95383346
0.30659404 0.25984877 0.95000005
0.31558847 0.25921077 0.95475
0.32487965 0.25824153 0.95525002
0.33554229 0.25790432 0.95414305
0.34453133 0.25692517 0.95293748
0.35528189 0.25673169 0.95375007
0.36460564 0.25687951 0.95430005
0.37724763 0.25729173 0.95275009
0.38530475 0.25613165 0.9535836
0.39447168 0.25393593 0.95327783
0.40551943 0.25444371 0.95353848
0.41419014 0.25447932 0.95400012
0.42663598 0.25317356 0.95220006
0.43173754 0.25143242 0.95250005
0.51681507 0.2521992 0.95290005
0.52240026 0.25132197 0.95342863
-0.48601615 0.26099712 0.95800012
-0.47776687 0.26148236 0.95800006
-0.36172187 0.26942757 0.95325005
-0.35562938 0.26965225 0.95200008
-0.24252377 0.26910043 0.95650005
-0.23345143 0.26974779 0.95000005
-0.22499485 0.26927498 0.95222217
-0.2149297 0.26932225 0.95199996
-0.20804377 0.26913449 0.95075005
-0.1514762 0.26901293 0.95325005
-0.14715095 0.26832029 0.95144445
-0.12338583 0.26885542 0.95366669
-0.1127883 0.2693162 0.95433331
-0.10880347 0.26910043 0.95650005
-0.084007077 0.26889968 0.9544546
-0.078779541 0.26950896 0.95500004
-0.061876394 0.26890096 0.95520014
-0.054513596 0.26794744 0.95114285
-0.04469493 0.26665524 0.95024991
-0.035920173 0.26883322 0.95320004
-0.024211911 0.26917344 0.95500004
-0.014911564 0.26939598 0.95387495
-0.0033018377 0.26962835 0.95250005
0.0058090636 0.26881766 0.95550013
0.014561873 0.26714694 0.95572746
0.025948336 0.26763386 0.95375001
0.03511294 0.26734218 0.95516676
0.045049842 0.26520512 0.9563126
0.053436566 0.26387051 0.95353854
0.06502194 0.26563674 0.95530778
0.074573293 0.26398954 0.95425004
0.084208988 0.26480386 0.95342863
0.094887666 0.26456392 0.95437497
0.10432218 0.26491246 0.95407701
0.11380563 0.26342618 0.95271444
0.12610346 0.26389831 0.95271426
0.13489024 0.26374477 0.95307696
0.1463685 0.26370221 0.95542872
0.15499546 0.26325041 0.95363635
0.16532664 0.26362717 0.95293337
0.17530794 0.26408845 0.95395464
0.18436399 0.2624954 0.95578581
0.19573061 0.2627916 0.95350009
0.20527729 0.26321939 0.95325005
0.21484922 0.26204199 0.95533341
0.22522761 0.26226446 0.95480013
0.23393467 0.26128477 0.95449996
0.24608591 0.26191753 0.95481825
0.25543144 0.26254585 0.95452946
0.26099995 0.26099995 0.95725012
0.27611816 0.26076344 0.95562506
0.28322062 0.26066029 0.95540011
0.29032031 0.26037323 0.95800006
0.30363011 0.26037323 0.95800006
0.3130672 0.26057065 0.95466679
-0.52214134 0.27893621 0.95700014
-0.51509196 0.27805912 0.95400006
-0.50442261 0.27796352 0.95366675
-0.49463588 0.27691019 0.95337486
-0.48610935 0.27578881 0.95447069
-0.4760533 0.27591562 0.95375001
-0.4660604 0.27516946 0.95450008
-0.45446244 0.27633286 0.9568001
-0.44396344 0.27302569 0.95364296
-0.4351927 0.27352273 0.95237505
-0.42529905 0.27301374 0.95409095
-0.41543198 0.27295351 0.954
-0.40463266 0.27292752 0.95391673
-0.39442903 0.27181369 0.95228583
-0.38654491 0.27282724 0.9550001
-0.37522709 0.27458033 0.95533341
-0.36416093 0.27238664 0.95136368
-0.35503051 0.27204591 0.95227277
-0.34654164 0.27275458 0.95475006
-0.33518493 0.27214134 0.95550007
-0.32522792 0.27346617 0.95466667
-0.31843519 0.27282599 0.95500004
-0.30342972 0.27181509 0.9541539
-0.29513538 0.27267101 0.9530952
-0.28528181 0.27281785 0.9526667
-0.27568841 0.27293253 0.95344448
-0.2641688 0.2727176 0.95507699
-0.25550979 0.27243936 0.95276922
-0.24464466 0.27112699 0.95307696
-0.2355987 0.27125919 0.95200014
-0.22452159 0.2711316 0.95100003
-0.2152611 0.2711696 0.95085722
-0.20376728 0.271523 0.95160007
-0.19470714 0.27342764 0.95370597
-0.18454871 0.27144819 0.9530834
-0.17507678 0.27216083 0.95558345
-0.16480772 0.27181512 0.95463651
-0.15573959 0.2709268 0.95300007
-0.148485 0.27139759 0.95000005
-0.11589447 0.27072304 0.9542858
-0.083232649 0.27070758 0.95533341
-0.073259979 0.27061957 0.95600009
-0.064387694 0.27163944 0.95550007
-0.057926521 0.2705996 0.95300007
-0.031796634 0.27070758 0.95533341
-0.027955413 0.27043694 0.9563334
-0.014141677 0.27035558 0.95800006
-0.005399623 0.27058905 0.95662504
0.0024890776 0.27047759 0.95550007
-0.52051115 0.28052986 0.95300007
-0.06236482 -0.39195839 0.96128577
-0.055414431 -0.39296865 0.96699989
-0.049082544 -0.3943432 0.96900004
-0.072121911 -0.38278258 0.96100008
-0.064722575 -0.38485959 0.96267569
-0.056885034 -0.38642868 0.96859086
-0.073915333 -0.37518066 0.96107173
-0.066010207 -0.37561682 0.96557891
-0.059740465 -0.37779534 0.96900004
-0.082612365 -0.36132479 0.96100008
-0.074784845 -0.3654854 0.96280009
-0.065972447 -0.3654367 0.96874279
-0.083446845 -0.35451001 0.96100014
-0.07482817 -0.35554439 0.96428114
-0.066828214 -0.35565162 0.96886951
-0.081970476 -0.34579086 0.9610002
-0.075303748 -0.34534204 0.96335143
-0.066192403 -0.34514436 0.96760702
-0.081658691 -0.33748287 0.96100008
-0.075128615 -0.33505833 0.96319467
-0.066516079 -0.33518329 0.96818167
-0.080943428 -0.32405192 0.96100008
-0.074945249 -0.32516947 0.96374989
-0.06682238 -0.32583794 0.96899998
-0.081499748 -0.31654167 0.96100008
-0.07432352 -0.31483784 0.96174097
-0.068053722 -0.31372815 0.96760005
-0.074288771 -0.30538702 0.96128595
-0.065616041 -0.30487508 0.96806234
-0.059740465 -0.3029094 0.96900004
-0.072862253 -0.29553354 0.96100026
-0.065346457 -0.29484805 0.96561748
-0.058418252 -0.29449525 0.96899998
-0.071688429 -0.28500891 0.96100014
-0.065300003 -0.2847442 0.96347058
-0.057595316 -0.28417301 0.96868414
-0.071263604 -0.2768766 0.96100008
-0.06519074 -0.27499208 0.96258825
-0.055498034 -0.27445033 0.96799994
-0.049363017 -0.27289891 0.96900004
-0.065029837 -0.26510042 0.96225005
-0.055685986 -0.26515505 0.96772712
-0.049082544 -0.26616764 0.96900004
-0.064400807 -0.2550512 0.96235728
-0.055443957 -0.25539556 0.96749997
-0.048878562 -0.25586668 0.96899998
-0.064220548 -0.24560155 0.96144456
-0.05542 -0.24520715 0.96708328
-0.049403086 -0.24629422 0.96900004
-0.063135572 -0.23524198 0.96214294
-0.05540162 -0.2350498 0.96674985
-0.048185032 -0.23554014 0.96899998
-0.064448602 -0.22522193 0.96230012
-0.055855766 -0.22579713 0.96824986
-0.04880207 -0.22886489 0.96900004
-0.071764283 -0.2136239 0.96100003
-0.064985685 -0.21515033 0.96238458
-0.056515671 -0.21495846 0.96835709
-0.073812179 -0.20461188 0.96116024
-0.0654082 -0.20525964 0.96548641
-0.058338113 -0.20684788 0.96899998
-0.081499748 -0.19164956 0.96100008
-0.075011082 -0.19518501 0.9621315
-0.065718524 -0.19525962 0.9677369
-0.091791525 -0.18191411 0.96100003
-0.084151052 -0.18398829 0.96157169
-0.076295801 -0.18575257 0.96560603
-0.067313202 -0.18763554 0.96899998
-0.10420423 -0.17283927 0.9610002
-0.094407223 -0.17436805 0.96399993
-0.08584965 -0.17627646 0.96658051
-0.078972809 -0.17753857 0.96900004
-0.12433579 -0.16105239 0.96100003
-0.11445841 -0.16310963 0.9636786
-0.10544946 -0.16548064 0.96497488
-0.096938469 -0.16824293 0.966923
-0.15187323 -0.15103877 0.96100003
-0.14351106 -0.15158552 0.96183348
-0.13450198 -0.15381421 0.96273714
-0.12522922 -0.15560654 0.96486843
-0.11638077 -0.15840116 0.96775007
-0.18233134 -0.14144239 0.96100003
-0.17439674 -0.14216125 0.96205902
-0.16481607 -0.14280659 0.96421438
-0.15537356 -0.14557181 0.96469688
-0.14555864 -0.14807689 0.96619999
-0.13546781 -0.14893046 0.96900004
-0.22113411 -0.13184601 0.96100003
-0.21431693 -0.13191672 0.96288902
-0.20527236 -0.13358164 0.96491307
-0.19451219 -0.13435811 0.96496421
-0.18594684 -0.1361461 0.96554542
-0.17590788 -0.13864036 0.96600008
-0.16828302 -0.13883348 0.96900004
-0.22290182 -0.1279691 0.96325004
-0.21583179 -0.12836839 0.96430773
-0.20867091 -0.1287365 0.96900004
-0.15394583 0.16861959 0.96612495
-0.14756957 0.1671887 0.96149999
-0.46743861 0.17978407 0.96300006
-0.16179685 0.17635939 0.96766675
-0.15642408 0.17413491 0.96331823
-0.4717302 0.18417236 0.96266669
-0.46506268 0.18387012 0.96226478
-0.45485431 0.18561737 0.9642393
-0.44808555 0.18605693 0.96779996
-0.16362844 0.18515389 0.96484995
-0.15938346 0.18191411 0.96100003
-0.46189865 0.1925509 0.96133345
-0.45461357 0.19492148 0.96202421
-0.44790301 0.19610345 0.96604341
-0.16603144 0.19146115 0.96566671
-0.4931708 0.20110688 0.96100003
-0.46187824 0.20527923 0.96100003
-0.45372573 0.2048327 0.9616155
-0.44544211 0.20556735 0.9668045
-0.49433959 0.21668999 0.96600008
-0.4620173 0.21167682 0.96100008
-0.4547767 0.21536374 0.96284091
-0.44571182 0.21454048 0.96666646
-0.5141046 0.2297063 0.96900004
-0.50167716 0.2282178 0.9684
-0.49490997 0.22704202 0.96400017
-0.48983294 0.22280306 0.96100003
-0.45303422 0.22291556 0.96252388
-0.44583502 0.22542164 0.96330559
-0.52083588 0.23980328 0.96900004
-0.51345736 0.23397814 0.96899998
-0.50430101 0.23474316 0.96585006
-0.49640328 0.23465927 0.96133357
-0.45251587 0.23961702 0.96150005
-0.44733742 0.23511146 0.96173358
-0.51133204 0.24908316 0.96800005
-0.50404263 0.24579267 0.96376485
-0.49729517 0.24544695 0.96144468
-0.47314355 0.24950604 0.96100003
-0.46302053 0.24912658 0.96600008
-0.45604223 0.24387383 0.96366674
0.52695292 0.2493825 0.96700007
-0.51329446 0.25496265 0.96800005
-0.50551087 0.25435326 0.96434355
-0.49608165 0.25597054 0.96125019
-0.48315719 0.25951967 0.96100003
-0.47388443 0.25273997 0.96166682
-0.46638095 0.25164562 0.96600008
0.16856349 0.25943631 0.96900004
0.17080726 0.25915581 0.96900004
0.18595272 0.25999725 0.96900004
0.25951967 0.25951967 0.96100003
0.26492953 0.2596243 0.96450007
0.27530232 0.25892958 0.96433336
0.28386849 0.25926554 0.96862501
0.2947219 0.25987786 0.96699995
0.30509761 0.25927532 0.96745461
0.314311 0.25890422 0.96441668
0.32542166 0.25782365 0.96340001
0.33385843 0.25844318 0.96500003
0.3455109 0.25742266 0.96440011
0.35636303 0.25629535 0.96530783
0.36550084 0.25591022 0.96586657
0.37555623 0.25651562 0.96541661
0.38439947 0.25557467 0.96586668
0.39403969 0.2540279 0.96550006
0.40493166 0.25444514 0.9655
0.41589308 0.2544525 0.96500009
0.42681774 0.25487491 0.96474993
0.43441957 0.25309661 0.96675003
0.52352315 0.25099698 0.96381813
0.53096676 0.25080419 0.96600002
-0.50674438 0.26290074 0.96642864
-0.4960112 0.26485589 0.96125019
-0.48591509 0.2658276 0.96184021
-0.4798193 0.26452646 0.96100003
-0.4316459 0.2684114 0.96900004
-0.42611551 0.26925802 0.96600002
-0.41185573 0.26925802 0.96600002
-0.24700263 0.26953328 0.96100003
-0.17106602 0.26786435 0.96100003
-0.15270771 0.26953328 0.96100003
-0.12392566 0.26790068 0.96484625
-0.1155526 0.26774415 0.96228582
-0.10931536 0.26786435 0.96100003
-0.09049423 0.26813787 0.96500003
-0.085002944 0.26796901 0.96539998
-0.078167751 0.26897532 0.96499997
-0.065088525 0.26953328 0.96100003
-0.053571828 0.26870054 0.96400005
-0.033964995 0.26867428 0.96484625
-0.025148306 0.2673752 0.9636842
-0.01547754 0.26801994 0.96505255
-0.0044437828 0.26844338 0.96519995
0.0047958838 0.26684347 0.9641819
0.014593271 0.26614389 0.96566677
0.025437441 0.26667616 0.9657777
0.035012942 0.26562485 0.96469992
0.04475018 0.26335374 0.9645716
0.054434516 0.26381314 0.96450013
0.065413289 0.2650159 0.96583331
0.073470116 0.26341152 0.96149999
0.085681975 0.26406947 0.96506262
0.094633929 0.26324469 0.96446681
0.10493284 0.26322642 0.96528554
0.11422161 0.264503 0.96580011
0.12559362 0.26388559 0.9666875
0.13337079 0.26348403 0.96674991
0.14419694 0.26394975 0.96500009
0.15492058 0.26295197 0.96441668
0.16533174 0.26233509 0.96488881
0.17412567 0.26216263 0.96408343
0.18536739 0.26149151 0.96436363
0.19534312 0.26267415 0.96606684
0.20580395 0.26294574 0.96571428
0.21535425 0.26194829 0.96557152
0.22534359 0.26136684 0.96474999
0.23483425 0.26143628 0.96500003
0.24563494 0.26200539 0.96658325
0.25477999 0.26101571 0.96372736
0.26632869 0.26046485 0.96450007
0.27009422 0.26005977 0.96300006
0.28577372 0.26068562 0.96300006
0.29301977 0.26055628 0.9636001
0.30527115 0.26038229 0.96242863
0.31023207 0.26005977 0.96300006
0.33531821 0.26005977 0.96300006
-0.52406114 0.27709725 0.96410006
-0.51491719 0.27808797 0.964625
-0.50450283 0.27432042 0.9644286
-0.49555299 0.27262449 0.96190006
-0.48486847 0.2727446 0.96318543
-0.47665626 0.2760464 0.96509999
-0.46343485 0.27600804 0.96420014
-0.45464104 0.27436715 0.96353352
-0.444408 0.27351481 0.96475005
-0.43453002 0.27337185 0.96557891
-0.42525718 0.27164891 0.96514297
-0.41415614 0.27227595 0.96447057
-0.40555948 0.27262872 0.96515387
-0.39602187 0.2736572 0.96525007
-0.38483587 0.27336118 0.96482366
-0.37592143 0.27354792 0.96372235
-0.36707664 0.2726011 0.963
-0.35386842 0.27485877 0.96800005
-0.34654349 0.27473056 0.9616667
-0.33433703 0.27400547 0.96500003
-0.32505858 0.27353865 0.96483344
-0.31477728 0.27362296 0.96719992
-0.30382538 0.27173105 0.96542859
-0.29482144 0.27158082 0.9636668
-0.28519511 0.27226669 0.96478581
-0.27587065 0.27319029 0.96390009
-0.26414785 0.27123046 0.96384633
-0.2549164 0.27150416 0.96552616
-0.2478371 0.27120221 0.96100003
-0.23576219 0.27164868 0.96428573
-0.22731751 0.27093562 0.96600002
-0.21512178 0.27177709 0.96900004
-0.20448588 0.27320233 0.96512496
-0.19564468 0.2721597 0.96480018
-0.18534251 0.27134129 0.96515387
-0.17565364 0.27077925 0.96361554
-0.16494602 0.2707296 0.96357143
-0.15635496 0.2702525 0.9644286
-0.1222774 0.27051491 0.96450007
-0.11957732 0.27009422 0.96300006
-0.074327104 0.27037272 0.96485722
-0.068808816 0.2707057 0.96400005
-0.058057636 0.27009422 0.96900004
-0.049643487 0.27009422 0.96900004
-0.039546505 0.27009422 0.96900004
-0.012543075 0.27009422 0.96300006
-0.0091982549 0.27009422 0.96300006
-0.5141046 0.28019121 0.96900004
-0.045136422 -0.39491183 0.97385728
-0.03817628 -0.39873001 0.97700012
-0.054196686 -0.38351676 0.9722001
-0.0476644 -0.38548711 0.97495651
-0.062457483 -0.37305686 0.97200006
-0.055167668 -0.37463778 0.97276324
-0.047470089 -0.37561876 0.97625011
-0.061613463 -0.36292863 0.97200006
-0.055461738 -0.36517841 0.9732632
-0.04767793 -0.36767992 0.97700006
-0.062642731 -0.35452846 0.97226679
-0.056967981 -0.35560328 0.97460014
-0.061613467 -0.3448666 0.97200006
-0.055960771 -0.34408501 0.97521204
-0.062457483 -0.33591998 0.97200006
-0.054986674 -0.33418992 0.97434145
-0.063078217 -0.3232331 0.97228581
-0.055128656 -0.32470408 0.97447383
-0.063486092 -0.31631035 0.97238106
-0.054575797 -0.31519887 0.97408831
-0.048613787 -0.31486565 0.97650015
-0.061613463 -0.30975536 0.97200006
-0.055197679 -0.305547 0.97237515
-0.047006462 -0.30432332 0.9758001
-0.053878266 -0.2950286 0.97227281
-0.046848137 -0.29514775 0.9759286
-0.053060729 -0.28544757 0.97200012
-0.045979001 -0.28490347 0.97421443
-0.039873 -0.28335279 0.97700006
-0.051485222 -0.27937064 0.97200006
-0.044812366 -0.27558342 0.97253352
-0.039101761 -0.27448356 0.97700018
-0.044576768 -0.2650573 0.97257167
-0.039101765 -0.26507449 0.97700018
-0.04408535 -0.25509566 0.97264016
-0.03873165 -0.25444406 0.97675014
-0.044555251 -0.2450854 0.97207153
-0.037631996 -0.24432072 0.97552383
-0.043759115 -0.23484471 0.97254562
-0.038256746 -0.23570661 0.97620016
-0.052932117 -0.22149497 0.97200012
-0.045439932 -0.22458589 0.97341192
-0.039873004 -0.22566423 0.97700012
-0.052118238 -0.21332607 0.97200006
-0.045671791 -0.21485184 0.97413903
-0.039873 -0.21746337 0.97700012
-0.054755881 -0.20354882 0.97237051
-0.045970414 -0.20511293 0.97514749
-0.039873 -0.20784861 0.97700006
-0.054962214 -0.19494712 0.97389483
-0.046999242 -0.1986863 0.97700006
-0.072079301 -0.18298356 0.97200006
-0.063861273 -0.18380032 0.97321439
-0.057883166 -0.18743505 0.97421438
-0.082924969 -0.17196907 0.97200006
-0.074108556 -0.17532858 0.97287881
-0.066935763 -0.17802532 0.97577786
-0.10178881 -0.16188304 0.97200006
-0.094198629 -0.16403429 0.97393554
-0.085046932 -0.16688928 0.9745717
-0.077324107 -0.16883971 0.97587514
-0.12252777 -0.15125948 0.97316682
-0.11496492 -0.15374577 0.97374189
-0.10549209 -0.1564139 0.97406906
-0.098179333 -0.15854517 0.97640008
-0.15355241 -0.14192137 0.97222221
-0.1450258 -0.14341187 0.97309101
-0.13566627 -0.14596859 0.97427291
-0.12645374 -0.14877337 0.97500014
-0.119619 -0.14846329 0.97700006
-0.20364997 -0.13130541 0.97200012
-0.19581266 -0.13082311 0.97200006
-0.18315236 -0.13281806 0.97200006
-0.17556393 -0.13404432 0.97276932
-0.1658078 -0.13649599 0.97444016
-0.15511027 -0.13985687 0.97614294
-0.14591822 -0.13997968 0.97700006
-0.2129744 -0.12744704 0.97200006
-0.20364578 -0.12864999 0.97312504
-0.19549756 -0.12884009 0.97342873
-0.18504757 -0.12848608 0.97220004
-0.17814873 -0.12833534 0.97233343
-0.16221943 0.16982256 0.97300005
-0.15480284 0.16630663 0.97420019
-0.14498149 0.16450028 0.97533339
-0.13997968 0.16458218 0.97700006
-0.46261567 0.17718308 0.97500014
-0.45602745 0.17791344 0.97516686
-0.44743958 0.17863572 0.97500002
-0.16537893 0.17489161 0.97418761
-0.46360072 0.18101172 0.97320002
-0.45421517 0.18087848 0.97288895
-0.44461355 0.18505563 0.9738422
-0.43883285 0.18484704 0.97500008
-0.17136906 0.18748793 0.97700006
-0.16854671 0.18488158 0.97322232
-0.44374123 0.1944465 0.97362506
-0.43797982 0.19608378 0.97561544
-0.17229818 0.1917228 0.97266674
-0.16964802 0.19159254 0.97200006
-0.44207066 0.2011911 0.97250009
-0.43661338 0.20440514 0.97446454
-0.42842266 0.20275845 0.97700006
-0.50273031 0.21769552 0.97550005
-0.49881583 0.21775717 0.97200006
-0.44368035 0.21571419 0.97325003
-0.51282448 0.22842932 0.97360003
-0.50570768 0.22531584 0.9743914
-0.49881586 0.22197728 0.97200006
-0.44479856 0.22028923 0.97200006
-0.51464099 0.23573832 0.97213346
-0.50838137 0.23098016 0.97200006
-0.52070987 0.24454336 0.97380012
-0.51482326 0.24441327 0.97292334
-0.50894409 0.24223375 0.97200006
-0.46178317 0.24949822 0.97400004
-0.45667505 0.24538176 0.97333336
0.43877536 0.24903411 0.97550005
0.44029972 0.24856998 0.97700006
0.52889925 0.24924207 0.97300005
0.53278792 0.24859661 0.97600007
-0.51719677 0.25367492 0.972
-0.47084075 0.25535688 0.97700006
-0.46492556 0.25321293 0.97527289
0.16830558 0.25964731 0.97400004
0.17555617 0.25911415 0.97200006
0.18691222 0.25964731 0.97400004
0.27464655 0.25943407 0.97320002
0.28520095 0.25854331 0.97462505
0.29460156 0.25904375 0.97491682
0.30469012 0.25830221 0.97425008
0.316733 0.25880668 0.97530001
0.32524648 0.25879598 0.97427273
0.33594266 0.25835201 0.97550011
0.34518734 0.25896046 0.97566682
0.35456797 0.25719523 0.97512507
0.36639702 0.25541994 0.9756251
0.37614828 0.25403807 0.97520012
0.38504818 0.25415802 0.97536373
0.39513439 0.25467733 0.97440004
0.41583228 0.25393483 0.97444451
0.42461124 0.25420803 0.97492868
0.43465278 0.25247276 0.97533345
0.52244842 0.25067395 0.97200006
0.53426468 0.25067395 0.97200006
-0.51246554 0.26782233 0.97420007
-0.50857288 0.26663741 0.97250003
-0.4824301 0.26867479 0.97300005
-0.43161783 0.26923257 0.9740001
-0.42203259 0.26979637 0.97400004
-0.33001271 0.26893064 0.97700006
-0.32899934 0.26979637 0.97400004
-0.30795529 0.26893064 0.97700006
-0.29131642 0.26785681 0.97485721
-0.28840303 0.26979637 0.97400004
-0.26249021 0.26924238 0.97200006
-0.25827014 0.26924238 0.97200006
-0.21566796 0.26979637 0.97400004
-0.19029525 0.26979637 0.97400004
-0.1848824 0.26979637 0.9740001
-0.17845467 0.26979637 0.97400004
-0.15377055 0.26951939 0.97300005
-0.091388613 0.26824033 0.97450006
-0.084217697 0.26661637 0.97475004
-0.077005535 0.26908651 0.97450006
-0.053090192 0.26912692 0.97566676
-0.046616726 0.26893565 0.976143
-0.03523792 0.2681779 0.97550005
-0.025043428 0.26618257 0.97440004
-0.015167714 0.26616779 0.97453862
-0.0053154407 0.26616949 0.9740001
0.0048444318 0.26489845 0.97409105
0.015735069 0.26443547 0.97420019
0.024511313 0.26510334 0.97333336
0.034632605 0.26439571 0.97280008
0.047362376 0.26303032 0.97400004
0.055022482 0.26453483 0.97487503
0.063837163 0.26465356 0.97444451
0.074437447 0.26476714 0.97416681
0.08597976 0.26343542 0.97550005
0.094833724 0.26334536 0.97516674
0.10746624 0.262317 0.97450006
0.11537393 0.26389107 0.97458351
0.12267583 0.26396495 0.97433341
0.13554125 0.26214114 0.97488904
0.14487961 0.2632567 0.9748463
0.15455769 0.26281825 0.9740001
0.16445386 0.26236671 0.97625005
0.1754248 0.26138708 0.97328585
0.1845794 0.26203969 0.97571439
0.19424647 0.26132935 0.9745456
0.20497555 0.26156658 0.97485733
0.21433334 0.26098195 0.97477788
0.22431412 0.26155347 0.97480005
0.23596628 0.26205206 0.97540009
0.24466744 0.26158723 0.97430009
0.25474513 0.26066932 0.97466677
0.26421458 0.26083848 0.97340006
0.27062738 0.26044703 0.97700006
0.34390995 0.26089293 0.97550005
-0.53361952 0.27741426 0.97700006
-0.52414298 0.27830446 0.97516674
-0.51499707 0.27571303 0.97386974
-0.50964224 0.27299127 0.97333336
-0.48214731 0.27307048 0.97269243
-0.47527009 0.27348793 0.97403586
-0.4655425 0.27363455 0.97412509
-0.45642769 0.27318072 0.97250009
-0.44422331 0.27326286 0.97370005
-0.43631276 0.27153555 0.97316682
-0.42360991 0.27148768 0.97325009
-0.41627103 0.27137956 0.97240013
-0.40406358 0.27261513 0.97350001
-0.3953535 0.27303511 0.97435731
-0.38507631 0.27135542 0.9740001
-0.37616718 0.2726163 0.97350007
-0.36326829 0.2727389 0.97518188
-0.3544414 0.2736066 0.97394753
-0.34481943 0.27384594 0.97450012
-0.33437049 0.27282408 0.97425008
-0.32430947 0.27212608 0.97346675
-0.31588933 0.27237153 0.97530782
-0.3055231 0.27139521 0.97507709
-0.29550153 0.2716729 0.97416675
-0.28523853 0.27170548 0.97411114
-0.27520132 0.2743541 0.97516674
-0.26449367 0.27126002 0.97440004
-0.25911415 0.27093044 0.97200006
-0.24234866 0.27345526 0.97700012
-0.23516089 0.27198806 0.97377789
-0.22360648 0.27268341 0.97450006
-0.21368888 0.27172267 0.97333336
-0.20480256 0.27205101 0.97369242
-0.19533694 0.27115867 0.97383344
-0.18471465 0.27087992 0.9728334
-0.17511702 0.27113339 0.97425002
-0.16542551 0.27076209 0.97477788
-0.15788141 0.27092072 0.97440004
-0.072018482 0.27070314 0.97575003
-0.064449146 0.27107447 0.97522229
-0.056763168 0.27070314 0.97575003
-0.043549236 0.27119297 0.97700012
-0.033187702 -0.40080532 0.98000002
-0.024936076 -0.40178323 0.98483342
-0.019732008 -0.4040772 0.98800004
-0.042426769 -0.39278191 0.98000008
-0.035329226 -0.39416325 0.98041642
-0.026056085 -0.39504531 0.98537868
-0.042954322 -0.38499084 0.98066646
-0.035308644 -0.38454789 0.9833079
-0.027548527 -0.3872976 0.9864167
-0.042274054 -0.37487823 0.98214281
-0.035550591 -0.37456915 0.9861306
-0.051058006 -0.36336279 0.98000002
-0.04376179 -0.36488539 0.98203206
-0.034263182 -0.36496988 0.98514724
-0.051908966 -0.35505331 0.97999978
-0.044311319 -0.35541975 0.98197132
-0.035561193 -0.35570684 0.98600024
-0.051270738 -0.3474071 0.98000002
-0.044253968 -0.34510115 0.98221058
-0.037553512 -0.34552702 0.98740005
-0.044483598 -0.33492604 0.98259997
-0.035479438 -0.33361748 0.98742867
-0.044167675 -0.32469231 0.98158801
-0.034229651 -0.32445678 0.98634309
-0.026595315 -0.3217175 0.98800009
-0.043818332 -0.31484509 0.98128557
-0.034962848 -0.31488582 0.98560733
-0.042089183 -0.30616942 0.98033333
-0.035157416 -0.3050456 0.98372239
-0.027295044 -0.30283356 0.98749995
-0.042122856 -0.294009 0.98000002
-0.035921264 -0.29482737 0.98171419
-0.026618831 -0.29489571 0.98644018
-0.041697368 -0.28847772 0.98000002
-0.034959137 -0.28542197 0.98203564
-0.026209744 -0.28534594 0.98571897
-0.034388419 -0.275675 0.9805215
-0.026510421 -0.27473247 0.98503351
-0.034126375 -0.26529518 0.98069209
-0.026166379 -0.2644996 0.98454833
-0.019732008 -0.26166359 0.98800004
-0.034047432 -0.25536156 0.98027247
-0.025611605 -0.25443 0.98325008
-0.01798545 -0.25524366 0.98638886
-0.032853741 -0.24529776 0.98019987
-0.02560715 -0.24497509 0.98299992
-0.018186102 -0.2447879 0.98568743
-0.033840645 -0.23413152 0.98014259
-0.025423126 -0.23525959 0.98356426
-0.018225335 -0.23545755 0.98699993
-0.034908913 -0.22479276 0.98059976
-0.025672147 -0.22503176 0.98474306
-0.019732008 -0.22477332 0.98800004
-0.035507325 -0.21440926 0.98052913
-0.025887074 -0.21518445 0.98551452
-0.019732008 -0.21447834 0.98800004
-0.041697368 -0.20253009 0.98000002
-0.035463054 -0.20471309 0.9816969
-0.027412083 -0.20537311 0.98530453
-0.051058002 -0.19146751 0.98000002
-0.044045079 -0.19447012 0.9818055
-0.034885217 -0.19551776 0.98548609
-0.028717304 -0.19845521 0.98725009
-0.05381991 -0.18409728 0.98196971
-0.044833608 -0.1851698 0.9854852
-0.036878552 -0.18782546 0.98769999
-0.071197554 -0.17161161 0.98000002
-0.063976981 -0.17432456 0.98241913
-0.055399016 -0.1757804 0.98607439
-0.048901062 -0.17758808 0.98800009
-0.091053434 -0.1608327 0.98000002
-0.084263377 -0.16220509 0.98021418
-0.074817866 -0.16484478 0.98334378
-0.066169314 -0.16735427 0.98584998
-0.059196021 -0.16900893 0.98800004
-0.11232761 -0.1506211 0.98000002
-0.10360514 -0.15189403 0.98206246
-0.095051929 -0.15482885 0.98351532
-0.085857935 -0.15726371 0.98408693
-0.078521796 -0.15875724 0.98650014
-0.14097682 -0.14097682 0.98000002
-0.13378367 -0.14240663 0.98135287
-0.12494671 -0.14457965 0.9831785
-0.11513079 -0.14638698 0.98377764
-0.10654911 -0.14814335 0.98530763
-0.16351816 -0.13368732 0.98166656
-0.15560634 -0.13552792 0.98396873
-0.14554989 -0.13624389 0.98407412
-0.13524143 -0.13666761 0.98420829
-0.12784818 -0.13812752 0.98650002
-0.20508297 -0.12679404 0.98000002
-0.19034649 -0.12803575 0.98300004
-0.18806364 -0.12679404 0.98000002
-0.4549537 0.16986077 0.98300004
-0.44476682 0.16802846 0.98800004
-0.17072476 0.16900893 0.98800004
-0.1645271 0.16661796 0.98404557
-0.15608785 0.16264214 0.98284191
-0.14785229 0.16149698 0.98233336
-0.1370406 0.16512987 0.98024988
-0.46078143 0.17234576 0.98159999
-0.45451927 0.17375585 0.98325807
-0.44474682 0.17470776 0.98460025
-0.43669733 0.17672379 0.98599994
-0.1725354 0.17527083 0.98559999
-0.16894786 0.1732053 0.98100007
-0.44245166 0.18145801 0.98224998
-0.43549776 0.18494436 0.98408735
-0.42981461 0.18959886 0.98800004
-0.17407292 0.18517831 0.98427773
-0.43429551 0.19510075 0.983163
-0.42851695 0.19755021 0.98660004
-0.17749922 0.19174394 0.98433346
-0.43443453 0.20557807 0.98099995
-0.42728269 0.20217071 0.98430771
-0.5215323 0.22790363 0.98300004
-0.51487046 0.22565532 0.98250002
-0.50841588 0.22142002 0.98075002
-0.4604581 0.24813451 0.98200005
-0.45534411 0.24677372 0.98199999
0.43824786 0.24933325 0.98000002
0.44182539 0.24965279 0.98800004
0.53844047 0.24918708 0.98166674
0.54168499 0.24816316 0.98550004
-0.47312057 0.25876379 0.98350006
-0.46295044 0.25568655 0.98323804
-0.45704162 0.25281817 0.9843846
0.1761501 0.25954485 0.98000002
0.19664973 0.25892311 0.98249996
0.20467016 0.25894755 0.98328567
0.21394971 0.25970602 0.98320007
0.22134164 0.25994775 0.98800004
0.24908087 0.25937581 0.98800009
0.25516537 0.25935799 0.98281813
0.26294714 0.25924337 0.98316669
0.27730283 0.25967917 0.98266667
0.28557223 0.25696257 0.98276466
0.2944783 0.25676003 0.98156238
0.30527681 0.25745976 0.98327273
0.31485185 0.25737691 0.98223072
0.32449913 0.25703719 0.98344433
0.33505803 0.25721204 0.98364282
0.34562236 0.25707975 0.98361099
0.35503951 0.25638497 0.98441178
0.3650628 0.25472704 0.98290914
0.37372121 0.25405121 0.98262507
0.38497311 0.25315753 0.98412502
0.39386874 0.25413489 0.98492301
0.40626556 0.25545993 0.98526663
0.4144302 0.25353563 0.98438466
0.42607516 0.25245252 0.98190916
0.43434057 0.25165457 0.98309994
0.53015226 0.2527371 0.98000002
-0.47417668 0.26607466 0.98586369
-0.46581799 0.26519045 0.98556274
-0.43620726 0.26942214 0.98500007
-0.38146752 0.26942214 0.98500007
-0.37650657 0.26888499 0.98680001
-0.33442882 0.26967287 0.98125005
-0.3230837 0.26975644 0.98000002
-0.31388152 0.26960957 0.98049998
-0.30430937 0.26941201 0.982889
-0.29575652 0.26930422 0.98250008
-0.22172026 0.2695336 0.98333347
-0.21663442 0.26955587 0.98299998
-0.19268897 0.2695336 0.98333347
-0.18218069 0.26942214 0.98500007
-0.15826389 0.26964504 0.98166674
-0.09286999 0.26633626 0.98120004
-0.085076556 0.26635763 0.98316669
-0.074434623 0.26845285 0.98410517
-0.064716779 0.26791179 0.98323995
-0.05485699 0.26646137 0.98234612
-0.044398148 0.26613232 0.98247814
-0.035572484 0.26610047 0.98327762
-0.026507419 0.26650935 0.98477787
-0.014356392 0.26496938 0.98290908
-0.0054824711 0.26423392 0.9820714
0.0051245783 0.26470655 0.98337501
0.015403366 0.26356649 0.98549998
0.024945829 0.26499152 0.98380005
0.034134433 0.26585788 0.98628581
0.044741139 0.26536745 0.98710006
0.054674912 0.26351851 0.98476464
0.065109149 0.26390386 0.98399997
0.074620381 0.26437676 0.98493743
0.084297441 0.26399493 0.98391664
0.094799072 0.26305386 0.98358333
0.1042922 0.26315555 0.9818334
0.11560462 0.26296553 0.98354548
0.12602657 0.26342297 0.98283339
0.13584308 0.26212958 0.98390913
0.14523223 0.26178357 0.98385715
0.15529817 0.26231021 0.98399991
0.16352855 0.26240617 0.98500007
0.17563848 0.26115647 0.98480004
0.18484326 0.2620258 0.98550004
0.1965351 0.26135099 0.98199999
0.20508298 0.26124677 0.98000002
0.2160483 0.26079309 0.98150003
0.22462508 0.26181346 0.98563641
0.23468305 0.26230562 0.98535711
0.24441555 0.26101664 0.98263639
0.25265723 0.26033938 0.98300004
0.26637158 0.26100922 0.98185718
0.27351922 0.26071218 0.98333335
-0.53347075 0.27828565 0.98549998
-0.52580035 0.27641803 0.98353338
-0.51988292 0.27357578 0.98150003
-0.48495984 0.27113274 0.98500007
-0.47411853 0.2718395 0.98291659
-0.46357706 0.27199659 0.98357886
-0.45622641 0.27380654 0.98364288
-0.44411188 0.27234232 0.98320007
-0.43440875 0.27187136 0.98520011
-0.42207947 0.27145839 0.98000002
-0.41480014 0.27178326 0.98307687
-0.40521047 0.27152598 0.98449999
-0.3950519 0.27166849 0.98333347
-0.3839103 0.27094331 0.98342872
-0.37514293 0.27253419 0.98390001
-0.36586791 0.27235961 0.98414296
-0.355618 0.27225974 0.98212504
-0.34493938 0.27199921 0.98328567
-0.33637211 0.27186167 0.98500001
-0.32495815 0.27228042 0.98400009
-0.31595156 0.27166483 0.98075002
-0.30534944 0.27086481 0.98280001
-0.29960367 0.27058223 0.98300004
-0.28499776 0.27286321 0.98563641
-0.27609068 0.27398705 0.98392314
-0.26626617 0.27226245 0.98600006
-0.25308448 0.27539021 0.98800009
-0.24465214 0.27230474 0.98306668
-0.23460487 0.2722339 0.98486662
-0.2260744 0.27189082 0.98381817
-0.21403925 0.27067167 0.98333347
-0.20425613 0.27120152 0.98339999
-0.19586687 0.27088115 0.98358333
-0.18503161 0.27061158 0.98559999
-0.17418151 0.27134559 0.98330003
-0.16527988 0.27081999 0.98283339
-0.15232304 0.27145839 0.98000002
-0.066375405 0.27145839 0.98000002
-0.015311776 -0.40292767 0.99178249
-0.0076672682 -0.40434927 0.99600023
-0.021512961 -0.3932569 0.99100006
-0.015174021 -0.39517933 0.992818
-0.0087809591 -0.39687464 0.9970001
-0.032412857 -0.38120967 0.99100006
-0.024409721 -0.38412401 0.99123985
-0.016385594 -0.38536015 0.99333316
-0.031193787 -0.37690705 0.99100012
-0.025123341 -0.3753638 0.99329984
-0.019553477 -0.37740198 0.99640006
-0.030118143 -0.36141771 0.99100006
-0.025162473 -0.36506611 0.99472392
-0.031588431 -0.35330704 0.99146169
-0.025072785 -0.35521191 0.99579996
-0.032583021 -0.3451969 0.99163169
-0.025072783 -0.34483567 0.99579996
-0.03197157 -0.33752179 0.99100012
-0.025015166 -0.33472452 0.99349999
-0.019565461 -0.33365169 0.99700004
-0.024963055 -0.32536036 0.99135983
-0.019002825 -0.32478207 0.99475014
-0.030118143 -0.31494969 0.99100006
-0.024959723 -0.31501344 0.99119973
-0.017472362 -0.31464085 0.99516678
-0.02353771 -0.3056865 0.99100012
-0.015975922 -0.30491123 0.99474984
-0.0095230117 -0.30213919 0.99700004
-0.021799799 -0.29573148 0.99100012
-0.015706602 -0.29500419 0.9948436
-0.021512959 -0.28397107 0.99100006
-0.015735473 -0.28501889 0.99334353
-0.0095230117 -0.28309318 0.99700004
-0.021512959 -0.27536589 0.99100012
-0.015538496 -0.27490368 0.99294591
-0.0082244202 -0.27400303 0.99699998
-0.021512959 -0.26848173 0.99100006
-0.01532047 -0.26529405 0.99217844
-0.0061193788 -0.2647644 0.99619222
-0.012917181 -0.25492719 0.99183351
-0.0067401761 -0.25515828 0.99555987
-0.013258755 -0.2447083 0.99159998
-0.0070644049 -0.24490325 0.99468184
-0.013577067 -0.23453909 0.99100006
-0.0064531402 -0.23469381 0.99411994
-0.014629941 -0.2254785 0.99109977
-0.005295027 -0.2246664 0.99440533
-0.021512959 -0.21168751 0.99100006
-0.015132071 -0.21515957 0.99194258
-0.0075189653 -0.21661337 0.99630785
-0.022997435 -0.203907 0.99142873
-0.016232707 -0.20556514 0.99429017
-0.030548403 -0.19146535 0.99100006
-0.024756713 -0.19462699 0.99303555
-0.017016297 -0.19747843 0.99650002
-0.041018039 -0.18214306 0.99100006
-0.033988245 -0.18404631 0.99317223
-0.026699921 -0.1864419 0.99620008
-0.052989408 -0.17180584 0.99154556
-0.044870373 -0.17527011 0.9932285
-0.036918208 -0.17853877 0.99650002
-0.071996704 -0.16149062 0.99100006
-0.064850152 -0.16300938 0.99328572
-0.055763915 -0.16696665 0.9938572
-0.048719868 -0.16807055 0.99600005
-0.093222827 -0.15087757 0.99100012
-0.08387927 -0.15301631 0.99279994
-0.074623808 -0.15605256 0.99423987
-0.06830918 -0.15858181 0.99580002
-0.12278338 -0.14103785 0.99160004
-0.11511618 -0.14203903 0.99380016
-0.10474508 -0.14401364 0.99399984
-0.095643923 -0.14678578 0.99465221
-0.087122165 -0.1485205 0.99587506
-0.13165931 -0.13510138 0.99100006
-0.1235152 -0.13820393 0.99475008
-0.11860479 -0.13938227 0.99700004
-0.10561886 -0.13938227 0.9970001
-0.15104659 0.15967782 0.99400002
-0.44173574 0.1671471 0.99442869
-0.43719286 0.16881703 0.9970001
-0.17368852 0.16652946 0.99442863
-0.16553448 0.16234957 0.99330789
-0.15455933 0.16059923 0.99437511
-0.44085589 0.1702919 0.99550003
-0.43455306 0.17434645 0.99399996
-0.42596427 0.1769125 0.99589467
-0.18093723 0.17747432 0.9970001
-0.17691769 0.17397019 0.99329424
-0.4309994 0.18393844 0.99185723
-0.42588595 0.18523164 0.99486834
-0.4194454 0.18829592 0.99700004
-0.18187545 0.18602262 0.99550009
-0.17828138 0.18393844 0.99185729
-0.43111971 0.19361663 0.99100006
-0.42532888 0.19486517 0.994075
-0.41886824 0.19536605 0.99699998
-0.18269444 0.19132566 0.99400008
-0.17984834 0.19103508 0.99100006
-0.42411104 0.20398612 0.99414998
-0.41987824 0.20258044 0.99700004
0.54631841 0.24895334 0.99550003
0.14610437 0.25900021 0.99454564
0.15467982 0.25944152 0.99357146
0.16140407 0.25980014 0.99400002
0.2078 0.25896162 0.99300003
0.22527519 0.25980017 0.99400008
0.23300977 0.25961065 0.9946
0.24411815 0.25941744 0.99442869
0.25576183 0.25922298 0.99400008
0.26777077 0.25913042 0.99475002
0.27344674 0.25932646 0.99550009
0.28547305 0.25766471 0.99325007
0.29429728 0.25557396 0.99100006
0.30495405 0.25752571 0.99300003
0.31512097 0.25702778 0.99366677
0.32582581 0.25591478 0.99400008
0.33513081 0.2564221 0.99142873
0.34559584 0.25660557 0.99500006
0.35603708 0.25548193 0.99400014
0.36520562 0.25572959 0.99533349
0.37545121 0.25452235 0.99475014
0.38434404 0.25383139 0.99466664
0.39478156 0.25335908 0.99485731
0.40499523 0.25394657 0.99400014
0.41257298 0.25289515 0.99400002
0.42552057 0.25240046 0.99400008
0.43367895 0.25208578 0.99490017
0.44238719 0.25192696 0.99700004
0.53794295 0.25340226 0.99600005
0.54171932 0.25084445 0.99500006
-0.48364559 0.26621127 0.99509102
-0.47844821 0.26590016 0.99100006
-0.46388364 0.26771498 0.9952001
-0.45364165 0.26924151 0.99700004
-0.33737588 0.26903862 0.9920001
-0.23524019 0.2689715 0.99600005
-0.22941801 0.26924151 0.99700004
-0.19367035 0.26850799 0.99330783
-0.18798724 0.26843032 0.99400008
-0.17401139 0.26924151 0.99700004
-0.1591959 0.26934224 0.99100006
-0.080270469 0.26756564 0.99400008
-0.075146437 0.26733661 0.99475008
-0.064757369 0.26593998 0.99437511
-0.05390903 0.26551205 0.99600005
-0.044885889 0.26497889 0.99400008
-0.033863388 0.264882 0.99271441
-0.026073879 0.26557463 0.99430007
-0.018961363 0.26630265 0.99250007
-0.0095230117 0.2657786 0.99700004
0.0077681104 0.2649768 0.99400008
0.015551852 0.26351747 0.99500006
0.024874125 0.26419187 0.99400014
0.034897845 0.26530188 0.99345464
0.044891663 0.26311803 0.99311787
0.054099448 0.26187509 0.9928751
0.065197326 0.26338574 0.99357152
0.076168761 0.26356146 0.99300015
0.084434032 0.26384094 0.9933334
0.095180243 0.26289898 0.99563652
0.10577983 0.26425257 0.99481827
0.11507878 0.26296407 0.99400008
0.12481519 0.26432577 0.99509102
0.13416129 0.26207441 0.99362504
0.14456709 0.26073706 0.99100012
0.15489331 0.26073706 0.99100012
0.16562754 0.2619257 0.99271441
0.1737496 0.26235127 0.99550009
0.18513159 0.26182109 0.99512511
0.19304788 0.2611317 0.99250007
0.21580765 0.26074022 0.99512511
0.22589362 0.26070651 0.99220008
0.23570995 0.26091397 0.99250013
0.24406102 0.26071161 0.9920001
0.25538987 0.26058424 0.99700004
0.26638934 0.2606352 0.99500006
0.27571782 0.2606934 0.99271446
0.28136173 0.26058424 0.99700004
-0.54244983 0.27813345 0.99475002
-0.53645116 0.27728119 0.99325001
-0.52614099 0.27319592 0.99250001
-0.48660558 0.27162433 0.99485719
-0.46061844 0.27130669 0.99400008
-0.45424262 0.27295777 0.9941501
-0.44675717 0.27226368 0.99481827
-0.43587729 0.27361012 0.99400002
-0.42507261 0.27443588 0.99700004
-0.41461247 0.27165613 0.99475002
-0.40376112 0.27147356 0.99250007
-0.39495239 0.27223551 0.99528587
-0.3875424 0.27188385 0.99400002
-0.37291324 0.27214187 0.99314296
-0.36471757 0.27245808 0.99400014
-0.35505214 0.27312469 0.99433339
-0.34392095 0.27088225 0.99350011
-0.33443093 0.2714594 0.99350011
-0.32518911 0.2724309 0.99600005
-0.31743816 0.27122456 0.99475002
-0.30521277 0.27032068 0.9946
-0.2931667 0.27074724 0.99300003
-0.28454196 0.27176601 0.99400026
-0.27593681 0.27317324 0.99430007
-0.26379937 0.27285758 0.9936251
-0.25546652 0.27289203 0.99305266
-0.24408853 0.27092177 0.99228585
-0.23483865 0.27056926 0.99263656
-0.22872508 0.27101812 0.99400008
-0.21178173 0.27229413 0.99550003
-0.20538677 0.27150565 0.99442869
-0.19908062 0.27061045 0.99250007
-0.1855676 0.27058786 0.99400008
-0.17517084 0.27095103 0.99375021
-0.1654164 0.27124652 0.99454564
-0.15795158 0.27015761 0.99400002
-0.00087093835 -0.41021198 1.003
0.0061221845 -0.41110355 1.00625
0.01137864 -0.4113816 1.008
-0.0028731849 -0.40464106 1.0034503
0.0039194962 -0.40557399 1.0067039
-0.0047693974 -0.39464787 1.0051178
0.0019520134 -0.39570653 1.0076925
-0.012732689 -0.38271549 1.0019093
-0.0052363751 -0.38518423 1.0058752
0.00087528001 -0.38541502 1.0080001
-0.021708334 -0.3716467 1
-0.015167044 -0.37449721 1.0019689
-0.0051667239 -0.37515256 1.0059462
-0.015692992 -0.36500663 1.0028287
-0.0060581877 -0.36521733 1.0065335
-0.015541534 -0.3551895 1.0030911
-0.0065224529 -0.35541511 1.0070002
-0.0157602 -0.34520131 1.0021178
-0.0074799201 -0.34539205 1.0070001
-0.014723182 -0.33528832 1.0018215
-0.0066988654 -0.33496636 1.0065418
-0.013952051 -0.32501265 1.0014287
-0.0059952131 -0.32522044 1.006345
-0.012746844 -0.31624472 1.0010002
-0.0051232758 -0.31472766 1.0050627
0.0019693801 -0.3126938 1.008
-0.011288334 -0.30825835 1
-0.0053301835 -0.30485794 1.0032815
0.0027286101 -0.30478418 1.0077648
-0.011288334 -0.29552278 1
-0.0052208547 -0.29471463 1.0031668
0.0044489787 -0.29499274 1.0075834
0.011378641 -0.29496941 1.0080001
-0.0047724503 -0.285092 1.0036209
0.0048274845 -0.28516722 1.0074837
-0.0034778924 -0.27562556 1.0019501
0.0052464698 -0.2753135 1.0065334
0.0126878 -0.27416411 1.0076667
-0.0011582121 -0.26555473 1.0005001
0.005230478 -0.26491937 1.0035834
0.013210571 -0.26483274 1.0061767
-0.0016589115 -0.25524226 1.0013638
0.0054741306 -0.25510108 1.0045457
0.013317053 -0.2562173 1.0074445
-0.0017366669 -0.24487001 1
0.005076915 -0.24519163 1.0036178
0.013408083 -0.24482356 1.0069445
-0.0015195834 -0.23596957 1
0.0051542525 -0.23510936 1.0033429
0.014648051 -0.23502679 1.0056155
0.0052259923 -0.22456975 1.0024166
0.01372768 -0.22513898 1.0049547
-0.0037211557 -0.21416494 1.0018002
0.0051636067 -0.21481751 1.0050858
0.012791183 -0.2167941 1.0063639
-0.011288334 -0.20492668 1
-0.0052223494 -0.20503753 1.0033889
0.0035456333 -0.20599966 1.0072633
-0.021708334 -0.190165 1
-0.014561733 -0.19351578 1.0012501
-0.0059866384 -0.19555309 1.0048002
-0.030391667 -0.18148167 1
-0.02260828 -0.1839661 1.0015001
-0.015163386 -0.18552049 1.0055186
-0.0075235874 -0.18951027 1.0075999
-0.041680004 -0.17193 1
-0.034160446 -0.17460525 1.0025457
-0.025301861 -0.1759422 1.004871
-0.01766607 -0.17789026 1.0072
-0.06171158 -0.16080232 1.001
-0.054901548 -0.16286767 1.0017649
-0.045450334 -0.16507421 1.0043235
-0.036011133 -0.16763909 1.0061113
-0.081623331 -0.15022168 1
-0.074022502 -0.15202764 1.0029289
-0.064371958 -0.15509091 1.0040001
-0.05578297 -0.15713802 1.0062633
-0.049890961 -0.15842569 1.008
-0.094486274 -0.14252505 1.0026472
-0.085497379 -0.14471845 1.005069
-0.077026471 -0.14851925 1.0067776
-0.12122303 -0.13642928 1.0007501
-0.11461318 -0.13637877 1.0013334
-0.10547872 -0.13629298 1.0006001
-0.095324762 -0.13873433 1.0036
-0.087528005 -0.13916953 1.008
-0.16490814 0.15845108 1.0064617
-0.15717931 0.15796775 1.0040911
-0.44189465 0.16647361 1.0037501
-0.43606213 0.16806774 1.0060771
-0.18155967 0.16722901 1.0062001
-0.1754557 0.16349787 1.0038574
-0.16684699 0.16076216 1.0007501
-0.4329434 0.17125703 1.0045556
-0.42442206 0.17509454 1.0047694
-0.41698518 0.1787705 1.00675
-0.18451037 0.17500722 1.004389
-0.42183638 0.18287101 1
-0.41572788 0.18504128 1.0045238
-0.40851146 0.18772309 1.0074
-0.19159125 0.18546602 1.0075001
-0.18689428 0.18436143 1.0034002
-0.41482767 0.1948345 1.0034548
-0.40729976 0.19551761 1.007
-0.41519848 0.20164987 1.0030001
-0.40651861 0.20107475 1.0068001
0.37772501 0.24921167 1
0.53904355 0.24945958 1.0045
0.54483235 0.24805762 1.0043812
0.55219054 0.24702087 1.007
0.013103151 0.25944239 1.006
0.10799636 0.25866869 1.003
0.11610535 0.25815913 1.0036669
0.12344819 0.258412 1.0054001
0.131292 0.25995818 1.008
0.16805376 0.25995818 1.008
0.17243016 0.25995818 1.008
0.18525285 0.25952837 1.0063334
0.19343689 0.25995818 1.008
0.21707639 0.25950548 1.0040001
0.22442588 0.25943962 1.0035456
0.23498821 0.25954732 1.0041668
0.24533466 0.25860432 1.003889
0.2558158 0.25886375 1.0043335
0.26535991 0.25887641 1.0047858
0.27469435 0.25836036 1.0042728
0.28408077 0.25908935 1.0038888
0.299575 0.25789499 1
0.30546856 0.25789812 1.0034002
0.31444782 0.25721008 1.0048001
0.32248569 0.25735375 1.0046667
0.33675879 0.25803685 1.0073333
0.34493494 0.2570644 1.0052501
0.35472253 0.25626671 1.0052
0.36566389 0.25417039 1.0031334
0.37459499 0.25234225 1.0031177
0.38548642 0.25216308 1.0026876
0.39502025 0.25288403 1.00425
0.40456864 0.25225016 1.0032144
0.41455716 0.2530309 1.0036668
0.42600116 0.25315925 1.0053334
0.43533173 0.25125286 1.0047001
0.44413096 0.25220197 1.006
0.53833562 0.25243902 1.0007501
0.54483014 0.25088799 1.0015
-0.53408992 0.26952028 1.0066667
-0.49368113 0.26808837 1.0056667
-0.48836872 0.26677698 1.0007501
-0.46347359 0.26814809 1.00425
-0.45574594 0.26862156 1.0030001
-0.41925913 0.26871097 1.008
-0.39737713 0.26871097 1.008
-0.3729139 0.26853266 1.0073333
-0.36569202 0.26836085 1.008
-0.35688874 0.26813418 1.0077143
-0.27133679 0.26871097 1.008
-0.26494002 0.26901612 1.0064168
-0.25860214 0.26907423 1.0050001
-0.23358396 0.26916784 1.005625
-0.2262532 0.26923123 1.0071429
-0.21512184 0.2683737 1.0063531
-0.20593423 0.26972258 1.0063334
-0.19829434 0.26992491 1.006
-0.1842673 0.26942021 1.0057501
-0.17477843 0.26813215 1.0054003
-0.16549581 0.26810575 1.004867
-0.15938172 0.26824901 1.003
-0.082895659 0.26695848 1.0022501
-0.074885167 0.26557371 1.0027778
-0.065712683 0.26522183 1.0052145
-0.055789843 0.26676938 1.0039999
-0.045257412 0.26591584 1.0050001
-0.03486865 0.26585692 1.0038335
-0.023207603 0.26492754 1.0047336
-0.015058046 0.26495588 1.0040457
-0.0051834905 0.26569793 1.0044119
0.0048608477 0.2647827 1.0041907
0.014557113 0.26227352 1.0030001
0.024214519 0.26342198 1.0032001
0.034908421 0.26461199 1.0027274
0.044718623 0.26285896 1.0048751
0.056151751 0.26248795 1.0026251
0.065172106 0.26270968 1.0029168
0.074577354 0.26286033 1.0031539
0.085617475 0.2630212 1.0037693
0.095393226 0.26204696 1.0048335
0.10497103 0.26182872 1.0021876
0.11393657 0.26188892 1.0004616
0.1252059 0.2619268 1.0013125
0.13491303 0.26184079 1.0043848
0.14210276 0.26067021 1.0040001
0.16567208 0.2615476 1.0037273
0.17524414 0.26205513 1.0040716
0.18414263 0.26105881 1.0024548
0.19421926 0.2612789 1.0030001
0.21385384 0.26056635 1.0036001
0.25725129 0.26072985 1.0020001
0.26349968 0.26088947 1.0015
0.27915311 0.26088947 1.0015
-0.55055112 0.27746376 1.008
-0.54378194 0.27676803 1.0049092
-0.53569418 0.27409735 1.0049447
-0.49402174 0.2716628 1.0034001
-0.46177536 0.27089092 1.0015
-0.45320034 0.27079085 1.0027499
-0.44524851 0.27358109 1.0066
-0.43478379 0.27382141 1.005
-0.42564881 0.27269351 1.0053046
-0.41559404 0.27169204 1.0049093
-0.40506014 0.27199444 1.0053574
-0.39527681 0.27194631 1.0040909
-0.38546944 0.27179921 1.0039002
-0.37453291 0.271433 1.0051252
-0.36492434 0.2718043 1.0061178
-0.35558513 0.27193344 1.004706
-0.34610149 0.27093428 1.0039999
-0.33510229 0.27212846 1.0041112
-0.32474041 0.27232584 1.006
-0.31548774 0.27168331 1.0032858
-0.309995 0.27178833 1
-0.29263529 0.27173015 1.003
-0.28478777 0.27043676 1.0039232
-0.27492359 0.27184814 1.0039049
-0.26501861 0.27150488 1.0024548
-0.25548711 0.27170655 1.0042001
-0.24696182 0.27209696 1.005
-0.22433716 0.27172646 1.0052859
-0.2153772 0.2723037 1.0035002
-0.20554289 0.27093324 1.0025556
-0.1834382 0.27107042 1.0012001
-0.175577 0.27005169 1
-0.16498333 0.27005172 1
-0.158905 0.27005169 1
0.016054854 -0.41221949 1.0118182
0.022545533 -0.41284159 1.0152858
0.008539428 -0.40438581 1.0109999
0.014760562 -0.40522701 1.014182
0.020311186 -0.40887299 1.0170001
0.0069725625 -0.39448008 1.0126071
0.013597278 -0.39508966 1.0152632
0.005576517 -0.38424724 1.0131818
0.012222661 -0.38668403 1.0157144
0.0048521385 -0.3748123 1.01475
-0.00087788509 -0.36467344 1.011
0.0043421346 -0.36471868 1.0149231
-0.0019951933 -0.35394728 1.0109999
0.0052393884 -0.35509694 1.0152187
-0.0024021575 -0.34503677 1.0128
0.0049628518 -0.34516656 1.0155001
0.011980023 -0.34438923 1.0165716
-0.0014645889 -0.33560964 1.0126667
0.0052893814 -0.33488849 1.0149168
0.013128283 -0.33511609 1.0157648
-0.00087840605 -0.32413289 1.0116001
0.0052872831 -0.32503065 1.0144
0.014156532 -0.32442737 1.0154212
0.0065337932 -0.31575048 1.0119129
0.014909187 -0.31508559 1.0141112
0.020311188 -0.31349874 1.0170001
0.0079009654 -0.30524579 1.0109999
0.015025456 -0.30514836 1.0133572
0.020563498 -0.30567706 1.0170002
0.0074620224 -0.29540831 1.011
0.015290149 -0.29476219 1.0126154
0.020311186 -0.29513034 1.0170001
0.0079009654 -0.28531262 1.011
0.014953073 -0.28491721 1.0127143
0.021194283 -0.28413582 1.0170001
0.016966365 -0.27543566 1.0119231
0.022042934 -0.27507523 1.0153334
0.01773328 -0.2658236 1.011
0.023786046 -0.26477021 1.01436
0.017220054 -0.25397891 1.0109999
0.024004824 -0.25531343 1.0139999
0.017655246 -0.24532011 1.011
0.02365765 -0.24524184 1.0144445
0.018435586 -0.23176165 1.011
0.022940762 -0.23491913 1.0142609
0.018003479 -0.22394241 1.0113751
0.021663928 -0.22606826 1.0152858
0.0079009654 -0.21157029 1.011
0.016155936 -0.21415429 1.0127368
0.020311186 -0.21547519 1.0170002
0.0071821385 -0.20403373 1.0115293
0.014426591 -0.20582715 1.0136538
-0.00146401 -0.19273876 1.0120001
0.0051323101 -0.19577371 1.0145293
0.011964766 -0.19735147 1.0152858
-0.012129402 -0.18158464 1.0122001
-0.0055035516 -0.1852212 1.0145625
0.0019428091 -0.18880571 1.0170001
-0.022182226 -0.17241193 1.01175
-0.01530497 -0.17502606 1.0152273
-0.0097140456 -0.17926829 1.0170001
-0.0426897 -0.16145061 1.0116001
-0.034658037 -0.16340607 1.0135714
-0.025335625 -0.1664198 1.0155001
-0.018544996 -0.16867115 1.0170001
-0.071108684 -0.15011834 1.011
-0.064204462 -0.15083569 1.0128751
-0.053899571 -0.15377788 1.0134375
-0.045740247 -0.15821373 1.0148182
-0.037089992 -0.1598402 1.0170001
-0.081482835 -0.14167292 1.0134001
-0.075103551 -0.14427377 1.0152001
-0.067998327 -0.14606394 1.0170002
-0.084173918 -0.13873246 1.0133333
-0.075946175 -0.13864592 1.0170001
-0.43006727 0.1598402 1.0170001
-0.41947013 0.15895709 1.0170001
