# .PCD v0.7 - Point Cloud Data file format
VERSION 0.7
FIELDS x y z
SIZE 4 4 4
TYPE F F F
COUNT 1 1 1
WIDTH 1398
HEIGHT 1
VIEWPOINT 0 0 0 1 0 0 0
POINTS 1398
DATA ascii
-0.1101915 -0.23344275 0.94000006
-0.10456831 -0.23528405 0.94083351
-0.09520559 -0.23529249 0.94524997
-0.089726619 -0.23570389 0.94800013
-0.11265078 -0.22414565 0.94066685
-0.10469843 -0.22493985 0.94200009
-0.095842786 -0.22565933 0.94620001
-0.089726619 -0.22966723 0.94800007
-0.11330772 -0.21521865 0.9404003
-0.10497224 -0.21487573 0.94449985
-0.098428823 -0.21614355 0.94800007
-0.11406951 -0.20502664 0.94005752
-0.10484064 -0.20470661 0.94502562
-0.097431593 -0.20484012 0.94800001
-0.13141356 -0.19018237 0.94000006
-0.12408873 -0.19293702 0.94016695
-0.11515177 -0.19536355 0.9430207
-0.10582805 -0.19550958 0.94753122
-0.099193193 -0.19715162 0.94800007
-0.14243272 -0.18079568 0.94000006
-0.1346703 -0.18392827 0.94094306
-0.12458102 -0.18482397 0.94317067
-0.11616439 -0.1859103 0.94735718
-0.10783658 -0.18686187 0.94800007
-0.15364024 -0.17209966 0.9400003
-0.1450859 -0.17439814 0.94100016
-0.13528757 -0.17508243 0.94551075
-0.12653676 -0.17674306 0.94714284
-0.11853792 -0.17863007 0.94800007
-0.17249732 -0.16134213 0.94000006
-0.16432172 -0.16314927 0.94257158
-0.15496776 -0.16519062 0.94453502
-0.14540261 -0.16731471 0.94644433
-0.13794649 -0.16838764 0.94749999
-0.19234081 -0.1519298 0.94142878
-0.18429707 -0.15362981 0.9424668
-0.17495355 -0.15591073 0.94478959
-0.16520156 -0.157148 0.94752634
-0.15821521 -0.15755665 0.94800007
-0.23350045 -0.14131443 0.94071442
-0.22509545 -0.14243156 0.94408345
-0.21488512 -0.14305644 0.94300014
-0.20503536 -0.14482976 0.94346172
-0.19573961 -0.14743903 0.94630444
-0.18719114 -0.14833705 0.94800007
-0.32486087 -0.13141356 0.94000006
-0.31697065 -0.13141356 0.94000006
-0.30428487 -0.13005723 0.94200003
-0.29483938 -0.13149296 0.94057149
-0.28445458 -0.13159369 0.94214296
-0.2753655 -0.13342226 0.94403851
-0.26475939 -0.13391277 0.94335145
-0.25561652 -0.13523777 0.94433337
-0.24497402 -0.13743061 0.94382614
-0.23573446 -0.13854249 0.94411129
-0.22555134 -0.13911742 0.94800007
-0.21814272 -0.13911742 0.94800013
-0.32373068 -0.12842055 0.94066674
-0.31430972 -0.12698601 0.94018209
-0.3052558 -0.12814443 0.94428575
-0.29479516 -0.12696552 0.94113654
-0.28661358 -0.12879534 0.94175023
-0.27453053 -0.12882768 0.94800007
-0.2647844 -0.12910295 0.94700015
-0.25820416 -0.12869048 0.94800013
-0.13211259 0.16985904 0.94500005
-0.12100746 0.16875191 0.94800007
-0.11792706 0.16811326 0.94749999
-0.14396858 0.17613763 0.94524997
-0.13539018 0.17277038 0.94210023
-0.12472257 0.17202741 0.94323993
-0.11769423 0.17254381 0.94287497
-0.15099394 0.18637507 0.94762498
-0.14730561 0.18395223 0.94284624
-0.15187863 0.19429933 0.94340003
-0.14952961 0.19120093 0.94100004
-0.47950235 0.20785294 0.94800007
-0.48265788 0.22856966 0.94800013
-0.47424093 0.22808179 0.94612497
-0.46422961 0.22819196 0.94780004
-0.45851126 0.22966723 0.94800007
-0.48261067 0.23386967 0.94707698
-0.47456169 0.23518462 0.94637835
-0.46538252 0.23287617 0.94616669
-0.45851126 0.23460631 0.94800007
-0.47662124 0.24119174 0.94800007
0.24130116 0.25929651 0.94200003
0.27996805 0.25874597 0.94000006
0.28482008 0.25881869 0.94325006
0.29465154 0.25899234 0.94288892
0.30450907 0.25899294 0.94355565
0.31577367 0.25929874 0.9445715
0.3255907 0.25875184 0.94449997
0.33477268 0.2572771 0.9449445
0.34554499 0.25787792 0.94480962
0.35421759 0.25696769 0.94176924
0.36557406 0.2566953 0.94235295
0.37542188 0.25811264 0.94400007
0.38586083 0.25860375 0.94407701
0.39506769 0.25763369 0.94491673
0.40482593 0.25649181 0.9441334
0.41532245 0.2554318 0.9430002
0.42418984 0.25565746 0.9444375
0.50959533 0.25602463 0.94200003
0.51430058 0.25342226 0.94395447
-0.41657862 0.2699692 0.94500005
-0.34109351 0.26911214 0.94200003
-0.33438432 0.26955891 0.94500005
-0.12258326 0.26870489 0.94385725
-0.11497494 0.2693603 0.94575
-0.10729926 0.26702186 0.94040006
-0.086712733 0.26794973 0.94111103
-0.075585201 0.26879531 0.94171435
-0.069379836 0.26854077 0.94000006
-0.052597996 0.26847696 0.9465
-0.044796269 0.26838377 0.94521052
-0.035323799 0.2697061 0.9460001
-0.023992548 0.26928508 0.9434287
-0.014715429 0.26863042 0.94175005
-0.0049128858 0.26779562 0.94216675
0.0057230769 0.26804397 0.94112504
0.014483028 0.26706693 0.94377786
0.023943743 0.26815003 0.9449091
0.034834735 0.26660275 0.94277787
0.044645295 0.26555583 0.94341671
0.055977244 0.26617327 0.94442117
0.06354747 0.26530629 0.94381821
0.076192483 0.26664558 0.94486678
0.084782325 0.26614791 0.9442668
0.095328785 0.26538506 0.94576937
0.10483301 0.26399237 0.94390905
0.11491241 0.26446804 0.94325
0.12284645 0.2645292 0.94316667
0.13546757 0.26371679 0.94345462
0.14237282 0.26295653 0.94340003
0.15368284 0.26459104 0.94533348
0.16281103 0.26470077 0.94628584
0.17727327 0.26454458 0.94516677
0.18495631 0.2627055 0.94250005
0.19402072 0.26349622 0.94450009
0.2054709 0.26209319 0.94274998
0.21384802 0.26187342 0.94277787
0.22501832 0.2635811 0.94338477
0.23536697 0.26161295 0.94446158
0.24498628 0.26226214 0.94407701
0.25608423 0.26227024 0.94355565
0.26429358 0.26123083 0.9446668
0.27431169 0.26095659 0.94421434
0.31590056 0.26022476 0.94300014
0.34217978 0.26012227 0.94500005
0.37138617 0.26037845 0.94000006
0.39342448 0.26037845 0.94000006
-0.51217294 0.27925298 0.94450009
-0.50520402 0.27851167 0.94463646
-0.4953056 0.27841806 0.9448182
-0.48316631 0.27632815 0.94150007
-0.47405097 0.27324787 0.94160002
-0.4636727 0.27350765 0.94400012
-0.45541915 0.27489263 0.94500005
-0.44134375 0.27389205 0.94533342
-0.43493858 0.27275631 0.94330007
-0.42515138 0.27256417 0.9426316
-0.41515547 0.27238458 0.9432106
-0.40566239 0.27294207 0.94136381
-0.39575508 0.27274954 0.94327271
-0.38516262 0.27267435 0.94435287
-0.3759118 0.27217346 0.94316667
-0.36315078 0.27328503 0.94512504
-0.35487223 0.27394617 0.94384211
-0.34384415 0.27173725 0.94057149
-0.33482394 0.27196586 0.94093353
-0.32685229 0.27247921 0.94162506
-0.31703633 0.27127776 0.94099998
-0.30180663 0.2726953 0.94450009
-0.29523924 0.27409324 0.94640005
-0.28535953 0.27375349 0.94641179
-0.27575788 0.27259529 0.94314295
-0.26456147 0.27253598 0.94414294
-0.25434506 0.27319983 0.94412506
-0.24512245 0.27195847 0.94315386
-0.23529403 0.27191469 0.94416666
-0.22500081 0.27308008 0.94442105
-0.2153085 0.27356121 0.94495004
-0.20553905 0.27210662 0.94388896
-0.19517317 0.27317381 0.9422223
-0.18470122 0.27306929 0.94357139
-0.17571846 0.27142984 0.94210017
-0.16437958 0.27139851 0.94370002
-0.1540788 0.27279735 0.94449997
-0.14690667 0.27327004 0.94633347
-0.12161877 0.27017325 0.94000006
-0.11657227 0.27044195 0.94257152
-0.083212972 0.27039093 0.94266671
-0.064515866 0.27031696 0.94050002
-0.055942252 0.27034867 0.94142866
-0.048157766 0.27017325 0.94000006
-0.5144906 0.28067625 0.94680005
-0.071947671 -0.39065135 0.9568001
-0.067380935 -0.39097577 0.95800012
-0.083359472 -0.38424808 0.95273536
-0.07565476 -0.38519931 0.95572227
-0.067380935 -0.38806427 0.95800006
-0.091466568 -0.3732996 0.95088887
-0.085270539 -0.37462795 0.95469582
-0.078119531 -0.37501913 0.95800012
-0.092665479 -0.36464041 0.95255554
-0.085225508 -0.36486813 0.95729423
-0.079027019 -0.36601987 0.95800006
-0.094145626 -0.35426596 0.95270282
-0.085908793 -0.35490313 0.95800012
-0.079027019 -0.3560375 0.95800006
-0.09495765 -0.34441391 0.95273703
-0.086514145 -0.34415191 0.95710009
-0.10219802 -0.33445784 0.94999993
-0.095129475 -0.3345373 0.95193046
-0.085461952 -0.33427626 0.95720595
-0.079027019 -0.33108163 0.95800006
-0.10212469 -0.32435724 0.94999993
-0.095087901 -0.32475427 0.95269066
-0.084884636 -0.32472751 0.95781261
-0.079027019 -0.32426032 0.95800012
-0.10173973 -0.31456825 0.94999999
-0.095047385 -0.31491235 0.95187175
-0.085029446 -0.31470022 0.95729423
-0.078472443 -0.31361249 0.95800006
-0.094042346 -0.30503875 0.95056272
-0.084736794 -0.30484185 0.95702875
-0.078472443 -0.30510899 0.95800006
-0.094463095 -0.29564777 0.9501074
-0.085326321 -0.2948972 0.95504999
-0.078195155 -0.29447961 0.95800012
-0.09255565 -0.28690603 0.94999993
-0.085408874 -0.28524315 0.95405257
-0.076380186 -0.28487542 0.95800012
-0.085110404 -0.27516842 0.95120013
-0.075420156 -0.2746067 0.95654839
-0.0921157 -0.2636984 0.95000005
-0.085037418 -0.26538262 0.95127922
-0.074819878 -0.2649242 0.95741677
-0.069044657 -0.26037323 0.95800006
-0.092390671 -0.25984874 0.95000005
-0.085094213 -0.25541511 0.95102447
-0.074687734 -0.25472182 0.95605719
-0.069044657 -0.25455019 0.95800012
-0.084621973 -0.24479407 0.9505716
-0.074882723 -0.24517566 0.95536363
-0.068420753 -0.24352799 0.95800012
-0.084618084 -0.23447724 0.95038497
-0.074450597 -0.23513849 0.95413512
-0.067453675 -0.23474278 0.9576472
-0.092390679 -0.22190259 0.94999999
-0.084972434 -0.22439417 0.95007181
-0.074563071 -0.22505638 0.95528942
-0.068490081 -0.22820786 0.95800006
-0.093815528 -0.21447833 0.95000011
-0.085040472 -0.21467066 0.95085728
-0.075892106 -0.21531777 0.95613807
-0.092574589 -0.20434657 0.95019996
-0.084983222 -0.20514955 0.9540683
-0.077763759 -0.20542906 0.95781261
-0.10429304 -0.19102713 0.94999999
-0.094498225 -0.19471602 0.95302504
-0.085127614 -0.19511548 0.9576844
-0.078195155 -0.19881535 0.95800006
-0.11361355 -0.18215661 0.94999993
-0.10477328 -0.18472171 0.95162529
-0.095678598 -0.18583696 0.95670599
-0.087012917 -0.18733564 0.95800012
-0.12401249 -0.1730492 0.94999993
-0.11465528 -0.17464496 0.95259541
-0.10575899 -0.17721863 0.95604002
-0.098437175 -0.17829606 0.95800006
-0.15178467 -0.16085875 0.95000005
-0.14372808 -0.16240194 0.95261919
-0.13460954 -0.16435042 0.95444751
-0.12511499 -0.16608755 0.95553863
-0.1167022 -0.16820145 0.95658344
-0.18230659 -0.15095976 0.95000005
-0.17452881 -0.15119545 0.94999999
-0.1644019 -0.1523799 0.95186365
-0.1546489 -0.1543813 0.9529475
-0.14556384 -0.15635468 0.95590639
-0.13503915 -0.15833132 0.95800006
-0.20276454 -0.14139073 0.94999999
-0.19378905 -0.14258155 0.9525218
-0.18484299 -0.14477506 0.95434296
-0.17555782 -0.14696495 0.95432162
-0.16621237 -0.14777951 0.95584226
-0.15722218 -0.14890353 0.95800006
-0.27964675 -0.13116175 0.95000005
-0.25276047 -0.13208418 0.95190001
-0.24478209 -0.1330637 0.95236385
-0.23465824 -0.13354345 0.95348495
-0.22508775 -0.13436355 0.95371443
-0.21479501 -0.136857 0.95481485
-0.20519026 -0.13774362 0.95459098
-0.19690618 -0.13879323 0.95609105
-0.28129658 -0.12951192 0.95000005
-0.27799693 -0.12868699 0.95000005
-0.2614986 -0.12786208 0.95000005
-0.25548416 -0.12886329 0.95042861
-0.24450174 -0.12928851 0.9535715
-0.23453753 -0.12721729 0.95443755
-0.2270987 -0.12852289 0.95800006
-0.14362377 0.16840762 0.95607156
-0.13442694 0.16734329 0.95539999
-0.12582362 0.16718869 0.95294744
-0.15262955 0.17585717 0.95558828
-0.14677006 0.17311019 0.95206672
-0.13858601 0.17075776 0.95000005
-0.48161763 0.18867494 0.95300007
-0.47392234 0.18642005 0.95383984
-0.46552235 0.18762213 0.95524001
-0.15567745 0.18498302 0.95382619
-0.48396745 0.19602847 0.95436358
-0.47512811 0.19500649 0.95160007
-0.46441904 0.19493552 0.95320386
-0.16029824 0.1910277 0.95650005
-0.1569836 0.19230282 0.95150006
-0.49329498 0.20214279 0.95800006
-0.48449975 0.2040507 0.9547143
-0.47419474 0.20479146 0.95063668
-0.46426246 0.20487705 0.95334709
-0.45548302 0.205924 0.95800012
-0.48277551 0.21595865 0.95288241
-0.47409368 0.21488084 0.95204896
-0.46450013 0.21473184 0.95394093
-0.45833212 0.21627682 0.95388246
-0.49164549 0.22766311 0.95480007
-0.48518032 0.22483884 0.9524349
-0.47516948 0.22360574 0.95070016
-0.46508983 0.2235001 0.95124143
-0.45546034 0.22579642 0.95413953
-0.44837436 0.22876242 0.95800006
-0.49187079 0.23475707 0.95362508
-0.48722062 0.23418745 0.95074999
-0.46379691 0.23648848 0.95018739
-0.45440739 0.23488648 0.95351052
-0.4462029 0.23272979 0.95690918
-0.49132332 0.24524808 0.95740014
-0.4850398 0.24518991 0.95277286
-0.47443655 0.2457965 0.95133364
-0.46488604 0.24415572 0.95351511
-0.45595169 0.24241617 0.95362502
0.5224328 0.24960676 0.95500004
-0.49229676 0.25238734 0.95800012
-0.48465458 0.2547195 0.95481485
-0.47559771 0.25340909 0.95508009
0.044088759 0.25870949 0.95800006
0.26502872 0.25946474 0.95245457
0.27524799 0.25929871 0.95500004
0.28120756 0.25970331 0.95250005
0.29419509 0.25968254 0.9528572
0.30521917 0.25984874 0.95000005
0.31636891 0.25922862 0.95490921
0.32417893 0.25780487 0.95378578
0.33217049 0.25762928 0.95400006
0.34439704 0.25602227 0.95242864
0.35556531 0.25693449 0.95450008
0.36458161 0.25709566 0.95544457
0.37661943 0.25687772 0.95385718
0.38564777 0.25607675 0.95369256
0.39485779 0.25412863 0.95331818
0.40473643 0.25450966 0.9536472
0.41386807 0.25439671 0.95358825
0.42607933 0.25429168 0.95322227
0.43186972 0.25369966 0.95170003
0.51706231 0.25170574 0.95275009
0.52204984 0.25084156 0.95340008
-0.4858838 0.26128069 0.95800012
-0.47798872 0.26103872 0.95800012
-0.36404443 0.26950896 0.95500004
-0.35553908 0.26974776 0.95000005
-0.26809794 0.26974776 0.95000005
-0.2429727 0.26950896 0.95500004
-0.23345143 0.26974776 0.95000005
-0.22181807 0.26921231 0.95200008
-0.21582958 0.26916784 0.95128584
-0.20814385 0.26950896 0.95500004
-0.15183373 0.2688182 0.95550007
-0.14669226 0.26810503 0.95120001
-0.12430904 0.26793727 0.95060009
-0.11194988 0.26950896 0.95500004
-0.086354032 0.26874098 0.95228583
-0.061461505 0.26910043 0.95650005
-0.05537086 0.26753199 0.95172727
-0.044954665 0.26639909 0.95160002
-0.035590209 0.26883322 0.95320004
-0.025871269 0.26970798 0.95083332
-0.016085876 0.26974776 0.95000005
-0.0024886434 0.26923662 0.95600003
0.0053539863 0.26903144 0.95545459
0.014928388 0.26753139 0.95514297
0.025230847 0.26769367 0.9539091
0.035184372 0.26689941 0.9550001
0.045144327 0.26363751 0.95555574
0.054363947 0.2638469 0.95288235
0.065831356 0.26566219 0.95527279
0.07514292 0.26382464 0.95445842
0.083973423 0.2645683 0.95342857
0.094048455 0.26449066 0.95485717
0.10529138 0.26472956 0.95485723
0.11569804 0.26301146 0.95175004
0.12532982 0.26448736 0.95392317
0.13456957 0.26380268 0.95290917
0.14639252 0.26376322 0.954889
0.15544565 0.2639035 0.95393348
0.16574578 0.26409778 0.95381254
0.17539597 0.26402122 0.95391691
0.18505789 0.26245624 0.95462501
0.19497463 0.26295504 0.95469999
0.20387848 0.26366651 0.95637512
0.21496677 0.26239124 0.95400006
0.22510798 0.26217359 0.95508695
0.23362148 0.26179242 0.9543637
0.24589957 0.26213312 0.95566678
0.25457171 0.26259628 0.95353848
0.26120886 0.26120886 0.95700014
0.27441439 0.26073205 0.95475006
0.28433347 0.26057065 0.95466679
0.29447961 0.26037323 0.95800006
0.30363017 0.26037323 0.95800006
0.31195483 0.26047194 0.9563334
-0.52187657 0.2787745 0.95550007
-0.5147267 0.27761772 0.95216668
-0.50395536 0.27735537 0.95300001
-0.49449459 0.27714229 0.95404559
-0.4848446 0.27420267 0.95504355
-0.47768044 0.27592582 0.95616674
-0.46563783 0.27438748 0.95211112
-0.45664111 0.27626634 0.95400012
-0.44497439 0.2745935 0.95250005
-0.43506452 0.27368304 0.95800006
-0.42419067 0.27178973 0.95385724
-0.41338313 0.27347639 0.95533341
-0.40455434 0.27351555 0.95510006
-0.39501402 0.2724404 0.95250005
-0.38689491 0.27177823 0.95455563
-0.37558648 0.2741971 0.95400012
-0.36229408 0.27151304 0.95200002
-0.35477394 0.27190214 0.95211768
-0.34680739 0.27307495 0.95257151
-0.33391702 0.27326393 0.95266676
-0.32422876 0.27365267 0.9550001
-0.31028503 0.27201933 0.95800006
-0.30409056 0.27158269 0.9542309
-0.29545012 0.27190197 0.95338887
-0.28523275 0.27247903 0.95380014
-0.27580565 0.27249953 0.95385718
-0.26506168 0.27287608 0.95435727
-0.25551376 0.27178967 0.95283329
-0.24468498 0.27103341 0.9530834
-0.234798 0.27116442 0.95181823
-0.22524488 0.27097827 0.95191669
-0.21444023 0.27101582 0.95188892
-0.20483929 0.27187485 0.95312512
-0.19465499 0.2732724 0.95450002
-0.18603507 0.27235597 0.95433342
-0.17560905 0.27235547 0.95600009
-0.16528168 0.27183259 0.95491672
-0.15489917 0.27107292 0.95225
-0.1475414 0.2711316 0.95100009
-0.12062018 0.27035558 0.95800006
-0.11539774 0.27085391 0.95455563
-0.082583025 0.27068037 0.9568001
-0.074800417 0.27150542 0.95716679
-0.064738408 0.272219 0.95578581
-0.058754042 0.2705996 0.95300007
-0.030698624 0.27047759 0.95550007
-0.024456782 0.27035558 0.95800012
-0.014961241 0.27039626 0.95716679
-0.0051549482 0.2704044 0.95700008
0.0024916828 0.27076155 0.95650005
-0.06236482 -0.39195839 0.96128577
-0.055406503 -0.39291728 0.96687496
-0.072121911 -0.38278255 0.96100008
-0.06463398 -0.38471571 0.96258354
-0.056945305 -0.38667843 0.96869993
-0.073666863 -0.37521037 0.96100026
-0.066010192 -0.37561679 0.96557891
-0.059740465 -0.37779534 0.96900004
-0.083029598 -0.36174202 0.96100003
-0.074511692 -0.36531237 0.96234286
-0.065726556 -0.36524057 0.96875685
-0.083446845 -0.3546491 0.9610002
-0.075127408 -0.3555297 0.96417147
-0.066782035 -0.35570633 0.96885711
-0.082135528 -0.34594676 0.9610002
-0.075271912 -0.34515324 0.96322221
-0.065839469 -0.34484389 0.96719986
-0.059740465 -0.34077308 0.96900004
-0.080943428 -0.33712521 0.96100003
-0.074956872 -0.33523253 0.96275753
-0.06572441 -0.33510557 0.96795005
-0.059740465 -0.33348083 0.96900004
-0.080943428 -0.32377374 0.96100003
-0.074620813 -0.32535949 0.9635483
-0.066352397 -0.32520133 0.96889997
-0.059740465 -0.32899326 0.96900004
-0.080943428 -0.31709796 0.96100003
-0.073990554 -0.31524479 0.9617601
-0.067405812 -0.31401056 0.96794987
-0.073929623 -0.30496874 0.96144468
-0.06565477 -0.30479646 0.96827263
-0.059740465 -0.3029094 0.96900004
-0.073542066 -0.29522032 0.96100032
-0.065445311 -0.29486609 0.96556228
-0.058394201 -0.29443917 0.96899998
-0.07176429 -0.28538823 0.96100014
-0.065155551 -0.28474995 0.96311426
-0.056860052 -0.28392845 0.96818173
-0.070929818 -0.27620903 0.96100008
-0.065160602 -0.27481982 0.96248573
-0.055568025 -0.27459365 0.96794105
-0.049643487 -0.27345988 0.96900004
-0.065062016 -0.26507822 0.96211779
-0.055680703 -0.2651301 0.96763623
-0.049643487 -0.26756996 0.96900004
-0.064351313 -0.25502247 0.96162081
-0.055404007 -0.25521985 0.96683323
-0.049222782 -0.25494874 0.96899998
-0.064215727 -0.24558245 0.96137047
-0.055394601 -0.24509992 0.96666652
-0.048607901 -0.24536957 0.96899998
-0.06283512 -0.23538354 0.96215802
-0.05540162 -0.2350498 0.96674985
-0.047479846 -0.2355562 0.96899998
-0.064743005 -0.22516611 0.9625001
-0.055845339 -0.22575274 0.96806234
-0.048970353 -0.22836004 0.96900004
-0.071671568 -0.21408749 0.96100003
-0.065111734 -0.21517617 0.96240538
-0.056727596 -0.21488519 0.96842301
-0.073075593 -0.20492159 0.96100026
-0.065394685 -0.20542526 0.9656316
-0.058225919 -0.20749295 0.96899998
-0.080943428 -0.1927622 0.96100003
-0.074806012 -0.19490917 0.96200001
-0.065822788 -0.19534259 0.96754056
-0.092149153 -0.18251017 0.96100008
-0.084151059 -0.18398827 0.96157157
-0.075838752 -0.18536495 0.96597373
-0.066920556 -0.18752341 0.96899998
-0.10401402 -0.17302948 0.9610002
-0.094607614 -0.17446056 0.96382922
-0.085757241 -0.17644042 0.96640009
-0.078588165 -0.17854828 0.96900004
-0.12377948 -0.16133055 0.96100008
-0.11446112 -0.16366957 0.96344119
-0.10536055 -0.16561259 0.96517962
-0.09686368 -0.16811737 0.96725005
-0.15187323 -0.15103877 0.96100003
-0.14402924 -0.15187323 0.96100008
-0.13492239 -0.15340264 0.9622122
-0.12525077 -0.15548395 0.96454996
-0.1161718 -0.15871042 0.96810001
-0.10854254 -0.15902744 0.96900004
-0.18274859 -0.14102516 0.96100008
-0.17437519 -0.14214398 0.9619413
-0.16469418 -0.14297441 0.96443331
-0.15510377 -0.1456034 0.9649089
-0.14519738 -0.14782117 0.9656086
-0.13546708 -0.14914481 0.96728575
-0.22169042 -0.13156787 0.96100008
-0.2147899 -0.13213678 0.96205902
-0.20486 -0.13308442 0.96395844
-0.19473651 -0.13447765 0.96459377
-0.18567674 -0.13612063 0.96526462
-0.17594637 -0.13867106 0.9662143
-0.16828302 -0.13883348 0.96900004
-0.22304264 -0.12816991 0.96350014
-0.21568054 -0.1286284 0.96400011
-0.20830277 -0.1288954 0.96600008
-0.17753857 -0.12705366 0.96900004
-0.15394054 0.1686478 0.96522224
-0.14669667 0.16672826 0.96125001
-0.1362059 0.16517466 0.96233338
-0.47161964 0.17978407 0.96300006
-0.46375591 0.17916799 0.96510011
-0.45573175 0.17978407 0.96300006
-0.1619242 0.17636634 0.96719998
-0.15724349 0.17443015 0.96322232
-0.47196466 0.18293759 0.96200007
-0.46448535 0.18316089 0.96208346
-0.45505485 0.18569766 0.96478432
-0.44852242 0.18613636 0.96850002
-0.16321532 0.18535405 0.96444458
-0.15938346 0.18191411 0.96100003
-0.49372715 0.19888163 0.96100008
-0.46146101 0.1927622 0.96100003
-0.45491016 0.19492802 0.96215892
-0.44733223 0.19650324 0.96574068
-0.16398346 0.19075155 0.96350002
-0.49351707 0.20482612 0.96200007
-0.48983294 0.20778263 0.96100003
-0.46146101 0.2061137 0.96100003
-0.45492166 0.20492765 0.96115416
-0.44506824 0.20500636 0.9641459
-0.43763179 0.20707797 0.96550006
-0.46146101 0.2111205 0.96100003
-0.4545497 0.21539158 0.96287167
-0.44497877 0.21422417 0.96466643
-0.43885264 0.2110506 0.96450007
-0.50070572 0.22850931 0.96750003
-0.49529171 0.22505455 0.96350014
-0.45290419 0.2230217 0.96340001
-0.44676369 0.22557938 0.96461266
-0.50363272 0.23530105 0.96526676
-0.49859345 0.2353362 0.96144444
-0.45151624 0.23926839 0.96233338
-0.4481636 0.23715167 0.962143
-0.51073891 0.24990027 0.96900004
-0.50423354 0.2462492 0.96566665
-0.49736288 0.24518713 0.96163166
-0.45812315 0.24672449 0.96100008
0.52840865 0.24990027 0.96900004
-0.51194245 0.25349632 0.96633327
-0.50542176 0.25477365 0.96409994
-0.4967714 0.25576895 0.96108723
0.26452649 0.25951967 0.96100003
0.27453709 0.25925097 0.96622223
0.28313094 0.25930214 0.96850002
0.29830378 0.25975847 0.96500003
0.30636179 0.25952685 0.96814287
0.31482846 0.25904977 0.96599996
0.3264671 0.25815094 0.96525007
0.33535227 0.25894472 0.96577781
0.34531662 0.25767177 0.96545464
0.35537782 0.25618029 0.96438479
0.36606893 0.25605813 0.96538466
0.37490901 0.25612172 0.96528566
0.384157 0.2555429 0.96535712
0.39340192 0.25415945 0.96600002
0.4041658 0.25309142 0.96300018
0.41516009 0.25401095 0.96544445
0.42614743 0.254942 0.96544445
0.43319526 0.2532976 0.96563643
0.51820487 0.25284392 0.96100003
0.52488065 0.25140402 0.96544445
-0.50520474 0.26338261 0.96700001
-0.49542254 0.26482472 0.96138489
-0.48562667 0.26679507 0.96220016
-0.4798193 0.26452646 0.96100003
-0.30124307 0.26953328 0.96100003
-0.26285753 0.26953328 0.96100003
-0.25080419 0.26925802 0.96600002
-0.24578378 0.26860648 0.96166676
-0.17106602 0.26869881 0.96100003
-0.16356796 0.26925802 0.96600002
-0.1240436 0.26792321 0.96687484
-0.11512047 0.2679441 0.96270585
-0.10931536 0.26869881 0.96100003
-0.084445499 0.26894689 0.96670008
-0.077532619 0.26897582 0.96700001
-0.064411812 0.26907104 0.96333337
-0.057819717 0.26897928 0.96500003
-0.040974047 0.2684218 0.96300006
-0.03410266 0.26886812 0.96507698
-0.024807418 0.2680867 0.96400011
-0.015505179 0.26795456 0.96524984
-0.0047808397 0.26836845 0.96423531
0.0049844822 0.26691434 0.96419054
0.014588231 0.26605189 0.96533346
0.025421182 0.2667872 0.96516663
0.035048995 0.26527184 0.96468425
0.043728404 0.26210845 0.96233338
0.054537993 0.26375541 0.96633327
0.065642335 0.26442495 0.96438468
0.072962061 0.26330075 0.96140003
0.085430361 0.26383105 0.96457148
0.094842419 0.2637153 0.96516669
0.10522788 0.2642386 0.96542108
0.11455742 0.26425067 0.96554542
0.12603357 0.26344371 0.96578574
0.13315924 0.2640363 0.96707135
0.14472386 0.26407409 0.96545464
0.15494052 0.2627914 0.96453851
0.16535182 0.2623646 0.96499997
0.17437272 0.26239622 0.9639169
0.18614395 0.26104698 0.96322232
0.19552945 0.26230195 0.96642852
0.20554893 0.26315868 0.96619999
0.21507838 0.26210666 0.96511775
0.22489728 0.26103076 0.96522224
0.23497362 0.26139665 0.963
0.24593979 0.26216838 0.96666664
0.25528982 0.26167014 0.96393746
0.26347643 0.26054451 0.96325004
0.27009422 0.26005977 0.96300006
0.28594801 0.26061377 0.9632858
0.29340509 0.26074359 0.96450013
0.30500236 0.26043606 0.9623335
0.31106827 0.26005977 0.96300006
0.33636281 0.26086992 0.96600002
-0.52443111 0.27738005 0.96362501
-0.51642042 0.27792487 0.96600008
-0.50395405 0.27477357 0.9665333
-0.49517378 0.27297521 0.96241188
-0.48331323 0.27232841 0.96425015
-0.47617096 0.27498692 0.96577275
-0.46416211 0.27642274 0.96600014
-0.45500213 0.27649003 0.96441674
-0.44465786 0.27540755 0.96600002
-0.4348411 0.27453092 0.96488887
-0.42330727 0.27396268 0.9684
-0.41428074 0.2730079 0.96481258
-0.4055019 0.27228907 0.96446681
-0.39591604 0.27298144 0.96533328
-0.38378549 0.27335706 0.96453846
-0.37600276 0.27395478 0.96416676
-0.36486673 0.27344948 0.96600008
-0.35397288 0.27336898 0.96689999
-0.346663 0.2751427 0.96900004
-0.33370036 0.27456197 0.96460009
-0.3255637 0.27390414 0.96518201
-0.31472501 0.27302745 0.96525002
-0.3057867 0.27217576 0.96785718
-0.29479015 0.27160689 0.96328592
-0.28468218 0.27227324 0.96560007
-0.27707624 0.2734856 0.96485722
-0.26500314 0.27169728 0.96375006
-0.25518292 0.27155656 0.96576464
-0.24647486 0.27053741 0.96220011
-0.23515661 0.27155888 0.96375
-0.2269754 0.27120221 0.96100003
-0.21471119 0.2718206 0.96716666
-0.20437683 0.27247903 0.96553844
-0.19574304 0.27221936 0.96387506
-0.18503259 0.27160066 0.96480018
-0.17591432 0.27120978 0.9642728
-0.16515557 0.27057502 0.96353352
-0.15658049 0.27065054 0.96433336
-0.12162745 0.27093562 0.96600002
-0.11694887 0.27064821 0.96200001
-0.091714241 0.27009422 0.96900004
-0.08562427 0.27026248 0.96480006
-0.075265519 0.27077064 0.96457148
-0.066915505 0.27055702 0.96466666
-0.054691978 0.27009422 0.96900004
-0.013790002 0.2703712 0.96250004
-0.0091982549 0.27009422 0.96300006
-0.5141046 0.28019124 0.96900004
-0.046008389 -0.39491528 0.97357154
-0.038418666 -0.39836642 0.97700012
-0.054056436 -0.38361955 0.97275013
-0.048241735 -0.38589013 0.97470599
-0.062457487 -0.37305686 0.97200006
-0.055033728 -0.37486595 0.97282058
-0.047657434 -0.37476653 0.97660017
-0.055267688 -0.36489126 0.97329998
-0.048048213 -0.36771733 0.97650015
-0.063414708 -0.35484993 0.97212505
-0.056750227 -0.35514042 0.97451729
-0.061613463 -0.34773624 0.97200006
-0.055483218 -0.34424639 0.97493953
-0.05464514 -0.33441076 0.97391903
-0.048870962 -0.3336305 0.97600007
-0.06185573 -0.32279122 0.97250003
-0.055125508 -0.32468665 0.97442108
-0.048356619 -0.32492253 0.97700006
-0.06280525 -0.31645972 0.97250009
-0.05456645 -0.31514186 0.97391194
-0.048577052 -0.31484801 0.97657156
-0.061613463 -0.30975536 0.97200006
-0.055194367 -0.3055273 0.97231263
-0.047000725 -0.30428585 0.97568011
-0.053774673 -0.29529861 0.9722001
-0.047123648 -0.29507616 0.97584623
-0.052610584 -0.2864041 0.97200006
-0.045818146 -0.28493622 0.97410357
-0.039873 -0.28335279 0.97700006
-0.051485222 -0.27937064 0.97200006
-0.044915747 -0.2754142 0.97245175
-0.039068371 -0.27425176 0.97618192
-0.045134384 -0.26510909 0.97323555
-0.039118901 -0.26572576 0.97700012
-0.044500079 -0.25518584 0.9726156
-0.038580053 -0.25452054 0.97650015
-0.04365886 -0.24507269 0.97200006
-0.037340146 -0.24440525 0.97452164
-0.042950161 -0.23416953 0.9722501
-0.037689622 -0.23538373 0.97545016
-0.052932121 -0.22149497 0.97200012
-0.045297321 -0.22445542 0.9732123
-0.039630614 -0.22627021 0.97700012
-0.052498043 -0.21404348 0.97200006
-0.046074416 -0.21511431 0.9745152
-0.055054195 -0.20359735 0.97234493
-0.046437539 -0.20514259 0.97583866
-0.061613463 -0.19159254 0.97200006
-0.055096027 -0.19461988 0.97394878
-0.047701135 -0.19780385 0.97662508
-0.071319692 -0.18188632 0.97200006
-0.064000756 -0.18376897 0.97304177
-0.057693448 -0.18747774 0.97475016
-0.082944155 -0.17256373 0.97200006
-0.074263029 -0.17511453 0.97345734
-0.066741154 -0.17820042 0.97540009
-0.10178881 -0.16188304 0.97200006
-0.094411068 -0.16441742 0.97389299
-0.085135251 -0.16765827 0.97495663
-0.077831149 -0.16871925 0.97640008
-0.12200706 -0.15159263 0.97350013
-0.11514007 -0.15397909 0.97383869
-0.10537115 -0.156303 0.97414309
-0.098179333 -0.15854517 0.97640008
-0.15386152 -0.14162062 0.97225004
-0.1450488 -0.14318796 0.97345018
-0.13573554 -0.14612807 0.97438103
-0.12602556 -0.14874753 0.97516674
-0.11877064 -0.14846329 0.97700006
-0.20509687 -0.13082311 0.97200006
-0.19581264 -0.13082311 0.97200006
-0.18348996 -0.13234235 0.97200006
-0.17556392 -0.13404433 0.9727695
-0.16564767 -0.13619462 0.9742223
-0.15625337 -0.13955307 0.97571439
-0.14506985 -0.13997968 0.97700006
-0.22535335 -0.12744702 0.97200006
-0.21353707 -0.12744702 0.97200006
-0.20333676 -0.128986 0.97300005
-0.19500655 -0.12925085 0.97500008
-0.18455096 -0.12844348 0.97244453
-0.17758547 -0.12861668 0.97233343
-0.16221943 0.16982256 0.97300005
-0.15477504 0.16619925 0.97468764
-0.14478536 0.16437876 0.97509521
-0.13927083 0.16384728 0.97600007
-0.46122178 0.17576283 0.97550005
-0.45596939 0.17764011 0.97439128
-0.44766948 0.17766969 0.97550011
-0.16587384 0.17460953 0.97405559
-0.4532665 0.18102494 0.97266668
-0.44487223 0.18461546 0.97327518
-0.43860546 0.1855319 0.97563648
-0.17052071 0.18748793 0.97700012
-0.16787857 0.18455839 0.97275007
-0.44338888 0.19429378 0.97300023
-0.43786818 0.19508924 0.97558832
-0.17221743 0.19201255 0.97700012
-0.1699971 0.19198677 0.97400004
-0.44172406 0.20101455 0.97266674
-0.43578914 0.20362566 0.97478598
-0.42842266 0.20275845 0.97700006
-0.50816864 0.21972568 0.97700006
-0.5129962 0.22837442 0.97650015
-0.50568247 0.22542803 0.97391313
-0.49881583 0.22197726 0.97200006
-0.51312226 0.23545001 0.97373343
-0.50799322 0.23162185 0.97233337
-0.44740531 0.23934916 0.9740001
-0.52156442 0.24603377 0.97666675
-0.51442575 0.24546961 0.97376943
-0.50894409 0.24307777 0.97200006
-0.46093741 0.24780671 0.97400004
-0.4512513 0.24458571 0.97657162
-0.44707409 0.24222161 0.97485733
0.4379296 0.24903411 0.97550005
0.52767116 0.24932747 0.97333336
0.53308928 0.24918883 0.97500008
-0.52014035 0.25118974 0.97400004
-0.516922 0.2514523 0.97240001
-0.46378267 0.25403303 0.97568423
0.17338012 0.25964731 0.97400004
0.21137348 0.25934833 0.97500008
0.27543476 0.25964731 0.9740001
0.28564 0.25825214 0.9745456
0.29462552 0.25821891 0.9750002
0.30479476 0.2584753 0.9740001
0.31646833 0.25842273 0.97485721
0.32524648 0.25879601 0.97427285
0.33474615 0.25784814 0.97418201
0.34433961 0.25775987 0.97433347
0.35472998 0.25652736 0.97500008
0.36439896 0.25557795 0.97490919
0.37543023 0.25445709 0.97500008
0.38468978 0.25464621 0.97428584
0.39279145 0.25535688 0.97700012
0.40877375 0.25565934 0.97600007
0.4143604 0.2542747 0.9747144
0.42542976 0.25487027 0.97514302
0.43398961 0.25237435 0.97553349
0.52589297 0.2509734 0.9731667
0.53438032 0.2511231 0.97375005
-0.51154506 0.26633173 0.97266674
-0.5089044 0.26754943 0.97300005
-0.4821825 0.26895887 0.97250009
-0.47785252 0.26979637 0.97400004
-0.42118683 0.26979637 0.97400004
-0.41625938 0.26950783 0.97500008
-0.38312778 0.26979637 0.97400004
-0.31509951 0.26936352 0.97550005
-0.30832955 0.26936352 0.97550005
-0.29178604 0.26810488 0.9740001
-0.26303032 0.26979637 0.97400004
-0.25717327 0.26934797 0.97360003
-0.21566796 0.26979637 0.9740001
-0.20721039 0.26979637 0.97400004
-0.18522072 0.26979637 0.9740001
-0.17845467 0.26979637 0.97400004
-0.15477347 0.26979637 0.97400004
-0.12407094 0.26586631 0.97200006
-0.09121009 0.26855084 0.97440004
-0.08538162 0.26719564 0.97353858
-0.077365719 0.26933929 0.97480005
-0.060048725 0.26979637 0.97400004
-0.05436071 0.26884413 0.97566676
-0.045245957 0.26864788 0.97700012
-0.035553046 0.26805028 0.97483343
-0.025278209 0.26608443 0.97336376
-0.015228612 0.26591545 0.97425008
-0.0055587604 0.26667246 0.97407156
0.0049044336 0.26542425 0.97410011
0.015561663 0.26503178 0.97390014
0.024374669 0.26520616 0.97409105
0.033795536 0.26445007 0.97300005
0.041356981 0.26417828 0.97200006
0.056033552 0.2639223 0.97480005
0.064166084 0.26426888 0.97233343
0.073531628 0.26454067 0.97333336
0.087200634 0.2629593 0.97500008
0.095067851 0.26382363 0.97537512
0.10549395 0.2628265 0.97414291
0.1155414 0.26373255 0.97410005
0.12267583 0.26396498 0.97433347
0.13676763 0.26314408 0.97500014
0.14443137 0.2631526 0.97446167
0.15448664 0.26303035 0.9740001
0.16598946 0.26197934 0.97533339
0.17494322 0.26180282 0.97433347
0.18490943 0.2618565 0.97383344
0.19475764 0.26080346 0.97516674
0.20480445 0.26129222 0.97462505
0.21503146 0.2606838 0.97366673
0.22322614 0.26127172 0.97375005
0.23637982 0.26225442 0.97471446
0.24432003 0.26217249 0.97481823
0.25466359 0.26092845 0.97500008
0.26475844 0.26113477 0.97414291
0.2748692 0.26044703 0.97700006
0.28949887 0.26080218 0.97200006
0.294563 0.26080218 0.97200006
0.30463523 0.26062459 0.97450006
0.31813565 0.26044703 0.97700006
-0.5311352 0.27740818 0.97400004
-0.52300644 0.27710611 0.97507155
-0.51460242 0.27581099 0.97395676
-0.50851989 0.27326056 0.97257155
-0.48238146 0.27158603 0.97233337
-0.47454882 0.27293447 0.97399998
-0.46478501 0.27456957 0.97435302
-0.45501369 0.27458662 0.9740001
-0.44510496 0.27450621 0.9740001
-0.43474403 0.27382714 0.9733001
-0.42546922 0.27221152 0.97357154
-0.41585127 0.27120745 0.97300005
-0.40449703 0.27204967 0.9743638
-0.39501366 0.27303454 0.97550011
-0.38497162 0.27179417 0.9740001
-0.37562117 0.27343756 0.97391671
-0.3637273 0.27248725 0.97488892
-0.35518691 0.27273059 0.97391677
-0.34312105 0.27486762 0.97520012
-0.33432859 0.27319363 0.97443753
-0.32499242 0.27254829 0.97407705
-0.31479114 0.27190927 0.97378588
-0.30448613 0.27131495 0.97460002
-0.29444918 0.27216601 0.97441673
-0.28481299 0.27128756 0.97328585
-0.27555606 0.27410546 0.9747144
-0.26447657 0.27153033 0.97516674
-0.25911415 0.27093044 0.97200006
-0.24159749 0.27296209 0.97625005
-0.23560113 0.27252179 0.97366679
-0.22440869 0.27295664 0.97522241
-0.21375638 0.27139577 0.97300011
-0.20453842 0.27173615 0.97337508
-0.19469947 0.27108276 0.97428578
-0.18481834 0.27088648 0.97412515
-0.17633507 0.27153879 0.97540009
-0.16500229 0.27067789 0.97616673
-0.15710655 0.27077889 0.97450006
-0.12407094 0.27261847 0.97200006
-0.094168149 0.27062738 0.97700006
-0.072018482 0.27070314 0.97575009
-0.065830819 0.27067789 0.97616673
-0.050901704 0.27062738 0.97700006
-0.044680387 0.27091017 0.97700012
-0.033187702 -0.40080532 0.98000002
-0.024936076 -0.4017832 0.98483342
-0.019732008 -0.4040772 0.98800004
-0.042761076 -0.39250842 0.98000002
-0.035198804 -0.39410493 0.98051411
-0.026198816 -0.39508784 0.98548657
-0.043295473 -0.38471106 0.98104328
-0.034860134 -0.3844364 0.98402441
-0.028054873 -0.3876645 0.98662496
-0.042519901 -0.37498686 0.98195636
-0.034709804 -0.37511879 0.98668987
-0.050774347 -0.36222816 0.98000002
-0.043712188 -0.36501312 0.98199987
-0.034393717 -0.36505497 0.98512131
-0.0514227 -0.35521781 0.97999984
-0.044333268 -0.35554591 0.98191667
-0.035713919 -0.35569373 0.98592013
-0.051228195 -0.34872615 0.98000002
-0.04432543 -0.34526512 0.98177761
-0.036412314 -0.34464282 0.98721755
-0.043805629 -0.3350262 0.98206234
-0.034822546 -0.33425322 0.98711133
-0.043453746 -0.32447672 0.98129982
-0.034244169 -0.32450867 0.98605567
-0.027167257 -0.32314739 0.98800004
-0.043634906 -0.31474134 0.98111087
-0.034973927 -0.31498846 0.98592871
-0.042089179 -0.30616942 0.98033333
-0.0351592 -0.30506262 0.98377788
-0.027434994 -0.30231684 0.9874
-0.042378142 -0.29460469 0.97999996
-0.035921268 -0.29482731 0.98171407
-0.026419951 -0.29480544 0.98650026
-0.034953054 -0.28520307 0.98186189
-0.026214009 -0.28539047 0.98587525
-0.034374636 -0.27555636 0.98081797
-0.026092492 -0.27499583 0.98543769
-0.019732008 -0.27796394 0.98800004
-0.034481369 -0.26509845 0.98053551
-0.02575779 -0.26475519 0.98403031
-0.019160066 -0.26223552 0.98800009
-0.033921693 -0.25544918 0.98014259
-0.025665935 -0.25444147 0.98267585
-0.017971316 -0.25505528 0.98566657
-0.032533113 -0.24540572 0.9799999
-0.025598206 -0.24489945 0.98269987
-0.018315468 -0.24497101 0.98573333
-0.03308133 -0.2341222 0.97999978
-0.025421835 -0.23524734 0.98351306
-0.018240273 -0.23579141 0.98692858
-0.035066772 -0.22460604 0.98038679
-0.025739107 -0.22510521 0.98438239
-0.019732008 -0.22477332 0.98800004
-0.041697368 -0.21316716 0.98000002
-0.035759483 -0.21457089 0.98058307
-0.02587874 -0.21540265 0.98517162
-0.019732008 -0.21619417 0.98800004
-0.041697368 -0.20423201 0.98000002
-0.035676762 -0.20470305 0.98168552
-0.027612766 -0.20536606 0.98545468
-0.050207034 -0.19146751 0.98000002
-0.043516316 -0.19458203 0.98149979
-0.034762785 -0.19526555 0.9850297
-0.028717304 -0.1984552 0.98724997
-0.060418636 -0.18210688 0.98000002
-0.05381991 -0.18409728 0.98196959
-0.044983853 -0.18538992 0.98494309
-0.036422677 -0.18754944 0.98699999
-0.071197547 -0.17161164 0.98000002
-0.063966192 -0.17429626 0.9822579
-0.055520397 -0.17602186 0.98616004
-0.048901062 -0.17844598 0.98800004
-0.092329882 -0.16125819 0.98000002
-0.08455433 -0.16288111 0.98047346
-0.074727848 -0.16495144 0.98306072
-0.066162281 -0.16733733 0.98575014
-0.11204395 -0.15118842 0.98000002
-0.10370604 -0.15201129 0.98166668
-0.095093288 -0.1548963 0.98393947
-0.085799441 -0.15727493 0.98483336
-0.078179032 -0.15892659 0.98628581
-0.1506211 -0.1404095 0.98000002
-0.14381337 -0.14069316 0.98000002
-0.13389201 -0.14250834 0.98144436
-0.12476612 -0.14413105 0.98299998
-0.1149063 -0.14609054 0.98348153
-0.1061266 -0.14809975 0.98513335
-0.16242401 -0.13345052 0.98140013
-0.15532389 -0.13482478 0.98362863
-0.14544433 -0.13573705 0.98435497
-0.13548705 -0.13677117 0.98495835
-0.12746535 -0.13831721 0.98666668
-0.20464402 -0.12790377 0.98200005
-0.19762573 -0.12805806 0.98100007
-0.1544244 -0.12954491 0.98800004
-0.14882365 0.15994266 0.98500007
-0.17072476 0.16815102 0.98800004
-0.16467886 0.16652854 0.98395646
-0.15584561 0.16224246 0.98289996
-0.14729322 0.16176574 0.98049998
-0.13669764 0.16469668 0.98128581
-0.46130902 0.17352208 0.98200005
-0.45447323 0.17325275 0.98373914
-0.4446786 0.17486101 0.98364878
-0.43524015 0.17533723 0.98500019
-0.42981461 0.1793039 0.98800004
-0.17258933 0.17532633 0.98590004
-0.16894786 0.17178616 0.98100007
-0.44147414 0.18067977 0.98150003
-0.43488392 0.18472064 0.98335576
-0.42981461 0.18530929 0.98800004
-0.17397864 0.18517947 0.98427773
-0.4334113 0.19537605 0.98255271
-0.42802453 0.19743112 0.9869231
-0.17534415 0.19153973 0.98183334
-0.43175158 0.2032288 0.98200005
-0.42676657 0.20285651 0.98468739
-0.51626873 0.22444889 0.98408329
-0.50795376 0.22158998 0.98150003
-0.52249354 0.23827067 0.98000002
-0.51994067 0.23912165 0.98000002
-0.52372271 0.24384923 0.97999996
-0.51994067 0.24082357 0.98000002
-0.4613108 0.248704 0.98200005
-0.45595565 0.24685426 0.9806667
0.43824786 0.24933325 0.98000002
0.44048381 0.24889474 0.98500007
0.52845031 0.24933325 0.98000002
0.53601706 0.24918142 0.9822858
0.54137677 0.24927376 0.98650002
-0.47408354 0.25928998 0.98550004
-0.46238494 0.25548735 0.98174983
-0.45725533 0.25339907 0.98366666
0.19689053 0.25891238 0.98300004
0.20472558 0.25879493 0.98320001
0.21391468 0.25954956 0.98371434
0.22477329 0.25994778 0.98800004
0.23077869 0.25994775 0.98800004
0.24879488 0.25994775 0.98800004
0.25494838 0.2592203 0.98308325
0.26305273 0.25928837 0.9842
0.27691615 0.25981346 0.98533338
0.28550094 0.25755081 0.98400003
0.29463667 0.2555519 0.98176932
0.30492267 0.25703236 0.9816364
0.31577852 0.25759763 0.98307693
0.32486045 0.25714442 0.9834705
0.33478937 0.25719199 0.9845385
0.3460173 0.25593543 0.98331243
0.35553852 0.25537908 0.98400003
0.36561304 0.2542133 0.98272723
0.37515104 0.25407809 0.98189992
0.38588545 0.25388557 0.98391664
0.39459494 0.25469711 0.98607683
0.40569273 0.25593048 0.98652941
0.41467413 0.25340298 0.98425001
0.42550853 0.25366232 0.98360002
0.43315792 0.2520929 0.98358333
0.53285712 0.25060534 0.98500007
-0.52088279 0.26942214 0.98500007
-0.51653677 0.26975644 0.98000002
-0.47277287 0.26572964 0.98526663
-0.46545976 0.26557019 0.98493111
-0.43193072 0.26942214 0.98500007
-0.42293045 0.26975644 0.98000002
-0.4161227 0.26975644 0.98000002
-0.40627146 0.26942214 0.98500007
-0.38146752 0.26942214 0.98500007
-0.37405023 0.26852688 0.98800004
-0.3143881 0.2694039 0.98120004
-0.3065106 0.26936898 0.98325008
-0.29403546 0.26931578 0.98150003
-0.24461819 0.26942214 0.98500007
-0.22172025 0.26953357 0.98333347
-0.21766077 0.26955587 0.98299998
-0.19329968 0.26942214 0.98500007
-0.18171829 0.2695893 0.98250008
-0.15638818 0.26929718 0.98177785
-0.09311074 0.26718506 0.98149991
-0.085783772 0.26613924 0.98371422
-0.07461895 0.26801127 0.98342854
-0.064688995 0.26780304 0.98284
-0.054822545 0.26588121 0.98227262
-0.044454012 0.26602867 0.98281813
-0.03593494 0.26635626 0.98379993
-0.026493719 0.26638818 0.98433346
-0.014524179 0.26566267 0.9837501
-0.0052934182 0.26496714 0.98286653
0.0059873755 0.26543692 0.98450005
0.015488354 0.2640847 0.98424995
0.025663072 0.26519701 0.98520005
0.033849481 0.26586381 0.98687506
0.045205515 0.26510587 0.98572731
0.054399204 0.26401851 0.98399991
0.064895622 0.2638514 0.98405248
0.07489571 0.26470336 0.98574996
0.084320262 0.26470721 0.98337507
0.094934896 0.2634328 0.98500001
0.10458917 0.26298979 0.98363638
0.11487726 0.26287794 0.98263633
0.12532292 0.2634317 0.98180008
0.13487771 0.26178175 0.98308325
0.14489099 0.2618539 0.9837693
0.15483013 0.26260778 0.98511761
0.16402392 0.26254046 0.9858461
0.17623803 0.2617884 0.98525006
0.1848557 0.26237273 0.98466665
0.19303051 0.26166359 0.98800004
0.21873751 0.2606042 0.98400009
0.22516163 0.26166511 0.98390913
0.23468304 0.26230562 0.98535717
0.24478415 0.26099172 0.98225009
0.25482458 0.26079309 0.98150003
0.26604432 0.2609255 0.98200005
0.27403158 0.2607986 0.98312503
-0.53372562 0.27697653 0.98450005
-0.52516359 0.27416193 0.98320001
-0.51876754 0.27230272 0.98100007
-0.48153859 0.27113274 0.98500007
-0.47460756 0.27172941 0.98386669
-0.46453503 0.27195242 0.9828822
-0.45500073 0.27260441 0.98447376
-0.44607162 0.27366728 0.98412502
-0.43423197 0.27224842 0.98183334
-0.42722088 0.27085748 0.98400009
-0.41292727 0.27092499 0.98514295
-0.40524209 0.27175251 0.98470587
-0.39548844 0.27214801 0.98249996
-0.38439113 0.27100432 0.98330003
-0.37509638 0.27225077 0.98399997
-0.36616868 0.27217093 0.98412502
-0.35424426 0.2739538 0.98366666
-0.34544513 0.27283376 0.98374999
-0.33522207 0.27182442 0.98441666
-0.32525536 0.27239302 0.98544437
-0.31655961 0.27145839 0.98000002
-0.3044357 0.27078405 0.98285723
-0.29581904 0.27108282 0.98250002
-0.28478715 0.27281615 0.98490906
-0.27565241 0.2737987 0.98383331
-0.26572433 0.27170974 0.98400009
-0.25281799 0.27262816 0.98600006
-0.24498907 0.2719489 0.98259997
-0.23495007 0.27246043 0.98435289
-0.22609594 0.27191645 0.98390913
-0.21318071 0.27086756 0.98280013
-0.2048517 0.27170777 0.98433346
-0.19524664 0.27095532 0.98333335
-0.18587804 0.27049249 0.98544449
-0.1743412 0.27159438 0.98419994
-0.16533516 0.27091175 0.98316669
-0.15198319 0.27240643 0.98220009
-0.14891917 0.27316031 0.98000002
-0.01514272 -0.40284044 0.99199986
-0.0082585607 -0.40470219 0.99645472
-0.021943219 -0.39282665 0.99100006
-0.015370188 -0.39501217 0.99338216
-0.0095230117 -0.39823505 0.99700004
-0.035281252 -0.38120964 0.99100006
-0.024386372 -0.38448185 0.99122202
-0.017048376 -0.38531509 0.99379289
-0.030118143 -0.37346497 0.99100006
-0.025123343 -0.3753638 0.99329984
-0.019553479 -0.37740201 0.99640006
-0.030118143 -0.36227822 0.99100006
-0.025033269 -0.36503544 0.99429989
-0.019911753 -0.36533737 0.99700004
-0.031593319 -0.3534272 0.99100018
-0.025191043 -0.35531059 0.99575853
-0.031213347 -0.34538081 0.99100012
-0.025056461 -0.34462675 0.99519992
-0.030691823 -0.33789688 0.99100012
-0.02500822 -0.33463964 0.99324989
-0.019911753 -0.33503687 0.99700004
-0.024575965 -0.3253774 0.99154544
-0.019007817 -0.32486439 0.99500024
-0.030118143 -0.31494972 0.99100006
-0.024959372 -0.31501368 0.99119979
-0.01727332 -0.31415129 0.99483341
-0.02386806 -0.30575579 0.99100006
-0.015912373 -0.30490118 0.9941873
-0.0095230117 -0.30213919 0.99700004
-0.021857167 -0.29619041 0.99100012
-0.015265769 -0.29509166 0.99442846
-0.021512959 -0.28397107 0.99100006
-0.015696177 -0.28498781 0.99281812
-0.0095230117 -0.28395891 0.99700004
-0.021512961 -0.27450538 0.99100006
-0.015293806 -0.27463207 0.99288547
-0.0081911227 -0.27430272 0.99699998
-0.015042706 -0.26544601 0.9922691
-0.0060541439 -0.26474151 0.99635708
-0.012917181 -0.25492719 0.99183351
-0.0062417719 -0.25475556 0.99577779
-0.013407564 -0.24468695 0.99171424
-0.0065276083 -0.24509282 0.99483997
-0.013813585 -0.23437804 0.99100006
-0.0062863296 -0.23472209 0.99432141
-0.014524329 -0.22539259 0.99158031
-0.0051791742 -0.22452495 0.99449998
-0.022086639 -0.21140067 0.99100006
-0.014967948 -0.21487293 0.99231231
-0.0069193142 -0.21659262 0.99624997
-0.023013208 -0.20413889 0.99140018
-0.016244553 -0.2057042 0.99496758
-0.030548403 -0.19146533 0.99100006
-0.024756154 -0.1946277 0.99303555
-0.017478986 -0.19660349 0.99655002
-0.041018039 -0.18214306 0.99100006
-0.03394473 -0.18372153 0.99299991
-0.026373785 -0.18656823 0.99587494
-0.053177603 -0.17211643 0.99146169
-0.04513739 -0.17547944 0.99294102
-0.035866607 -0.1783763 0.99666679
-0.072283544 -0.16091694 0.99100006
-0.064775065 -0.16287985 0.99345464
-0.055830881 -0.16673684 0.99411994
-0.048406545 -0.16856304 0.99550003
-0.093268417 -0.15095353 0.99150008
-0.084130265 -0.15302549 0.99316674
-0.074833095 -0.15636328 0.99385709
-0.068959564 -0.15848647 0.9952001
-0.1221936 -0.1402645 0.99100006
-0.11513872 -0.14188923 0.99378592
-0.10490783 -0.14412002 0.99387985
-0.095316432 -0.14729027 0.99430007
-0.08706142 -0.14904365 0.99600005
-0.13165931 -0.13510138 0.99100006
-0.12342273 -0.13809974 0.99400002
-0.11860479 -0.13938227 0.99700004
-0.10735032 -0.13938227 0.99700004
-0.15059072 0.1591959 0.99100006
-0.44660902 0.16952212 0.99100006
-0.17306976 0.16554117 0.99442869
-0.16544841 0.16199808 0.99325007
-0.15363336 0.16053835 0.99400008
-0.44363236 0.17089581 0.99400008
-0.4329119 0.17437078 0.99380016
-0.42653289 0.17688359 0.99573678
-0.18093723 0.17920578 0.99700004
-0.1767561 0.17433657 0.99360013
-0.43111971 0.18587196 0.99100006
-0.42609096 0.18515711 0.99471051
-0.4194454 0.18829592 0.99700004
-0.1813329 0.18594316 0.99600011
-0.17811009 0.18327841 0.99250001
-0.42518172 0.19470452 0.99384612
-0.41837764 0.19490434 0.99699998
-0.18266869 0.19132596 0.99700004
-0.17984834 0.19103508 0.99100006
-0.42309961 0.20352484 0.99400008
-0.41849309 0.20275359 0.99700004
-0.52176094 0.22287427 0.99100006
0.52722859 0.24673258 0.99700004
0.53945208 0.24944265 0.99400002
0.54463083 0.24900977 0.99400002
-0.48162282 0.25980014 0.99400002
0.14684038 0.25913173 0.99475002
0.15457898 0.25895235 0.9934001
0.16226719 0.25980014 0.99400002
0.22556013 0.25880021 0.99318194
0.23241203 0.25948435 0.99500006
0.24541387 0.25951159 0.99400008
0.25411412 0.25929704 0.99340004
0.26756823 0.25893441 0.99400002
0.27446139 0.25929201 0.99500012
0.2850011 0.25776228 0.99280018
0.29343677 0.25557396 0.99100006
0.30786788 0.25775635 0.99500006
0.31510994 0.25685027 0.99150008
0.3252933 0.25568375 0.99142867
0.33560216 0.25614765 0.99100012
0.34541729 0.25686392 0.99400008
0.3562049 0.25485954 0.99325001
0.36534339 0.25470808 0.99538463
0.37539276 0.25448033 0.99590921
0.38368377 0.25366041 0.99430007
0.39526951 0.25319278 0.99366677
0.40515539 0.25347868 0.99311787
0.41336074 0.25275296 0.99175
0.42508566 0.25246292 0.99400008
0.43394098 0.25223789 0.99550009
0.44149631 0.2514216 0.99500006
0.53772587 0.25116891 0.99400002
0.54454315 0.2501955 0.99700004
-0.48397246 0.26548469 0.99550003
-0.47844824 0.26503965 0.99100012
-0.46356583 0.26868114 0.99600005
-0.45450741 0.26924151 0.9970001
-0.37948859 0.26934224 0.99100006
-0.23702918 0.26903898 0.99625003
-0.19404586 0.26874238 0.9940002
-0.18821335 0.26875335 0.9952001
-0.16140407 0.26929188 0.99400008
-0.15771452 0.2688868 0.99250007
-0.082369529 0.26754713 0.99500012
-0.075091735 0.26670513 0.99400008
-0.065309674 0.26593614 0.99400014
-0.059735257 0.2657786 0.99700004
-0.044252876 0.26461801 0.99357152
-0.033762138 0.26459804 0.9930771
-0.025795484 0.26574433 0.99400002
-0.016054096 0.26670513 0.99400008
-0.0060600983 0.26664433 0.99700004
0.0060452502 0.26522884 0.99430007
0.01542816 0.2628825 0.9933334
0.024553863 0.26364839 0.99372745
0.035354193 0.26471013 0.99300015
0.044348639 0.26363993 0.99314308
0.054629538 0.26311874 0.99290919
