# .PCD v0.7 - Point Cloud Data file format
VERSION 0.7
FIELDS x y z
SIZE 4 4 4
TYPE F F F
COUNT 1 1 1
WIDTH 1498
HEIGHT 1
VIEWPOINT 0 0 0 1 0 0 0
POINTS 1498
DATA ascii
0.0033222979 -0.16486576 1.0548127
0.010105664 -0.16995889 1.0580001
-0.021130024 -0.15709713 1.0580001
-0.014516798 -0.157443 1.055158
-0.0057122223 -0.15900236 1.0523751
-0.20211327 0.14974757 1.0580001
-0.19539507 0.14855407 1.0553335
-0.18713915 0.14842916 1.0530001
-0.39505157 0.15776131 1.0540527
-0.38386211 0.15709713 1.0580003
-0.37727809 0.15832207 1.0580001
-0.21221894 0.15893453 1.0580001
-0.20536587 0.15490901 1.0540626
-0.19548616 0.15072531 1.052
-0.39270619 0.16153499 1.0536667
-0.38389865 0.1637996 1.0547695
-0.37448108 0.1652589 1.0565407
-0.36778492 0.16934644 1.0580001
-0.2132158 0.165565 1.055231
-0.20918845 0.16168715 1.052
-0.37272891 0.17474896 1.0540771
-0.36594751 0.17669603 1.0580003
-0.3592104 0.17914586 1.0580001
-0.21570833 0.17600153 1.0535001
-0.37225026 0.18566819 1.0540003
-0.36573544 0.18496667 1.0571432
-0.35890418 0.18496427 1.0580001
-0.22015029 0.18361083 1.052
-0.21473153 0.18528496 1.0532001
-0.37528798 0.19473289 1.0559232
-0.36655998 0.19062957 1.0580001
-0.3592104 0.19017021 1.0580001
-0.21405633 0.19017021 1.0580001
-0.37758434 0.20119457 1.0580001
0.34986541 0.24938187 1.052
0.35169238 0.24938187 1.052
0.44644797 0.2488941 1.0557501
0.45377028 0.24825738 1.0550002
0.46603823 0.24815318 1.0565001
0.47206914 0.24628338 1.0570002
0.57547665 0.24322453 1.0570002
0.58153498 0.24345462 1.0580001
0.046853531 0.25999117 1.0580001
0.067983553 0.25999117 1.0580001
0.073495731 0.25999117 1.0580001
0.085685253 0.25857997 1.0535002
0.095116153 0.25790825 1.0532502
0.10479496 0.25907147 1.0555
0.11581942 0.25899148 1.0550002
0.12439976 0.25868309 1.0560002
0.13474415 0.25940141 1.0556002
0.14543082 0.25844631 1.0547001
0.15505126 0.2570174 1.0541002
0.16444011 0.25866646 1.0556002
0.17580427 0.25632358 1.0537144
0.18580848 0.25628504 1.0541002
0.19542941 0.25681192 1.0550001
0.20502923 0.25628504 1.0541
0.21460782 0.25804198 1.0553001
0.22488365 0.25702018 1.0547274
0.23504892 0.25591859 1.0541
0.24519596 0.25618383 1.054625
0.25495633 0.25628787 1.0544547
0.26392511 0.25599781 1.0533334
0.27130556 0.25486279 1.052
0.28437397 0.25544426 1.0544001
0.29411694 0.25408888 1.0530001
0.30586934 0.25386706 1.0532858
0.3155936 0.25490054 1.0550001
0.32395208 0.25430432 1.0553751
0.33422488 0.25387681 1.0555
0.34634781 0.25179401 1.0544547
0.35546362 0.25181052 1.0532501
0.36439496 0.25226331 1.054786
0.3746551 0.25269791 1.057143
0.3853693 0.25404814 1.0569094
0.39436594 0.25422874 1.0562
0.40399384 0.25238326 1.0550002
0.41570073 0.25235504 1.0568001
0.4255169 0.25127581 1.056125
0.43592805 0.25061578 1.0550001
0.44357714 0.25046498 1.0540001
0.45896193 0.25009304 1.0550001
0.46995503 0.25009304 1.0550001
-0.48323447 0.26917812 1.0580001
-0.4746682 0.26739258 1.0570002
-0.46837205 0.26894671 1.0535001
-0.45411274 0.26833716 1.0565001
-0.44521794 0.26877922 1.0550002
-0.43461117 0.2673645 1.0553752
-0.42494592 0.26723871 1.0547003
-0.41565955 0.26817504 1.0556668
-0.403721 0.26908559 1.0562001
-0.39662167 0.26926398 1.0562859
-0.37352526 0.26732618 1.0563334
-0.36559388 0.26772875 1.0547144
-0.35517925 0.26854241 1.0550002
-0.34489784 0.26635221 1.0545002
-0.33710945 0.26471031 1.0541821
-0.31389791 0.26927829 1.0560001
-0.30523369 0.26744786 1.0548127
-0.29536289 0.26606306 1.0544002
-0.28472871 0.26837999 1.0543573
-0.27571079 0.2685822 1.0556667
-0.26429018 0.26926398 1.0562859
-0.25620377 0.26810864 1.0550002
-0.24938187 0.26765159 1.052
-0.23118204 0.26787782 1.0565001
-0.22464788 0.26786515 1.0552502
-0.21627428 0.26799306 1.0542501
-0.20451942 0.26703945 1.0550001
-0.19484881 0.26544023 1.0535001
-0.18633252 0.26658008 1.0550002
-0.17822716 0.26917812 1.0580001
-0.094644763 0.26644763 1.0536668
-0.086781234 0.26399764 1.052
-0.065442964 0.26451445 1.0565002
-0.055025741 0.26388443 1.056125
-0.045625538 0.2632837 1.0550002
-0.033889141 0.26291832 1.0550001
-0.024729004 0.26192692 1.0547003
-0.013878707 0.26294142 1.0545386
-0.0050315573 0.26208517 1.0535002
0.0045856689 0.26226845 1.0556668
0.014660507 0.2620005 1.0550002
0.024779802 0.2637344 1.0568001
0.045132302 0.26275924 1.0560002
0.054831658 0.26134714 1.0550001
0.077646367 0.2603437 1.052
0.1169263 0.2603437 1.052
0.12488669 0.26086569 1.052
0.13336906 0.2603437 1.052
-0.5762217 0.27391142 1.0550001
-0.48094815 0.27024704 1.0550001
-0.47444472 0.2707175 1.0536667
-0.46537459 0.27024704 1.0550001
-0.45400289 0.27130556 1.052
-0.44550234 0.2707763 1.0535001
-0.40605471 0.2705999 1.0540001
-0.39352506 0.27137914 1.0533848
-0.3855074 0.27370176 1.0573335
-0.37584886 0.27191219 1.0550002
-0.31329757 0.27050322 1.0560001
-0.27305412 0.27070069 1.0537144
-0.26711714 0.27077627 1.0535002
0.052938104 -0.43348932 1.0660908
0.051692273 -0.42595533 1.0651112
0.05148565 -0.41509765 1.0635
0.052130885 -0.40514103 1.0638571
0.048828989 -0.39477775 1.0610001
0.05260358 -0.39478368 1.0650625
0.048828989 -0.3887893 1.0610001
0.052164912 -0.38730597 1.0632501
0.050671592 -0.36022896 1.0610001
0.050671592 -0.35838637 1.0610001
-0.52570289 -0.22450933 1.064
-0.52206457 -0.21660575 1.066
0.0082917148 -0.17044081 1.0610001
0.014740827 -0.17044081 1.0610001
-0.54437208 -0.16043675 1.0680001
0.0075191469 -0.165793 1.0632858
0.012973886 -0.16657326 1.0622001
-0.021189939 -0.15569998 1.0610001
-0.01627633 -0.15447158 1.0610001
-0.2040236 0.14930819 1.0680001
-0.19380973 0.14639395 1.065375
-0.39238119 0.15574688 1.0645001
-0.38487789 0.15436074 1.0625385
-0.37528163 0.15638541 1.0643684
-0.36538774 0.15858199 1.0680001
-0.21362305 0.15594643 1.0650001
-0.20781389 0.15208685 1.0636667
-0.3706038 0.16121218 1.067
-0.36514467 0.16481405 1.0650911
-0.35598764 0.16664258 1.0671669
-0.34962228 0.16878316 1.0680001
-0.22164384 0.16785578 1.0680001
-0.21794091 0.16395958 1.0644001
-0.36300427 0.17356621 1.0613334
-0.35535309 0.17500751 1.0652903
-0.34810475 0.17527485 1.068
-0.22114575 0.17488234 1.0656
-0.21882871 0.17390285 1.0633335
-0.36452839 0.18272483 1.0610001
-0.35495949 0.18462156 1.0642903
-0.34962228 0.18083911 1.0680001
-0.22173761 0.18940087 1.064
-0.2183485 0.18886685 1.0610001
-0.3734777 0.19662812 1.062
-0.36648667 0.19468369 1.0637648
-0.35667473 0.19312048 1.0669091
-0.22081371 0.19124869 1.064
-0.21742719 0.19070946 1.0610001
-0.37549803 0.20117259 1.066
0.37466154 0.24946523 1.0680001
0.38469252 0.24853554 1.0666668
0.4080472 0.24946523 1.0680001
0.42539507 0.24952453 1.066
0.4345082 0.24910298 1.0631667
0.44461569 0.24813011 1.0637274
0.45560363 0.2472758 1.0642859
0.46485811 0.24775879 1.0646667
0.47255653 0.24638154 1.0650001
0.57688457 0.24280094 1.064
0.58313578 0.24252413 1.0635999
0.017554227 0.25961778 1.064
0.038949959 0.25873902 1.0680001
0.045678068 0.25854185 1.0649002
0.050910383 0.2591784 1.066
0.086501479 0.25815535 1.0649091
0.092979752 0.25712499 1.0644001
0.10709568 0.25943476 1.0632501
0.11518467 0.25797421 1.0648572
0.125082 0.25703222 1.0647857
0.1344582 0.25901914 1.0637144
0.14433563 0.25816178 1.0647779
0.15525344 0.25736684 1.06425
0.1654291 0.2580013 1.0643334
0.17377305 0.25727284 1.0645001
0.18310806 0.2561627 1.0650001
0.19519094 0.258093 1.0653334
0.2060312 0.25592217 1.064
0.21549912 0.2565273 1.0631112
0.22471234 0.25568417 1.0636154
0.23498988 0.25533342 1.0648571
0.24537596 0.25553286 1.0636668
0.25595281 0.25539741 1.0649
0.26570904 0.25512284 1.0641818
0.27607068 0.25632304 1.0656668
0.28522339 0.25563884 1.0647501
0.29172736 0.25509793 1.0652001
0.30418065 0.2550295 1.0680001
0.31510341 0.25495288 1.06575
0.32506862 0.25344899 1.0649092
0.33479697 0.25340965 1.0651
0.34063503 0.25270063 1.066
0.35570407 0.25099468 1.064
0.36596531 0.25070351 1.063143
0.37542364 0.25151387 1.0649
0.38484359 0.25117904 1.0628334
0.39482531 0.25191092 1.0632
0.40477121 0.2510843 1.0627273
0.41520065 0.25123769 1.0640908
0.4240872 0.25086588 1.0627143
-0.47296381 0.2698676 1.0680001
-0.46587497 0.26977816 1.064
-0.45413429 0.26745093 1.0643001
-0.44639724 0.26760173 1.0643636
-0.43844149 0.26737231 1.0630001
-0.41483411 0.26885685 1.064
-0.40619493 0.26895338 1.0631666
-0.3945426 0.26888362 1.0641111
-0.3862873 0.26968023 1.0658001
-0.37839767 0.26712137 1.062
-0.36318064 0.26753241 1.06425
-0.35480243 0.26708099 1.063375
-0.33291638 0.26910955 1.0650001
-0.32409021 0.26876897 1.0649999
-0.31540102 0.26597148 1.0642594
-0.30668652 0.26511768 1.0638335
-0.28398523 0.26860416 1.0630001
-0.27398697 0.26936221 1.066
-0.2659688 0.26874399 1.0660001
-0.25544909 0.26875579 1.0635999
-0.24431698 0.26881865 1.0671111
-0.23706058 0.26889023 1.0656002
-0.21341898 0.26806197 1.064
-0.2055968 0.26690504 1.0617502
-0.18183683 0.26860416 1.0630001
-0.17667942 0.26865005 1.0652857
-0.095193975 0.26571381 1.0643749
-0.085111856 0.26553506 1.0655
-0.074756496 0.26641575 1.0646
-0.06849587 0.26565963 1.066
-0.050838746 0.26435846 1.0645001
-0.045055095 0.26306632 1.065143
-0.035555884 0.26265031 1.0647273
-0.014251607 0.26301697 1.0658001
0.0064815297 0.26248938 1.0656668
0.014239973 0.26096946 1.0649999
0.024532821 0.26218179 1.0646154
0.036154021 0.26349089 1.0647367
0.043654468 0.2615523 1.0632858
0.054963086 0.2608324 1.0647779
0.062883832 0.26171136 1.0650001
0.075239643 0.26072842 1.0610001
0.080417655 0.2606611 1.0645001
-0.5811373 0.27440029 1.064
-0.57636666 0.27380896 1.068
-0.46287727 0.27070466 1.064
-0.38582832 0.27183354 1.0630001
-0.31600648 0.27178401 1.0610001
-0.24552821 0.27106446 1.0630001
-0.56070197 -0.44088584 1.0780001
-0.58408821 -0.43643069 1.0742859
-0.57517993 -0.43740025 1.0745558
-0.56386375 -0.43665963 1.0746924
-0.55862141 -0.43645215 1.074
0.057480037 -0.4345178 1.0723637
0.064451084 -0.4348278 1.0756841
0.073713809 -0.43402451 1.0765715
0.056528777 -0.42480835 1.0727369
0.065167554 -0.42536667 1.0746666
0.075482421 -0.42585757 1.0768963
0.081059791 -0.42579854 1.0730001
0.056449126 -0.41484073 1.0718824
0.06446334 -0.41477939 1.0758461
0.072757646 -0.41552705 1.0780001
0.057040483 -0.40457478 1.0714617
0.062341392 -0.40481037 1.0735626
0.057006374 -0.39552557 1.0723333
0.060449027 -0.39710361 1.0710001
-0.55695772 -0.23401584 1.0780001
-0.54010856 -0.23120765 1.0780001
-0.53730035 -0.23120765 1.0780001
-0.56257409 -0.22278309 1.0780001
-0.5513413 -0.22746339 1.0780001
-0.54091096 -0.22505638 1.0780001
-0.53494525 -0.22504728 1.0764705
-0.5282315 -0.22226644 1.0710001
-0.53181779 -0.2159632 1.0780001
-0.52610892 -0.21643697 1.0716001
-0.55355036 -0.2014787 1.0772001
-0.54487395 -0.20389161 1.0779998
-0.53439373 -0.20420961 1.0779999
-0.52744913 -0.20480512 1.077
-0.55369252 -0.19474557 1.0771111
-0.5449059 -0.19446626 1.0765184
-0.53557974 -0.19514465 1.0765454
-0.52625281 -0.19439514 1.0768888
-0.51986164 -0.19436687 1.0710001
-0.56070197 -0.18814874 1.0780001
-0.55542248 -0.18838215 1.0772001
-0.54385281 -0.18814874 1.0780001
-0.53449225 -0.18814874 1.0780001
-0.52492356 -0.18669266 1.0780001
-0.51852006 -0.18838319 1.074
-0.54338479 -0.17691597 1.0780001
-0.53636432 -0.17766483 1.0780001
-0.54278976 -0.16255955 1.0759001
-0.53683233 -0.16053487 1.0780001
-0.53996962 -0.1594729 1.074
-0.38182658 0.1490047 1.0725
-0.37495634 0.14830482 1.0741667
-0.36439613 0.1482992 1.0780001
-0.21286534 0.1480016 1.0758572
-0.20515579 0.14785258 1.0750771
-0.19789666 0.1440533 1.0742857
-0.38202518 0.15122741 1.07175
-0.3743006 0.15273526 1.0725498
-0.36486197 0.15394816 1.0719999
-0.35601348 0.15630923 1.0747142
-0.34915164 0.15819471 1.0780001
-0.22216234 0.15674709 1.076125
-0.21702878 0.15280831 1.0740001
-0.36548412 0.16088741 1.0710001
-0.35376796 0.16238716 1.072143
-0.34804037 0.16532615 1.0749375
-0.2239981 0.16491492 1.0743334
-0.34470803 0.17558502 1.0741111
-0.339791 0.17691597 1.0780001
-0.22670653 0.175155 1.0776365
-0.35097632 0.18581103 1.0710001
-0.3454811 0.18477663 1.0729165
-0.33932298 0.18300039 1.0780001
-0.23120765 0.18066023 1.0780001
-0.22695282 0.18287276 1.0780001
-0.36484146 0.19795631 1.0713001
-0.35400215 0.1950403 1.0726668
-0.34721002 0.1917558 1.072
-0.37284064 0.20368063 1.0743334
-0.36600077 0.20499788 1.0780001
0.58100361 0.23967564 1.074
0.25507724 0.24946091 1.0780001
0.37755114 0.24952319 1.0762501
0.38482311 0.24778934 1.0736002
0.3955546 0.24837439 1.0757778
0.40575933 0.24974346 1.0772001
0.41537726 0.24872816 1.0741667
0.42477462 0.24769755 1.0754375
0.43557975 0.24799784 1.0737002
0.44414157 0.24785998 1.075125
0.45479432 0.2475993 1.0748572
0.46521297 0.24622403 1.0741001
0.4750694 0.24419968 1.0745715
0.57807243 0.24410328 1.0743334
0.58397675 0.24192581 1.0743334
0.59049273 0.24199063 1.076
0.019529685 0.25946581 1.0710001
0.028081901 0.25928956 1.0780001
0.033994302 0.25832415 1.0740002
0.043817841 0.25820717 1.0735
0.056940958 0.25909767 1.0750002
0.064588368 0.25928956 1.0780001
0.075197093 0.25928956 1.0780001
0.084671907 0.25837535 1.0755
0.096392304 0.25860214 1.0736001
0.10549816 0.25909311 1.07525
0.11466951 0.25658798 1.0736668
0.12547559 0.25538412 1.074375
0.13548894 0.25884631 1.0744445
0.1453525 0.25780579 1.0747501
0.15519498 0.25691968 1.0728
0.16382383 0.25625151 1.074
0.17485987 0.2573691 1.0743334
0.18569037 0.25614193 1.074625
0.19513556 0.25722402 1.07525
0.2055487 0.25659779 1.0754445
0.21486425 0.25537789 1.0737274
0.22401388 0.25519621 1.0742857
0.23511554 0.25509462 1.0738572
0.24568346 0.25487936 1.074643
0.25477672 0.25321999 1.0738889
0.26388237 0.25343019 1.0746001
0.27564526 0.25605327 1.07425
0.28490394 0.25502646 1.0751668
0.29479116 0.25434434 1.0749168
0.3048788 0.25543588 1.0744001
0.31595397 0.25332367 1.0754669
0.32395145 0.25214741 1.0739001
0.33542332 0.25226647 1.0760001
0.34497428 0.25267005 1.07375
0.35345161 0.25273189 1.0740001
0.3603844 0.25367317 1.0780001
0.37065113 0.25051636 1.0725
0.38129386 0.25016597 1.0710001
0.39524361 0.25016597 1.0710001
0.40445945 0.25069153 1.0732501
0.4157033 0.25016597 1.0710001
0.42314318 0.25016597 1.0710001
-0.48214903 0.26951852 1.074
-0.47468832 0.26951852 1.074
-0.46378249 0.26914209 1.0725
-0.44784555 0.26777792 1.0745001
-0.41210374 0.2686964 1.0752001
-0.40515491 0.26842102 1.0741001
-0.39519155 0.26823902 1.075
-0.38638172 0.26789933 1.0736365
-0.37467194 0.26815176 1.076
-0.36451072 0.26755366 1.0736001
-0.3554883 0.26777792 1.0745001
-0.33404961 0.26891625 1.0716001
-0.32610956 0.26684403 1.072
-0.31805488 0.26318577 1.0710001
-0.28397366 0.26951852 1.074
-0.27465144 0.26884091 1.0754445
-0.26467797 0.26807049 1.0736365
-0.25460193 0.26861092 1.0756
-0.24544688 0.26668376 1.0741539
-0.23485407 0.26827317 1.0740001
-0.22462308 0.26857877 1.075
-0.21569049 0.26687628 1.074643
-0.20520382 0.26769489 1.0741667
-0.1940372 0.26711237 1.0743334
-0.18480681 0.26754576 1.0753078
-0.17837329 0.26562816 1.0722858
-0.10115447 0.26424831 1.0753334
-0.095787123 0.2648384 1.0742309
-0.085023724 0.26534706 1.0760001
-0.075349845 0.26419485 1.0757501
-0.065872811 0.26556289 1.0746001
-0.055499908 0.26505056 1.0752224
-0.046576753 0.26314777 1.0727501
-0.033664417 0.26325786 1.077
-0.024616092 0.26457828 1.0766667
-0.014157958 0.26228005 1.0749168
-0.0049334979 0.26236257 1.0747144
0.0042001279 0.26218432 1.0751667
0.013988852 0.2601926 1.074
0.026316036 0.26085004 1.072875
0.032561757 0.26169536 1.0714287
0.053157631 0.2601926 1.074
0.065219656 0.26088122 1.0730002
0.07548847 0.26095304 1.0733
0.081135333 0.2601926 1.074
0.1035175 0.2601926 1.0740001
-0.5842005 0.27438021 1.0738751
-0.49143326 0.2705223 1.0780001
-0.48782429 0.27088752 1.075
-0.47411609 0.2705223 1.0780001
-0.46778247 0.27062565 1.0710001
-0.42497283 0.27052233 1.0780001
-0.41678768 0.27058432 1.0738001
-0.2911157 0.2705223 1.0780001
-0.28737146 0.2705223 1.0780001
-0.25507116 0.270953 1.076
0.063030586 -0.44306713 1.0833335
-0.59252524 -0.43598384 1.0860001
-0.5842098 -0.43595245 1.0843638
-0.57547891 -0.43549314 1.0846876
-0.56695527 -0.4373537 1.0855001
0.073779337 -0.42221305 1.0810002
0.06758412 -0.41019806 1.0810001
0.073403865 -0.41770741 1.0810002
-0.5526768 -0.2711423 1.0880001
-0.5488978 -0.2730318 1.0880001
-0.56023479 -0.26169485 1.0880001
-0.55432051 -0.26506862 1.0867368
-0.54667407 -0.26382336 1.0862353
-0.56266034 -0.25577685 1.0874376
-0.5544076 -0.25506344 1.0849998
-0.54549688 -0.25491247 1.0860343
-0.53945035 -0.25319213 1.0880001
-0.56354445 -0.24451481 1.0862353
-0.554712 -0.24548022 1.0849997
-0.54631215 -0.2443272 1.0857199
-0.53945035 -0.24279991 1.0880001
-0.56380236 -0.23427254 1.0828463
-0.55428374 -0.23580168 1.0815216
-0.54550183 -0.2352189 1.0828422
-0.5397343 -0.23372842 1.0810001
-0.56199419 -0.22608499 1.0810003
-0.55481774 -0.22518332 1.0809999
-0.54626423 -0.22515799 1.081
-0.53848279 -0.22371596 1.0810001
-0.56038499 -0.21870972 1.0810001
-0.55436516 -0.21545666 1.0820768
-0.54485434 -0.21486971 1.081
-0.53691834 -0.21495508 1.0810001
-0.55555749 -0.20650701 1.0810003
-0.54607028 -0.20861906 1.0810002
-0.53629255 -0.2080715 1.0810002
-0.52801877 -0.20481813 1.082
-0.56165993 -0.1943827 1.0814446
-0.55555761 -0.19403616 1.0810002
-0.54161167 -0.19054967 1.0810001
-0.53316361 -0.19148836 1.0810001
-0.52659297 -0.19618168 1.0810001
-0.56038499 -0.18679501 1.0810001
-0.5541898 -0.18472996 1.0810001
-0.54536629 -0.18440568 1.081
-0.53511316 -0.18434003 1.081
-0.52484787 -0.18350521 1.0815337
-0.54570764 -0.17536032 1.081
-0.5343219 -0.17483309 1.0811539
-0.5244149 -0.17498243 1.0826
-0.51572216 -0.17384937 1.0834
-0.50969809 -0.17157197 1.0836668
-0.5438019 -0.16770875 1.0810003
-0.53443831 -0.16554986 1.0816858
-0.52502382 -0.16495648 1.0851071
-0.51548618 -0.16511157 1.0860798
-0.50733924 -0.16623071 1.0856669
-0.53124094 -0.15918526 1.0847501
-0.52365488 -0.15945674 1.0866002
-0.51488698 -0.15966219 1.0880001
-0.36503258 0.14747861 1.0818001
-0.35477248 0.14732417 1.0828421
-0.22223969 0.14834522 1.0854
-0.21522698 0.14578262 1.0831668
-0.20557271 0.14376239 1.0831431
-0.35314834 0.15303399 1.0830002
-0.34590822 0.15718232 1.0861112
-0.226336 0.15496655 1.0840002
-0.34335661 0.164818 1.0821666
-0.33737192 0.16651499 1.0871001
-0.23146294 0.16627541 1.0880001
-0.22804233 0.16380773 1.0832859
-0.34163129 0.17222513 1.0821431
-0.33535647 0.17537442 1.0853331
-0.32971659 0.17477813 1.0880001
-0.23238644 0.1762449 1.0835001
-0.22997375 0.17506166 1.0810001
-0.34277734 0.18816885 1.0835001
-0.33503434 0.18360981 1.0849473
-0.32971659 0.18139136 1.0880001
-0.23349376 0.183979 1.0810002
-0.22668841 0.18632568 1.0810001
-0.34597442 0.19231501 1.0856669
0.39962786 0.24846838 1.0880001
0.40643561 0.24926785 1.0860002
0.41525504 0.24843344 1.0844169
0.4251202 0.24693611 1.0846001
0.43551451 0.24760056 1.0842001
0.44586653 0.24684198 1.0845557
0.45466575 0.24777083 1.0863335
0.46417412 0.24718194 1.0865
0.47315162 0.24485242 1.085143
0.5841279 0.24307255 1.085
0.59347618 0.24248748 1.0866002
-0.011322632 0.25944716 1.0865
-0.0051297275 0.25833112 1.0853335
0.0047180019 0.25937554 1.0862001
0.015115947 0.25980535 1.0880002
0.026144106 0.2584109 1.0851251
0.035477787 0.25838131 1.0846667
0.046730444 0.25962624 1.08725
0.055177186 0.2571848 1.0849288
0.064113393 0.25820798 1.0835717
0.07563068 0.25827342 1.0842224
0.084059767 0.25781977 1.0846251
0.096012488 0.25885016 1.0840001
0.10504466 0.25812158 1.0845457
0.11578523 0.25592715 1.0855834
0.12414311 0.25440636 1.0851251
0.13579904 0.25769666 1.0835557
0.1448696 0.25679365 1.0840002
0.15404017 0.25649613 1.0850002
0.16682854 0.25732017 1.0855
0.17502919 0.2566691 1.0863638
0.1852942 0.25573471 1.0849233
0.19523259 0.25501919 1.082667
0.20395379 0.25560051 1.0854001
0.21487932 0.25440297 1.083778
0.22420776 0.25435209 1.0849003
0.23378211 0.25480941 1.0841668
0.24470022 0.25394714 1.0850002
0.25125897 0.25173137 1.08375
0.26712781 0.25357556 1.084
0.27574804 0.25408074 1.0847502
0.28390381 0.25278363 1.0834618
0.29454628 0.25220069 1.0837502
0.30547217 0.25335419 1.0846668
0.31360129 0.25242385 1.0839002
0.32685262 0.25191444 1.0865716
0.3347283 0.25162131 1.084143
0.34533185 0.2510919 1.0816668
0.35516226 0.25225526 1.0849233
0.36521062 0.25385657 1.0868
0.3730002 0.25243601 1.0847501
0.40832072 0.25062445 1.0810001
-0.49243388 0.26834193 1.0843335
-0.4855527 0.26900873 1.0853335
-0.47426286 0.26925281 1.0880001
-0.46367523 0.2684741 1.0865557
-0.4541434 0.26714247 1.0858335
-0.44717744 0.26852229 1.086143
-0.43521333 0.26862296 1.0880002
-0.42590898 0.2680504 1.0880003
-0.41563144 0.26741752 1.0844002
-0.40563834 0.26775938 1.0838751
-0.39509863 0.26706073 1.0842224
-0.38472715 0.26891997 1.0855716
-0.37518737 0.26879874 1.0853335
-0.36518458 0.26827976 1.0856003
-0.35541371 0.26925281 1.0880002
-0.34267864 0.26886249 1.0851668
-0.33564737 0.2680847 1.0849288
-0.32778519 0.26703399 1.0847501
-0.31176639 0.26925281 1.0880001
-0.29268238 0.26928183 1.0866002
-0.2844137 0.26830009 1.0855457
-0.27574509 0.26801583 1.0853002
-0.26382604 0.2675868 1.0841252
-0.25521466 0.26628706 1.082778
-0.24487609 0.26654419 1.0846667
-0.23491552 0.26735127 1.0845557
-0.22492383 0.26647377 1.0830002
-0.21373206 0.26625156 1.0843334
-0.20449816 0.26764038 1.0853002
-0.19390424 0.26470438 1.0840001
-0.18583454 0.26317331 1.0831177
-0.17928566 0.26376581 1.0810001
-0.10181528 0.26283729 1.0823334
-0.094744816 0.26372036 1.0851113
-0.08530128 0.26395568 1.0860001
-0.074681088 0.26216194 1.0840836
-0.064969115 0.26382127 1.0843337
-0.055567082 0.26369998 1.0846002
-0.04577487 0.26409239 1.0857779
-0.034308866 0.26409304 1.0875001
-0.025742479 0.26418296 1.0856925
-0.016194995 0.26166588 1.0826669
-0.0040681418 0.2604844 1.0816668
0.0047014463 0.26064473 1.0823334
0.015051691 0.26049221 1.0830001
0.02346671 0.26001114 1.0810001
0.048049226 0.26097324 1.085
0.052565429 0.26001114 1.0810001
0.074780583 0.26001114 1.0810001
-0.59158987 0.27202627 1.0840001
-0.58760643 0.2731525 1.0810001
-0.48376417 0.27064389 1.0860001
-0.47474936 0.27084088 1.0857146
-0.46678996 0.27064389 1.0860001
-0.44374877 0.27039465 1.085
-0.43470415 0.27039465 1.085
-0.42490587 0.27039465 1.085
-0.3047753 0.27152023 1.0880002
-0.29483706 0.27109715 1.0848001
-0.28735322 0.27039465 1.085
-0.59603119 -0.43727815 1.09475
-0.5833863 -0.43555689 1.0960002
-0.57435155 -0.43619028 1.0952728
-0.5679884 -0.43822724 1.09475
-0.56252372 -0.30033046 1.098
-0.5577566 -0.30033046 1.098
-0.57205802 -0.2917496 1.098
-0.56446612 -0.29393014 1.0966955
-0.55531329 -0.29407746 1.0951765
-0.57265085 -0.28523639 1.0975714
-0.56464541 -0.28470209 1.0965598
-0.55545807 -0.28468776 1.0951817
-0.57110459 -0.27554128 1.098
-0.56459248 -0.27570647 1.0962631
-0.55303293 -0.275666 1.0939497
-0.54747206 -0.27183306 1.0965
-0.57254469 -0.26501229 1.0965002
-0.56563258 -0.26543579 1.0924118
-0.55988485 -0.26904789 1.0910001
-0.54567587 -0.26608038 1.094077
-0.57465488 -0.25493994 1.0950001
-0.56854635 -0.25402561 1.0910001
-0.54500026 -0.25263068 1.0946001
-0.57328326 -0.24565035 1.0936668
-0.56935835 -0.24725878 1.0910001
-0.5430941 -0.24475081 1.0937145
-0.53904313 -0.24346939 1.0910001
-0.54171199 -0.23720177 1.0918001
-0.53911781 -0.23865709 1.095
-0.52009606 -0.16010244 1.0910001
-0.51156992 -0.16104978 1.0910001
-0.50501263 -0.16232671 1.0932223
-0.49601373 -0.16100636 1.0950001
-0.48821697 -0.16083619 1.0960001
-0.53128588 -0.15424076 1.0965
-0.52508247 -0.15511113 1.0949998
-0.51476926 -0.15547331 1.0957997
-0.50489992 -0.15577237 1.0969089
-0.49557906 -0.15539594 1.0961738
-0.48746213 -0.15534027 1.0961053
-0.46527386 -0.15922281 1.098
-0.52438653 -0.14968851 1.098
-0.51961935 -0.14968851 1.098
-0.50150418 -0.14968851 1.098
-0.49371785 -0.14794055 1.0979999
-0.48834687 -0.14816304 1.098
-0.20936473 0.13926069 1.0910001
-0.35147792 0.145524 1.0930002
-0.34577468 0.14748666 1.0966469
-0.3363224 0.14730495 1.098
-0.22381119 0.14647707 1.0968001
-0.21526888 0.14370327 1.0960001
-0.20936473 0.14210275 1.0910001
-0.35146749 0.15062892 1.0910001
-0.34405404 0.15350544 1.0937272
-0.33526379 0.15514331 1.0955832
-0.32764879 0.15626712 1.0964999
-0.23231912 0.15614761 1.0965
-0.22859079 0.15270773 1.0923334
-0.34009925 0.16104978 1.0910001
-0.33392987 0.16435552 1.0919998
-0.32615149 0.16475974 1.0958076
-0.23553452 0.16507493 1.0943571
-0.33062574 0.17526007 1.0910001
-0.32528046 0.17479631 1.0948857
-0.31876343 0.1776558 1.098
-0.23687665 0.17448589 1.0940833
-0.33452389 0.18766126 1.0926001
-0.32509303 0.18371026 1.0941362
-0.31830946 0.18237755 1.098
-0.24121779 0.184012 1.098
-0.23898402 0.18280979 1.0965
-0.34493822 0.19444211 1.0923334
0.59208006 0.23931094 1.098
0.27946874 0.24915349 1.0910001
0.28515285 0.24915349 1.0910001
0.30739522 0.24839197 1.0960001
0.31177163 0.24884523 1.098
0.33359325 0.24899936 1.0945001
0.39706853 0.2489069 1.0966001
0.40599647 0.2487969 1.095
0.41518417 0.24721304 1.0920001
0.42197049 0.24709859 1.0945001
0.4346889 0.248256 1.0954001
0.44338989 0.24785861 1.0957501
0.45658654 0.24710883 1.095143
0.46392086 0.24705853 1.0953751
0.47201276 0.24598256 1.09375
0.48148218 0.24503152 1.098
0.58747685 0.24259077 1.0941668
0.59515172 0.24164221 1.0960001
0.60233599 0.24163198 1.0970001
0.015396709 0.25797209 1.0946666
0.024232036 0.25776184 1.0943751
0.047843434 0.25886059 1.0946667
0.053514268 0.2556459 1.0921429
0.066468194 0.25865668 1.0957144
0.074350178 0.25773242 1.09425
0.08463522 0.25770551 1.095143
0.095924988 0.25843859 1.0937778
0.10546859 0.25661892 1.0959167
0.11421422 0.25442818 1.0925
0.12504493 0.25482893 1.0936668
0.13525791 0.25627214 1.0934546
0.14396761 0.25586125 1.0943751
0.15590183 0.25648111 1.0957143
0.16483375 0.25646168 1.095
0.1744009 0.25473577 1.0942726
0.18283889 0.2548376 1.0910001
0.19682078 0.25387028 1.095
0.20581007 0.25365728 1.0940909
0.21395309 0.25371578 1.0950909
0.22407654 0.25312674 1.0941429
0.2350786 0.25423801 1.0925001
0.24407578 0.2531572 1.0946667
0.25245404 0.25150841 1.0930001
0.26734614 0.25358048 1.09375
0.27582249 0.25210166 1.0928334
0.28420553 0.25104821 1.0910001
0.2952387 0.25176197 1.0952858
0.30479282 0.25067174 1.0935
0.31431049 0.25082344 1.0935715
0.32603079 0.25125688 1.0946666
0.335482 0.2506277 1.0927144
0.34566253 0.25152069 1.095125
0.35536218 0.25060624 1.0942501
0.365468 0.25169784 1.0944287
0.37428173 0.25192556 1.0940001
0.38461366 0.25189623 1.098
0.39502171 0.25034103 1.0962001
-0.49129653 0.26849866 1.0965
-0.48415244 0.26750621 1.0942665
-0.47462547 0.26719126 1.0945625
-0.4651576 0.26610276 1.0937001
-0.45624983 0.26646575 1.0946667
-0.44487911 0.26869854 1.0934445
-0.43662515 0.2670278 1.0936002
-0.42513195 0.26656693 1.0942222
-0.41481987 0.26450652 1.0955712
-0.40628308 0.26678443 1.0953333
-0.39389366 0.26727831 1.096375
-0.38535839 0.26800942 1.0962727
-0.37535349 0.26748663 1.095143
-0.36488178 0.26648998 1.0937334
-0.35543218 0.26812768 1.0946922
-0.34408373 0.26714352 1.0938751
-0.33556163 0.26608798 1.0938573
-0.32518217 0.26718184 1.095
-0.31454381 0.26702794 1.0943847
-0.30556616 0.26811802 1.0936667
-0.2950004 0.26737943 1.0942668
-0.2847833 0.26594448 1.0938334
-0.27554592 0.26646486 1.0946668
-0.26765025 0.26710939 1.0947144
-0.25356349 0.26622263 1.0936668
-0.24525589 0.26581454 1.0943638
-0.23595309 0.2663404 1.0935001
-0.22494143 0.26584318 1.0953751
-0.21415038 0.26474509 1.0946156
-0.20499675 0.2651954 1.0946668
-0.19905154 0.26487237 1.0933335
-0.10326134 0.26241642 1.0910001
-0.094413973 0.26197085 1.0939
-0.084686302 0.26153526 1.0942
-0.075115182 0.26147687 1.0950001
-0.065349229 0.26171085 1.0942224
-0.056017812 0.26251158 1.093375
-0.04424366 0.26260623 1.094846
-0.035318229 0.26228511 1.0944167
-0.024888344 0.261996 1.0940001
-0.017129829 0.26224905 1.0962501
0.00858087 0.26028639 1.098
0.036230341 0.26028639 1.098
0.042794943 0.26038051 1.0952001
-0.59467506 0.27324209 1.0951667
-0.34800196 0.27098513 1.095
-0.3022052 0.27283728 1.0910001
-0.60282654 -0.44104561 1.1090001
-0.59601986 -0.4404695 1.1057501
-0.60353076 -0.43849531 1.105
-0.59186888 -0.43721595 1.1076001
-0.58446586 -0.43585423 1.1069231
-0.57522053 -0.43734005 1.1048572
-0.56815922 -0.3206729 1.1090001
-0.57276016 -0.31296906 1.1090001
-0.56629747 -0.31528026 1.1090002
-0.5575664 -0.31104308 1.1090001
-0.58067799 -0.30237627 1.1090001
-0.57554626 -0.30522576 1.1078572
-0.56502414 -0.30634612 1.1044346
-0.55843407 -0.3056632 1.1073334
-0.58131999 -0.29820335 1.1090001
-0.57619232 -0.29680008 1.105143
-0.56935751 -0.29951075 1.102
-0.554883 -0.29516822 1.1036668
-0.57509893 -0.28037268 1.102
-0.55423045 -0.28559041 1.1049168
-0.58067799 -0.27830172 1.1090001
-0.57407236 -0.27593064 1.1026001
-0.55171728 -0.27825743 1.105
-0.54830563 -0.27463126 1.102
-0.54694843 -0.25184792 1.1070001
-0.54239643 -0.2424815 1.105
-0.49015769 -0.16659583 1.1090001
-0.48485729 -0.16335265 1.1079
-0.47653592 -0.1622088 1.1070001
-0.46455866 -0.16062459 1.1076667
-0.51420224 -0.15136115 1.10325
-0.50715876 -0.15119073 1.102
-0.48352015 -0.15428101 1.105692
-0.47505662 -0.1547249 1.1079564
-0.46745044 -0.15689968 1.1064616
-0.5123775 -0.1487238 1.105
-0.5036757 -0.14842096 1.1027501
-0.49315307 -0.14354773 1.1045835
-0.48547155 -0.14659937 1.1069046
-0.47706112 -0.1481066 1.1090001
-0.22206359 0.13886197 1.1090001
-0.21795487 0.13899037 1.1090001
-0.34552714 0.14487566 1.1022729
-0.33378467 0.1465275 1.1038126
-0.32837677 0.14926216 1.1090001
-0.2326213 0.14851148 1.1070001
-0.22497049 0.14415489 1.1052999
-0.21703297 0.14205238 1.1035
-0.3435283 0.15023383 1.102
-0.33362091 0.15037017 1.103
-0.32441971 0.15479705 1.1060869
-0.31573331 0.15670571 1.1087646
-0.30911714 0.15696602 1.1090001
-0.2423504 0.15825 1.1090001
-0.23632459 0.15432614 1.1055294
-0.32150269 0.16467492 1.1026001
-0.31510743 0.16483819 1.105588
-0.30761915 0.16616783 1.1090001
-0.24320428 0.1646927 1.1059375
-0.23859327 0.16097727 1.1035
-0.32056266 0.17319952 1.102
-0.31444621 0.17494234 1.1049664
-0.30553907 0.17467958 1.1087035
-0.29948729 0.17526267 1.1090001
-0.24326974 0.17549936 1.1044167
-0.32387477 0.18894587 1.1068001
-0.31453249 0.18500787 1.1045263
-0.30640826 0.18442328 1.1074284
-0.29948729 0.18007758 1.1090001
-0.24483657 0.18170151 1.1071668
-0.34275687 0.19589029 1.1026001
-0.33530578 0.19459723 1.1064614
-0.32807893 0.19194205 1.1080002
-0.31232709 0.19227535 1.1090001
-0.30629975 0.19160506 1.1044
-0.34455481 0.20261136 1.1090001
-0.33993253 0.20511509 1.1090001
0.59643024 0.23758046 1.1040002
0.60510468 0.23728903 1.10525
0.30992121 0.24851267 1.105
0.31864882 0.24975178 1.102
0.33587307 0.24975178 1.102
0.34893194 0.24800295 1.1070001
0.3554796 0.24889784 1.1067275
0.36562318 0.24955778 1.1060002
0.37074795 0.24941225 1.1090001
0.38789901 0.24952543 1.1066668
0.39375168 0.24873511 1.1060002
0.40523121 0.24787071 1.1050001
0.41368172 0.24727069 1.1042222
0.42375588 0.2480375 1.1046001
0.43536672 0.24841659 1.1060002
0.44495964 0.24822915 1.1051667
0.45507491 0.24736539 1.1060002
0.46440208 0.24659365 1.105
0.47495809 0.24636324 1.106125
0.48353371 0.24592941 1.1063335
0.59538531 0.24018274 1.1020001
0.60380602 0.24018274 1.102
-0.087078206 0.25932083 1.102
0.0074940636 0.25852576 1.1068001
0.01439306 0.25597122 1.1049001
0.023686832 0.25766158 1.1058335
0.03620651 0.25857222 1.1070001
0.044824671 0.25798389 1.1050715
0.050715879 0.25549319 1.102
0.065135419 0.25765324 1.104889
0.07406269 0.25660601 1.1055386
0.086051986 0.25750589 1.1051667
0.094663493 0.25781968 1.1052728
0.10458641 0.25618872 1.105
0.12377658 0.25522923 1.105
0.13422829 0.25599554 1.1041667
0.14564988 0.25584096 1.1035
0.1552452 0.255009 1.1047502
0.16452748 0.25419492 1.1052859
0.17448777 0.25438905 1.1067145
0.18444678 0.25537449 1.1038572
0.19393964 0.25571081 1.1046001
0.20281923 0.25472993 1.1070001
0.217677 0.25347432 1.1043334
0.22410499 0.25424135 1.1076669
0.23512278 0.25431573 1.1052001
0.24413425 0.25276113 1.1040001
0.26616451 0.2546379 1.1066002
0.27212918 0.25392455 1.1035
0.29492617 0.25183687 1.1027501
0.30719116 0.25133821 1.1090001
0.31667018 0.25084299 1.1040001
0.32550713 0.25149366 1.1048572
0.33198988 0.25043169 1.105
0.34459123 0.2508944 1.103875
0.35190058 0.25074017 1.10425
0.36269414 0.25043169 1.105
0.37488222 0.25119972 1.1041667
0.38557443 0.25098008 1.1036668
-0.49376214 0.26793295 1.102
-0.48400265 0.26554272 1.1066668
-0.47577667 0.26485199 1.1041251
-0.46792576 0.26506227 1.102
-0.45542392 0.2687059 1.1065001
-0.44874948 0.2686719 1.1090001
-0.43406466 0.26733944 1.1035
-0.42520985 0.26577932 1.1034001
-0.41265258 0.26434761 1.1043334
-0.40285632 0.26697606 1.102
-0.39609939 0.26710194 1.1045001
-0.38456351 0.26718295 1.1028574
-0.37544823 0.2662614 1.103
-0.36466396 0.2658239 1.1051667
-0.35475135 0.26734251 1.1061667
-0.34591955 0.2663976 1.1052859
-0.33519733 0.2664848 1.105643
-0.32637438 0.26878089 1.1055
-0.31489503 0.26674592 1.1090001
-0.30318543 0.26639909 1.1064286
-0.29553747 0.26437792 1.1053078
-0.28614426 0.26530227 1.1052859
-0.27466601 0.26538035 1.1060002
-0.26554316 0.26716575 1.1058462
-0.25583112 0.26734146 1.1048334
-0.24504264 0.26501331 1.1058002
-0.23456611 0.26566815 1.1056001
-0.22561178 0.2649729 1.1056252
-0.21500163 0.26323211 1.1053751
-0.20748283 0.26416329 1.10625
-0.18572417 0.26462895 1.1082001
-0.10312414 0.26367065 1.1058
-0.095168084 0.26119938 1.1045557
-0.086852223 0.26056403 1.10525
-0.076657772 0.26159018 1.1035
-0.064384319 0.26232508 1.1066002
-0.054077026 0.26232904 1.1042
-0.045173306 0.26241988 1.1070001
-0.034103576 0.26176059 1.10625
-0.024945265 0.26092523 1.10475
-0.014836826 0.26135316 1.1061112
-0.00095690339 0.26123461 1.102
0.0044707591 0.26083201 1.103
0.035846017 0.26050991 1.1038001
-0.60243118 0.27226245 1.1053333
-0.59750736 0.27201152 1.1038001
-0.50363946 0.27156085 1.1090001
-0.60403436 -0.44166994 1.113
-0.6046856 -0.43730631 1.1142001
-0.59494835 -0.4355363 1.1143125
-0.58558321 -0.43374616 1.11375
-0.57659072 -0.43898422 1.1160001
-0.58143604 -0.32431209 1.1160002
-0.57526565 -0.32386142 1.1150001
-0.56590873 -0.3224484 1.1151431
-0.58317471 -0.31337312 1.1150001
-0.57675892 -0.31710464 1.113
-0.56297278 -0.31736192 1.1136
-0.55755752 -0.31600842 1.1136
-0.58277237 -0.30588302 1.113
-0.55909425 -0.30684948 1.113
-0.55667806 -0.29380232 1.113
-0.55398571 -0.28522027 1.1146154
-0.55139518 -0.27618212 1.1160001
-0.47066361 -0.15173344 1.113
-0.46437457 -0.15383674 1.1148
-0.45818827 -0.15702766 1.1140001
-0.49385852 -0.14013597 1.1130002
-0.48431054 -0.14270404 1.1135296
-0.47479594 -0.14481959 1.114154
-0.46899235 -0.14606786 1.1156667
-0.49228251 -0.13857558 1.1160001
-0.48646814 -0.13857558 1.1160001
-0.33097178 0.14516233 1.1145
-0.32569101 0.14699703 1.1152
-0.31860518 0.14816523 1.1152501
-0.23441438 0.14735444 1.1140001
-0.22840554 0.1427132 1.1130002
-0.32419878 0.15096888 1.1145002
-0.3143312 0.15305075 1.1146874
-0.30809173 0.15658623 1.1148751
-0.24428557 0.15526131 1.1143637
-0.30509207 0.16554151 1.1140001
-0.29879352 0.16893947 1.1160001
-0.25098655 0.16570926 1.1160001
-0.24837895 0.16526382 1.113
-0.30056751 0.17106254 1.113
-0.29724392 0.1755199 1.1139232
-0.25098655 0.17346175 1.1160001
-0.24837895 0.17396191 1.113
-0.30187687 0.18634771 1.1133749
-0.29810208 0.18301244 1.1151431
-0.24822916 0.18532752 1.1145
-0.32521367 0.19519468 1.1146666
-0.31581151 0.19462547 1.1140909
-0.30346689 0.19039164 1.113
-0.34115863 0.20295556 1.113
-0.33572561 0.20158453 1.1132308
0.60584849 0.23703678 1.1142
0.35758835 0.24837895 1.113
0.36387813 0.24871369 1.1145
0.3871004 0.24871369 1.1145
0.39559206 0.24839652 1.1152501
0.40479487 0.24766976 1.11525
0.41669583 0.24711031 1.1160001
0.42697257 0.24882528 1.1150001
0.43898419 0.24904843 1.1160001
0.44573593 0.24816751 1.1135
0.45321333 0.24742746 1.11525
0.46538439 0.24673855 1.1155716
0.47452393 0.24559246 1.114
0.48613292 0.2447098 1.1139001
0.49292007 0.24403837 1.1152501
-0.29750142 0.25873902 1.1160001
-0.095679045 0.25997642 1.113
-0.053155027 0.25997642 1.113
-0.022228464 0.25997645 1.1130002
-0.014516364 0.25935772 1.1145
-0.00290718 0.25873902 1.1160001
0.0054809204 0.25762933 1.1140001
0.011614393 0.25645575 1.1145
0.027113492 0.25904837 1.1152501
0.035821356 0.25753897 1.1150001
0.042582631 0.25645575 1.1145
0.058143601 0.25873902 1.1160001
0.064787395 0.25702181 1.1136001
0.075383492 0.25611058 1.113
0.084923267 0.25709084 1.1139001
0.095789582 0.25640571 1.1142858
0.10551709 0.25652477 1.1148001
0.11317857 0.25634071 1.1140001
0.12853852 0.2580435 1.113
0.13455556 0.25652477 1.1148001
0.1442378 0.25652477 1.1148001
0.15540425 0.25448805 1.1155715
0.1645214 0.25258473 1.1145
0.17444298 0.25440606 1.1140001
0.18605223 0.25536188 1.1148001
0.19372754 0.25567445 1.1147145
0.20392202 0.25546628 1.1130002
0.21493931 0.25391757 1.1142858
0.22554819 0.25420114 1.1148001
0.23462543 0.25495657 1.1150001
0.24464703 0.25315392 1.1136001
0.25354987 0.25403571 1.1145
0.26727888 0.25469151 1.11525
0.27571812 0.2537078 1.114125
0.28413224 0.25387844 1.1148751
0.29540235 0.25278869 1.1154001
0.30459952 0.25199315 1.1136
0.31531185 0.25076166 1.1150001
0.32411152 0.2513549 1.1142
0.33532122 0.25097355 1.1147144
0.34502444 0.25031185 1.113
0.36628646 0.25031185 1.113
0.37717211 0.25096375 1.1137501
0.38293347 0.25096831 1.1142
-0.51318765 0.26867449 1.113
-0.50268519 0.26923716 1.1140001
-0.48516041 0.26674157 1.113
-0.47301936 0.26601395 1.1140001
-0.46538439 0.26749668 1.1155715
-0.45424247 0.26867265 1.1147144
-0.44673669 0.26842964 1.1160001
-0.43368563 0.2679486 1.1140001
-0.40760872 0.26818913 1.1150001
-0.39528009 0.26770803 1.113
-0.38368264 0.26770803 1.113
-0.37539616 0.26659155 1.1148
-0.36403662 0.26569092 1.1140001
-0.35606816 0.26563078 1.1147144
-0.34742755 0.26613331 1.1145
-0.33179018 0.2679486 1.1140001
-0.32498765 0.2688334 1.1150001
-0.31244719 0.26730251 1.1140001
-0.30553681 0.26528749 1.1142
-0.29563209 0.26310608 1.1148001
-0.2845194 0.26492265 1.1145
-0.27565035 0.26376781 1.1138572
-0.26559985 0.26560137 1.1134286
-0.2532112 0.26577514 1.113
-0.24301785 0.26431635 1.1150001
-0.23516507 0.26322871 1.1145
-0.22593123 0.26363775 1.1135
-0.21482617 0.26324269 1.1151431
-0.20447168 0.26552248 1.1160002
-0.19451927 0.26548731 1.1145
-0.18652582 0.26335901 1.113
-0.10451911 0.26322961 1.1145
-0.094720416 0.26092359 1.1154002
-0.083589248 0.26173303 1.1150001
-0.074617624 0.26339051 1.1160001
-0.063662559 0.26180407 1.1142
-0.055150829 0.26138124 1.1142857
-0.046169721 0.26217458 1.1155001
-0.034870967 0.26217458 1.1155002
-0.027133681 0.26067716 1.1160001
-0.0145359 0.26164621 1.1160001
-0.0041185054 0.26188844 1.1160001
0.0019361663 0.26146972 1.1152501
-0.60468876 0.27186668 1.1142
-0.59823567 0.27157387 1.113
-0.50754833 0.27147803 1.1142
-0.49965724 0.27157387 1.113
-0.58352005 -0.4405576 1.12
-0.61265647 -0.43217254 1.1235001
-0.60545111 -0.43276539 1.122174
-0.5944649 -0.4322021 1.1227223
-0.58490014 -0.4362064 1.1241109
-0.57734567 -0.43777624 1.1228573
-0.61358953 -0.42961052 1.1270001
-0.60478204 -0.42961052 1.1270001
-0.59499592 -0.42961055 1.1270001
-0.58213413 -0.34517035 1.127
-0.57796806 -0.34388414 1.1270001
-0.59125656 -0.33555683 1.1214
-0.58449447 -0.33531123 1.1240386
-0.57524651 -0.33423194 1.1249473
-0.56724834 -0.33200929 1.1256669
-0.59361619 -0.32565767 1.1238571
-0.58672786 -0.32602862 1.1208
-0.57320315 -0.32844949 1.12075
-0.5665018 -0.32703474 1.1229
-0.59253001 -0.31699184 1.1232501
-0.58753091 -0.31779975 1.1206
-0.55703282 -0.29409844 1.1215
-0.55351734 -0.28308785 1.1214285
-0.55446261 -0.2748636 1.1219286
-0.55501842 -0.26368797 1.1233335
-0.53432196 -0.15168481 1.1270001
-0.52684391 -0.1519171 1.1215
-0.46098083 -0.15220146 1.12
-0.45468602 -0.15442857 1.1223637
-0.44576541 -0.15425262 1.1246085
-0.43841803 -0.15364204 1.1270001
-0.49112934 -0.14101733 1.12
-0.46504664 -0.14474562 1.1215558
-0.4550983 -0.14520141 1.12228
-0.44504207 -0.14541964 1.1239668
-0.43852678 -0.14624809 1.127
-0.49210188 -0.13712721 1.12
-0.47099182 -0.13944478 1.123
-0.46514103 -0.13944478 1.123
-0.45417064 -0.13846964 1.123
-0.44600844 -0.1379509 1.1246002
-0.31496969 0.13944478 1.123
-0.23193097 0.13994147 1.1270001
-0.22899514 0.13994147 1.1270001
-0.32404464 0.14326248 1.1206666
-0.31463471 0.14478664 1.1223215
-0.30687782 0.14762473 1.1245456
-0.24305421 0.14787944 1.124125
-0.2352507 0.14461736 1.1223
-0.22854534 0.14101733 1.12
-0.31283158 0.15074268 1.1200001
-0.30400056 0.15435612 1.1214002
-0.29589951 0.15654959 1.1254002
-0.28869045 0.15951371 1.1270001
-0.25229815 0.15664777 1.1240001
-0.24788304 0.15396333 1.1214445
-0.30303055 0.16292848 1.1204615
-0.29481742 0.16457601 1.1229286
-0.28769535 0.16632795 1.1256666
-0.25527477 0.16479404 1.1244446
-0.29368648 0.17453767 1.1210502
-0.28704518 0.17476636 1.1244001
-0.25480947 0.17512469 1.1235833
-0.30051282 0.18964401 1.12
-0.2939584 0.18542157 1.1221
-0.28723431 0.18295228 1.1248462
-0.26128933 0.18789345 1.1270001
-0.25521764 0.18482226 1.1238
-0.32281491 0.19891174 1.1218001
-0.31887025 0.19990337 1.123
-0.30140316 0.19215928 1.1233333
-0.29696828 0.19114304 1.1250001
-0.25286302 0.19037776 1.1243334
-0.33260641 0.20325947 1.12
-0.32652807 0.2020438 1.12
0.61553311 0.23651724 1.124
0.28281879 0.24954598 1.1270001
0.30630547 0.24954598 1.1270001
0.31801841 0.24994108 1.12
0.32447186 0.24960241 1.126
0.33174938 0.24954598 1.1270001
0.35676837 0.24925075 1.1256667
0.36580953 0.24922287 1.1242858
0.37563473 0.24938662 1.123091
0.38474005 0.24823785 1.1228667
0.3954415 0.24754587 1.122375
0.40541109 0.24692512 1.1227144
0.41602549 0.2477245 1.1246667
0.42568657 0.24799167 1.1244
0.43549171 0.24827297 1.1237859
0.44509616 0.24773021 1.1241001
0.45540297 0.2469514 1.1241112
0.4643105 0.24621686 1.124
0.4751842 0.24471533 1.1237
0.4850316 0.24353687 1.1230909
0.49262157 0.24132049 1.12175
-0.30051282 0.25966641 1.12
-0.29662266 0.25966641 1.12
-0.10326234 0.25836179 1.1264286
-0.096426301 0.2589063 1.1242223
-0.089053661 0.25933209 1.1270001
-0.062408857 0.25841168 1.123
-0.055298824 0.25823605 1.1228572
-0.046178512 0.25901419 1.125625
-0.033757415 0.25794113 1.1235001
-0.024379238 0.25940722 1.1231
-0.01462137 0.25890166 1.1227144
-0.004870221 0.25874087 1.1219
0.003896646 0.25829443 1.1225001
0.024414582 0.25877985 1.1246001
0.034511562 0.25719377 1.1228
0.045277823 0.25633523 1.1224546
0.054901533 0.25955498 1.1223334
0.065947898 0.25663128 1.1223334
0.07492727 0.25591332 1.1206
0.085663572 0.25586957 1.1228572
0.094582535 0.25535098 1.1228889
0.10441518 0.25566545 1.1238
0.11485825 0.25678864 1.1233749
0.12509644 0.25768226 1.1245556
0.13524181 0.25600773 1.1249092
0.1457473 0.2553826 1.1237272
0.15343259 0.25480947 1.1226
0.17568295 0.25506192 1.1240001
0.18577984 0.25466731 1.1237
0.19447665 0.25366443 1.1235834
0.20421273 0.2547974 1.1236155
0.21514958 0.25273436 1.1230001
0.22626217 0.25359946 1.124375
0.2347893 0.25401664 1.1232858
0.24430059 0.25357202 1.1242499
0.2556802 0.2537308 1.123875
0.26459885 0.25510016 1.122375
0.27593386 0.25253054 1.122875
0.28512591 0.25212687 1.12325
0.29551747 0.25260583 1.1232001
0.30415955 0.25151616 1.1227001
0.31427285 0.25141829 1.1251668
0.32592228 0.25118455 1.1226667
0.33519146 0.25114617 1.1254001
0.34422383 0.25061056 1.123
0.35167676 0.25105688 1.125
0.43393657 0.25061056 1.123
-0.60282481 0.2681396 1.1270001
-0.51364303 0.26803601 1.1233
-0.50499398 0.26799798 1.1228667
-0.49566475 0.26846129 1.1224445
-0.4647018 0.26794291 1.123
-0.45544058 0.2674478 1.1241001
-0.44434649 0.26877445 1.1246667
-0.43588802 0.26772678 1.123
-0.41324136 0.26785132 1.12375
-0.40517786 0.26877967 1.1237779
-0.39314356 0.26925498 1.1235001
-0.3833032 0.26720777 1.1248573
-0.37513587 0.26567236 1.1237273
-0.36547229 0.26460105 1.122375
-0.35633901 0.26547655 1.1234287
-0.34913948 0.26744667 1.12
-0.33423552 0.2674531 1.1236666
-0.32640171 0.26785132 1.1237501
-0.31529409 0.26738954 1.1214001
-0.30403456 0.26368132 1.1217144
-0.29412189 0.26272291 1.12
-0.28570771 0.26368245 1.1222
-0.27364352 0.26389086 1.1235001
-0.26311156 0.26612374 1.1226364
-0.25686285 0.2672652 1.1233333
-0.24570586 0.26423091 1.122875
-0.23724228 0.26262367 1.1243334
-0.22513454 0.26412129 1.1224002
-0.21350174 0.26196516 1.1227144
-0.20495188 0.26295292 1.122625
-0.19520281 0.26462674 1.1229001
-0.18575387 0.26355654 1.12
-0.11156173 0.26520377 1.1270001
-0.10460275 0.26136833 1.122
-0.091824517 0.26082563 1.125
-0.084022053 0.26098391 1.1232858
-0.075288735 0.26240784 1.122375
-0.065525308 0.26155618 1.1225555
-0.059403986 0.26098669 1.1215
-0.044866346 0.26139373 1.1232501
-0.036820635 0.2612513 1.1218001
-0.010697867 0.26161146 1.12
-0.0077802669 0.26161146 1.12
-0.61249894 0.27156952 1.1250001
-0.60548872 0.27135599 1.1236668
-0.59971011 0.27011332 1.123
-0.51349759 0.27230933 1.12
-0.5033924 0.27218473 1.1235001
-0.44542027 0.27133679 1.12
-0.39395589 0.27011332 1.123
-0.61533678 -0.43080893 1.133375
-0.59225214 -0.4321911 1.1355001
-0.58722591 -0.43594015 1.1350001
-0.62155473 -0.4258984 1.138
-0.61627179 -0.42822427 1.1365457
-0.60447055 -0.42729235 1.1335558
-0.59630263 -0.42742211 1.1346473
-0.58993351 -0.42985106 1.138
-0.5938862 -0.36067963 1.138
-0.58894539 -0.36067963 1.138
-0.60376781 -0.35277432 1.138
-0.59531283 -0.35463396 1.1372002
-0.58529395 -0.35412201 1.1338668
-0.57821316 -0.35165691 1.1344
-0.59418571 -0.34539098 1.1317062
-0.58826894 -0.34569392 1.131
-0.57668334 -0.34511921 1.1332002
-0.57321036 -0.33718252 1.131
-0.44881287 -0.16007987 1.131
-0.43445805 -0.15313593 1.1338667
-0.42777202 -0.1534082 1.1325001
-0.44095618 -0.14043815 1.131
-0.43495917 -0.1444127 1.133292
-0.42711788 -0.14530344 1.1332
-0.44488451 -0.13749191 1.131
-0.43600231 -0.13908616 1.136
-0.28185841 -0.12079646 1.131
-0.27616811 -0.12159521 1.133875
-0.28236118 -0.11875848 1.135
-0.27538481 -0.11600699 1.1374549
-0.26647472 -0.11298001 1.138
-0.25438151 -0.11307414 1.1380002
-0.2726233 -0.10617266 1.1380001
-0.26589829 -0.10589817 1.1380004
-0.2557762 -0.10612874 1.1380004
-0.27174494 -0.098816335 1.138
-0.26647472 -0.098486952 1.1380001
-0.25692248 -0.099804498 1.138
-0.23320654 0.13933103 1.138
-0.31328511 0.14043817 1.131
-0.30486897 0.14532658 1.1348574
-0.29525396 0.1467607 1.1362501
-0.287352 0.14713214 1.1372002
-0.27668574 0.14921267 1.138
-0.26482779 0.14921267 1.138
-0.25481725 0.1474199 1.137077
-0.24504089 0.14523025 1.1350002
-0.23761943 0.14233339 1.1336001
-0.30150011 0.150259 1.131
-0.29378575 0.15266928 1.1325001
-0.28532484 0.15498444 1.1352595
-0.27562058 0.1550972 1.1376803
-0.26540539 0.15489754 1.1362402
-0.25620979 0.15367545 1.1340591
-0.28379777 0.16429195 1.1329567
-0.27488381 0.16453382 1.1346402
-0.26454386 0.16455217 1.1331927
-0.25779733 0.16253507 1.131
-0.28232405 0.17509934 1.1328751
-0.27480632 0.17433931 1.1343201
-0.26471573 0.17457253 1.1332803
-0.25828835 0.17972156 1.131
-0.28325564 0.18494925 1.1337858
-0.27488917 0.18408296 1.1346669
-0.26513997 0.18382442 1.1331822
-0.25828835 0.18954241 1.131
-0.31185615 0.19881187 1.1353334
-0.30485573 0.19714494 1.1345555
-0.29527268 0.19429055 1.1335
-0.28803486 0.19038035 1.136
-0.26291221 0.19102988 1.1340001
-0.25828835 0.19150658 1.131
-0.30830696 0.20059717 1.138
0.62284136 0.22780529 1.1357143
0.61851948 0.23588362 1.13425
0.62177384 0.23230127 1.1342858
0.3256745 0.24770075 1.1345714
0.33310387 0.2474651 1.1354287
0.35601148 0.24894366 1.1346668
0.36532 0.24912658 1.1340001
0.37586427 0.24835886 1.1338751
0.38553867 0.24674822 1.1347144
0.39580327 0.24766618 1.1348335
0.40515178 0.24683027 1.1325001
0.4149197 0.24697988 1.1350001
0.42562461 0.24597448 1.1348463
0.4349246 0.24450602 1.1325628
0.44416574 0.24427417 1.1330001
0.45447689 0.24554273 1.1339999
0.46419173 0.24540405 1.1350001
0.47491908 0.24456339 1.1337144
0.48493639 0.24296108 1.1328001
0.49376124 0.24195415 1.135
0.6156258 0.2401237 1.138
-0.25198165 0.25988695 1.138
-0.19269186 0.25889879 1.138
-0.1887392 0.25791064 1.138
-0.11316502 0.25891373 1.1372001
-0.10551205 0.25702146 1.133
-0.096398316 0.25892371 1.1366668
-0.083005726 0.25988695 1.138
-0.075053528 0.25973472 1.1373334
-0.06392584 0.2575056 1.1355002
-0.05491503 0.25634795 1.1343751
-0.044981688 0.25872022 1.1343334
-0.034372974 0.25828835 1.131
-0.025804436 0.25866958 1.1344
