# .PCD v0.7 - Point Cloud Data file format
VERSION 0.7
FIELDS x y z
SIZE 4 4 4
TYPE F F F
COUNT 1 1 1
WIDTH 1548
HEIGHT 1
VIEWPOINT 0 0 0 1 0 0 0
POINTS 1548
DATA ascii
0.25421673 0.22824837 1.5740001
0.26515079 0.22824837 1.5740001
0.27471811 0.22824839 1.5740001
0.2870189 0.22824837 1.5740001
0.30615351 0.22551486 1.5740001
0.3157208 0.22551486 1.5740001
0.32665485 0.22551486 1.5740001
0.34578943 0.22278135 1.5740001
0.35262322 0.22278135 1.5740001
0.36492404 0.22551486 1.5740001
0.37531137 0.22278135 1.5740002
0.38451421 0.22095901 1.5740002
0.39499271 0.22004783 1.5740001
0.40592673 0.22004783 1.5740001
0.41959432 0.22278135 1.5740001
0.43189514 0.22551486 1.5740001
0.44829619 0.22278135 1.5740001
0.45376325 0.22004783 1.5740001
0.094306216 0.23098189 1.5740001
0.10660702 0.23098189 1.5740001
0.11480756 0.23098189 1.5740001
0.12710838 0.23234865 1.5740001
0.13530892 0.23098189 1.5740001
0.14624296 0.23234865 1.5740001
0.15307674 0.2337154 1.5740001
0.16674432 0.2337154 1.5740001
0.18451215 0.23098189 1.5740001
0.19544622 0.23098189 1.5740001
0.25695026 0.23098189 1.5740001
0.26105052 0.23098189 1.5740001
-0.79135215 0.24738297 1.5740001
-0.85558969 0.25285 1.5740001
-0.84602249 0.25285 1.5740001
-0.83508837 0.25148323 1.5740001
-0.82688779 0.25011647 1.5740001
-0.79681915 0.25011647 1.5740001
-0.77495104 0.25285 1.5740001
-0.76675051 0.25148323 1.5740001
-0.75399411 0.25011647 1.5740001
-0.74488246 0.25011647 1.5740001
-0.71481383 0.26241729 1.5740002
-0.70729661 0.26173389 1.5740001
0.6177758 0.19906108 1.5810001
0.62326711 0.19906108 1.5810001
0.82781953 0.19906108 1.5810001
0.83577651 0.19774686 1.5870001
0.8450464 0.19749852 1.5849999
0.85253054 0.19631541 1.5810001
0.86588496 0.19481145 1.5836668
0.87156212 0.19362937 1.5890001
0.46498644 0.20834705 1.5890001
0.47637376 0.20729809 1.5810001
0.48430336 0.20834704 1.5890001
0.51465857 0.20834705 1.5890001
0.5252369 0.20742719 1.5890001
0.53536838 0.20637663 1.5866001
0.54317987 0.20489745 1.5836668
0.55050683 0.20455243 1.5810001
0.56835371 0.20729809 1.5810001
0.57674873 0.20834704 1.5890001
0.58637041 0.20771229 1.5876667
0.59532851 0.20578052 1.5844287
0.60394967 0.20186757 1.5858001
0.61400288 0.20006835 1.5890001
0.6337859 0.20041604 1.5874001
0.64297831 0.20006835 1.5890001
0.66033363 0.20455243 1.5810001
0.82455319 0.20041604 1.5874002
0.8344456 0.20111139 1.5842001
0.84028709 0.20006835 1.5890001
0.38811547 0.21883303 1.585
0.39599735 0.2193853 1.5890001
0.44687095 0.21861248 1.5874001
0.45521876 0.21442524 1.5853077
0.48982251 0.2111066 1.5890001
0.49367446 0.21039805 1.5836668
0.5010848 0.21004376 1.5810001
0.51755881 0.21004376 1.5810001
0.52442294 0.21004376 1.5810001
0.53128713 0.21004376 1.5810001
0.10433546 0.22926345 1.5810001
0.11615217 0.22886357 1.5830002
0.12488717 0.22819714 1.5863335
0.13343175 0.22862367 1.5842001
0.18503807 0.22819714 1.5863335
0.19454922 0.22766398 1.5890001
0.22651778 0.22789061 1.5810001
0.23200913 0.22651778 1.5810001
0.24427375 0.22636205 1.5863335
0.25461358 0.22846371 1.585
0.26457945 0.22737743 1.5870001
0.2756038 0.22737743 1.5870001
0.28561482 0.22766398 1.5890001
0.29452652 0.22709088 1.585
0.30278784 0.22571111 1.585
0.31183067 0.22490442 1.5890001
0.32398909 0.22651778 1.5810001
0.33528697 0.22766398 1.5890001
0.34132099 0.22433826 1.585
0.36564216 0.22490442 1.5890001
0.37388682 0.22257486 1.5842001
0.39674932 0.22102644 1.5810001
0.40361351 0.22102644 1.5810001
0.41807386 0.22214486 1.5890001
0.42505631 0.22367035 1.5842003
0.43474552 0.22357415 1.5874002
0.44455302 0.22312124 1.5872222
0.45166272 0.22102644 1.5810001
0.096584722 0.23042354 1.5890001
0.11452188 0.23042354 1.5890001
0.12439614 0.23161273 1.5830002
0.13625453 0.23121634 1.585
0.14513445 0.23160969 1.5858002
0.1553897 0.23193823 1.5836668
0.16505367 0.2324459 1.5840002
0.17551263 0.2313296 1.5844287
0.18479159 0.23105776 1.5858001
0.19361793 0.23081993 1.5870001
0.2042077 0.23042354 1.5890001
0.21248639 0.23042354 1.5890001
-0.86650288 0.2497405 1.5890001
-0.79487145 0.24848314 1.5810001
-0.77129799 0.2497405 1.5890001
-0.76523089 0.24911182 1.585
-0.75780499 0.24848314 1.5810001
-0.71334714 0.24974051 1.5890001
-0.70388526 0.24932139 1.5863335
-0.8622148 0.25165257 1.5836668
-0.85822421 0.25250006 1.5890001
-0.84604108 0.25223303 1.5830002
-0.83331084 0.25122881 1.5810001
-0.82924879 0.25250006 1.5890001
-0.80585414 0.25122881 1.5810001
-0.78521103 0.25165257 1.5836668
-0.77525669 0.25154662 1.5830002
-0.76466912 0.25122881 1.5810001
-0.7591778 0.25122881 1.5810001
-0.73357236 0.25598988 1.585
-0.72491628 0.2578758 1.5832859
-0.71435738 0.25613037 1.5865387
-0.70648819 0.25615227 1.5860001
-0.69666642 0.25495949 1.5824547
-0.70644826 0.26077875 1.5890001
0.87447768 0.18986283 1.5960001
0.62502289 0.19817799 1.5960001
0.63195217 0.19817799 1.5960001
0.82597256 0.19817799 1.5960001
0.83428776 0.19679213 1.5960001
0.84398878 0.19540629 1.5960001
0.85507572 0.19540629 1.5960001
0.8633908 0.19540629 1.5960001
0.87447768 0.19263455 1.5960001
0.45871967 0.20926486 1.5960001
0.46564898 0.20787901 1.5960001
0.47535002 0.20649314 1.5960001
0.48643687 0.20926486 1.5960001
0.49752375 0.20926486 1.5960001
0.50445306 0.20926486 1.5960001
0.51553988 0.20718607 1.5960001
0.52524096 0.20510727 1.5960001
0.53521913 0.20261274 1.5960001
0.54464304 0.20233557 1.5960001
0.55018646 0.20372142 1.5960001
0.60700667 0.2009497 1.5960001
0.66382694 0.20649314 1.5960001
0.67768556 0.20372142 1.5960001
0.43793178 0.21758002 1.5960001
0.44486105 0.21688709 1.5960001
0.45248333 0.2127295 1.5960001
0.097010203 0.2286669 1.5960001
0.10532536 0.2286669 1.5960001
0.11364052 0.2286669 1.5960001
0.12611327 0.2258952 1.5960001
0.13581428 0.22728103 1.5960001
0.14274359 0.2286669 1.5960001
0.15521634 0.2286669 1.5960001
0.16768907 0.2286669 1.5960001
0.17508034 0.2286669 1.5960001
0.18570524 0.22681908 1.5960001
0.19540629 0.22700386 1.5960001
0.20372143 0.2286669 1.5960001
0.2286669 0.2286669 1.5960001
0.23975378 0.22589518 1.5960001
0.24806894 0.22589518 1.5960001
0.25582978 0.22644953 1.5960001
0.26469928 0.2258952 1.5960001
0.27486226 0.2258952 1.5960001
0.28271544 0.22589518 1.5960001
0.29380232 0.22589518 1.5960001
0.3048892 0.22589518 1.5960001
0.31459022 0.22450933 1.5960001
0.32151952 0.22589518 1.5960001
0.33122054 0.22589518 1.5960001
0.35755187 0.22312346 1.5960001
0.36170948 0.22312346 1.5960001
0.37279636 0.22312346 1.5960001
0.38665494 0.22035174 1.5960001
0.4051331 0.22035174 1.5960001
0.41575801 0.22312346 1.5960001
0.42684489 0.22173759 1.5960001
0.43488288 0.22146042 1.5960001
0.44208935 0.22035174 1.5960001
0.14828703 0.23143862 1.5960001
0.15521634 0.23143862 1.5960001
0.16353148 0.23143862 1.5960001
-0.80379879 0.24806894 1.5960001
-0.86477667 0.25084066 1.5960001
-0.85230392 0.2536124 1.5960001
-0.84953219 0.2536124 1.5960001
-0.8329019 0.2536124 1.5960001
-0.82458675 0.2536124 1.5960001
-0.81765741 0.2536124 1.5960001
-0.8079564 0.25084066 1.5960001
-0.79548365 0.25084066 1.5960001
-0.78439677 0.25084066 1.5960001
-0.77746749 0.25084066 1.5960001
-0.76083714 0.25084066 1.5960001
-0.73415935 0.25430533 1.596
-0.72515118 0.2536124 1.596
-0.71648961 0.2563841 1.5960001
0.53868014 0.19904719 1.603
0.54146403 0.19904719 1.603
0.63889974 0.19904719 1.603
0.82541949 0.19904719 1.603
0.83655494 0.19626331 1.603
0.85465014 0.19417539 1.603
0.86578572 0.19347943 1.603
0.87413728 0.1920875 1.603
0.45794773 0.20739882 1.603
0.46490741 0.20739882 1.603
0.4830026 0.20739882 1.603
0.49553007 0.20739882 1.603
0.5052737 0.20739882 1.603
0.51223332 0.20739882 1.603
0.52336884 0.20461494 1.603
0.53311241 0.20183107 1.603
0.55538344 0.20322299 1.603
0.57765442 0.20739882 1.603
0.58461416 0.20739882 1.603
0.59574962 0.20531091 1.603
0.60410124 0.20322299 1.603
0.65838683 0.20461494 1.603
0.66952235 0.20461494 1.603
0.67509019 0.20461494 1.603
0.68065786 0.20183106 1.603
0.42732507 0.21853432 1.603
0.43428478 0.21783835 1.603
0.44601685 0.21376197 1.603
0.45516384 0.21018271 1.603
0.49553007 0.2101827 1.603
0.10578731 0.22966984 1.603
0.11553089 0.22688596 1.603
0.12527445 0.22479805 1.603
0.1378019 0.22688596 1.603
0.14522557 0.22874188 1.603
0.15450516 0.22827789 1.603
0.16285679 0.22966985 1.603
0.17677617 0.22781393 1.603
0.18651974 0.22410208 1.603
0.19487138 0.22410208 1.603
0.20322299 0.22688596 1.603
0.2101827 0.22966984 1.603
0.23662952 0.22688596 1.603
0.24498115 0.22410208 1.603
0.27421185 0.22688596 1.603
0.28813124 0.22688596 1.603
0.29509094 0.22688596 1.603
0.30483449 0.22410208 1.603
0.31040224 0.22410208 1.603
0.32849747 0.22688596 1.603
0.34102491 0.22688596 1.603
0.36747175 0.22410208 1.603
0.37164754 0.22410208 1.603
0.384175 0.2213182 1.603
0.40505406 0.2213182 1.603
0.42314929 0.2213182 1.603
0.43150091 0.2213182 1.603
-0.84490657 0.24915697 1.603
-0.78087741 0.24915697 1.603
-0.77530968 0.24915697 1.603
-0.74190313 0.24915697 1.603
-0.73540747 0.24915698 1.603
-0.72519988 0.24915698 1.603
-0.71517795 0.2486002 1.603
-0.70849663 0.24637309 1.603
-0.69318533 0.24915697 1.603
-0.84490669 0.25194085 1.603
-0.83377111 0.25194085 1.603
-0.8170678 0.25194085 1.603
-0.79479682 0.25194085 1.603
-0.78783715 0.25194085 1.603
-0.7523427 0.25333279 1.603
-0.7454825 0.25432706 1.603
-0.73494345 0.25194085 1.603
-0.7029289 0.25194085 1.603
-0.69596922 0.25194085 1.603
0.63785338 0.19809984 1.618
0.64347327 0.19809984 1.618
0.67578739 0.19809984 1.618
0.68421715 0.19697587 1.618
0.83754957 0.19781417 1.6156667
0.8458398 0.19465624 1.6127501
0.85471874 0.19444501 1.6110001
0.86826742 0.19247998 1.618
0.87574434 0.1922718 1.61625
0.88549423 0.19164725 1.6110001
0.44629055 0.20911312 1.61625
0.45638248 0.2078533 1.6152
0.46504289 0.20652962 1.618
0.47524017 0.20748174 1.6145
0.48821089 0.20843387 1.6110001
0.49533731 0.20747511 1.6160001
0.50414109 0.20585947 1.6127501
0.51528883 0.20561023 1.6152
0.52610552 0.2043585 1.6156667
0.53413916 0.20187405 1.6145
0.5409109 0.20090976 1.618
0.55815512 0.2056361 1.6110001
0.56654847 0.20843387 1.6110001
0.57581395 0.20859642 1.6166
0.58464426 0.20546561 1.6133335
0.59519953 0.20373993 1.6150001
0.60422933 0.20187405 1.6145
0.61256403 0.20090976 1.618
0.62390268 0.20004056 1.6110001
0.64628494 0.20004056 1.6110001
0.66591096 0.20467789 1.6145
0.67460167 0.20243602 1.6145
0.68218964 0.20097315 1.6110001
0.39487332 0.21869716 1.6145
0.42776987 0.21739005 1.6152
0.43581447 0.21467677 1.6159
0.44326997 0.21253431 1.6124001
0.45183986 0.21123163 1.6110001
0.097921953 0.22801827 1.6110001
0.10537225 0.22900903 1.618
0.11551525 0.22680549 1.6156667
0.12223181 0.22619911 1.618
0.13589244 0.2255467 1.6133335
0.14439516 0.22710869 1.6145
0.15291612 0.22867879 1.6156667
0.1656018 0.22876135 1.61625
0.17511795 0.2274119 1.6133335
0.18435758 0.22430483 1.6145
0.19472259 0.22274487 1.6133335
0.20678534 0.22640924 1.6145
0.21421385 0.22768691 1.6166
0.22479415 0.22900903 1.618
0.23271638 0.22851366 1.6145
0.24305867 0.22619911 1.618
0.25566134 0.22485423 1.6124001
0.26551688 0.22429757 1.6130002
0.27511966 0.22389789 1.6130002
0.28390524 0.22448795 1.6138
0.29511577 0.22504996 1.6138
0.30444145 0.22399962 1.6156667
0.31500527 0.22356215 1.6152
0.32342535 0.22468369 1.6152
0.33416173 0.22591606 1.6160001
0.34579247 0.22471526 1.6160001
0.35453305 0.22448795 1.6138
0.36529049 0.22338918 1.618
0.37615475 0.2224406 1.6152
0.38434708 0.22094797 1.6166
0.3947947 0.22057925 1.618
0.40603441 0.22057925 1.618
0.41446418 0.22198421 1.618
0.42243659 0.2217426 1.61625
0.21682718 0.23081605 1.6110001
0.2252205 0.23081605 1.6110001
-0.85562271 0.24867852 1.618
-0.84912324 0.24760266 1.6110001
-0.83735818 0.24867852 1.618
-0.82471347 0.24867852 1.618
-0.80223411 0.24867852 1.618
-0.79520929 0.24867852 1.618
-0.78507447 0.24814059 1.6145
-0.75446534 0.24727356 1.618
-0.74441868 0.24673562 1.6145
-0.73547429 0.24796128 1.6133335
-0.72447819 0.24747102 1.6138
-0.71483028 0.24760266 1.6110001
-0.70522821 0.24630211 1.61625
-0.69527608 0.24575448 1.6120001
-0.6896503 0.24620378 1.6110001
-0.87479162 0.25234938 1.6145
-0.86436218 0.25356495 1.6133335
-0.85446823 0.25234637 1.6145
-0.84381688 0.25169569 1.6133335
-0.83353609 0.25122941 1.6133335
-0.82623416 0.25207132 1.6127501
-0.81694889 0.25040042 1.6110001
-0.8043589 0.25040042 1.6110001
-0.79456669 0.25040042 1.6110001
-0.78757226 0.25040042 1.6110001
-0.77917898 0.25040042 1.6110001
-0.76325363 0.25217235 1.6152
-0.75399911 0.25133303 1.6110001
-0.74840349 0.25040042 1.6110001
-0.73721242 0.25040042 1.6110001
-0.7120325 0.25040042 1.6110001
-0.7053178 0.25095999 1.6110001
0.60570943 0.19907932 1.6260002
0.61135703 0.19907932 1.626
0.63394761 0.19907932 1.626
0.67912871 0.19907932 1.626
0.68548232 0.19484359 1.626
0.44475168 0.20755079 1.6260002
0.45322311 0.20755079 1.6260002
0.46451843 0.20472696 1.6260002
0.47863752 0.20472695 1.626
0.48852086 0.20755078 1.626
0.49699235 0.20472695 1.626
0.50687569 0.20472696 1.6260002
0.51252335 0.20472695 1.626
0.52523053 0.20472695 1.626
0.53511393 0.20190313 1.626
0.56335211 0.20472695 1.626
0.57605928 0.20755078 1.626
0.5873546 0.20472695 1.626
0.59723794 0.20190313 1.626
0.60006177 0.20190313 1.626
0.61982852 0.20190313 1.626
0.67206919 0.20190313 1.626
0.2809701 0.21884605 1.626
0.32473931 0.21884605 1.626
0.37698001 0.21884605 1.6260002
0.38545144 0.21884605 1.6260002
0.3910991 0.21884605 1.626
0.42639685 0.21602224 1.626
0.4345859 0.21150413 1.626
0.44192785 0.21037459 1.626
0.11436471 0.22731751 1.626
0.12848382 0.2244937 1.626
0.13554338 0.2244937 1.626
0.14613269 0.22519965 1.626
0.15389819 0.22731751 1.6260002
0.17507684 0.22731751 1.626
0.18496022 0.2244937 1.626
0.20190313 0.2244937 1.626
0.21508098 0.22449371 1.6260002
0.22505847 0.22618799 1.626
0.23437706 0.22731751 1.626
0.24143662 0.22731751 1.626
0.25555572 0.22449371 1.6260002
0.26543909 0.22166988 1.626
0.27532247 0.22166988 1.6260002
0.2847352 0.22261116 1.6260002
0.29508919 0.22449371 1.6260002
0.30469018 0.22223465 1.626
0.31485593 0.22166988 1.6260002
0.32473934 0.22237584 1.626
0.33744651 0.2244937 1.626
0.34121162 0.22543499 1.6260002
0.35721323 0.2244937 1.626
0.36286089 0.22166988 1.626
0.37556806 0.22166988 1.626
0.40804201 0.22166988 1.626
0.41651347 0.22166988 1.626
0.4221611 0.22166988 1.626
-0.84714603 0.24990807 1.626
-0.8344388 0.24896681 1.6260002
-0.82540268 0.24877857 1.626
-0.81537807 0.24920212 1.626
-0.8041836 0.24627747 1.6260002
-0.79490536 0.24708426 1.6260002
-0.78502196 0.24990807 1.626
-0.76384342 0.24896681 1.6260002
-0.75395995 0.24426043 1.626
-0.74548852 0.24567235 1.626
-0.73701704 0.24708426 1.626
-0.72619241 0.24708426 1.6260002
-0.71442652 0.24567235 1.626
-0.88244379 0.25273189 1.626
-0.87491357 0.25273189 1.6260002
-0.86550087 0.25273189 1.6260002
-0.78078628 0.25273189 1.626
-0.77513862 0.25273189 1.6260002
0.84705746 0.19722109 1.6340002
0.85415173 0.19438337 1.6340001
0.8655026 0.19438337 1.6340001
0.87543458 0.19296451 1.6340001
0.88111001 0.19154565 1.6340001
0.43629843 0.20786253 1.6340001
0.44466969 0.20630179 1.6340001
0.45545301 0.20573422 1.6340002
0.46453372 0.20346403 1.6340001
0.47389814 0.20573422 1.6340001
0.48666784 0.20573422 1.6340001
0.49659985 0.20431536 1.6340001
0.50369412 0.2038424 1.6340002
0.51504505 0.20289652 1.6340002
0.52213931 0.20573422 1.6340001
0.53349012 0.20289651 1.6340001
0.54058439 0.20289651 1.6340001
0.56896156 0.20573422 1.6340001
0.57321811 0.20857194 1.6340001
0.58456898 0.20573422 1.6340001
0.59591985 0.20289651 1.6340001
0.60159528 0.2000588 1.6340001
0.61720264 0.2000588 1.6340001
0.62571579 0.20289651 1.6340001
0.65409297 0.2000588 1.6340001
0.66686261 0.20573422 1.6340001
0.67679465 0.2000588 1.6340001
0.27383935 0.21992281 1.6340002
0.32491821 0.21803099 1.6340002
0.33201247 0.2199228 1.6340001
0.37599704 0.21803099 1.6340002
0.3830913 0.21708508 1.6340001
0.39444217 0.21708508 1.6340001
0.40437418 0.2189769 1.6340002
0.41288731 0.21992281 1.6340002
0.42423815 0.21779451 1.6340001
0.4327513 0.21140964 1.6340001
0.10073882 0.22843593 1.6340001
0.12485939 0.22559822 1.6340001
0.13762911 0.2227605 1.6340001
0.15465538 0.22559822 1.6340001
0.16458738 0.22843593 1.6340001
0.17451937 0.22701707 1.6340001
0.1801948 0.22559822 1.6340001
0.20715308 0.22559822 1.6340001
0.21613918 0.2227605 1.6340002
0.2227605 0.22559822 1.6340001
0.23127364 0.22559822 1.6340001
0.24829993 0.22559822 1.6340001
0.25113764 0.22559822 1.6340001
0.28802791 0.2227605 1.6340001
0.29654106 0.2227605 1.6340002
0.33485019 0.2227605 1.6340001
0.34478217 0.2227605 1.6340001
0.35518715 0.2227605 1.6340002
0.36464617 0.2227605 1.6340001
0.37174046 0.2227605 1.6340001
0.42140043 0.2227605 1.6340001
-0.81016719 0.23836793 1.6340001
-0.80732948 0.23694907 1.6340001
-0.84563857 0.24829993 1.6340001
-0.83570665 0.2464081 1.6340002
-0.82577455 0.24829993 1.6340001
-0.81357253 0.24602976 1.6340001
-0.80354589 0.2445163 1.6340002
-0.79739749 0.24546221 1.6340001
-0.77043921 0.24829993 1.6340001
-0.76419634 0.24489467 1.6340001
-0.74489975 0.24546221 1.6340001
-0.73638666 0.24829993 1.6340001
-0.71652263 0.24602976 1.6340001
-0.8825289 0.2525565 1.6340001
-0.87259686 0.25113764 1.6340001
-0.86834025 0.25113764 1.6340001
-0.8569895 0.25113764 1.6340001
-0.78179002 0.25113764 1.6340001
-0.77469575 0.25113764 1.6340001
0.88488466 0.18951637 1.641
0.55127448 0.19903156 1.649
0.60756099 0.1987097 1.6463335
0.61328387 0.1977551 1.6463335
0.65224886 0.19838783 1.6436666
0.66009748 0.19903156 1.649
0.68539375 0.19806597 1.641
0.84704614 0.19711688 1.645
0.85374451 0.19464162 1.6458
0.86430234 0.19368647 1.6474001
0.87487972 0.19330403 1.649
0.88453686 0.19235364 1.6470001
0.89492607 0.19330403 1.649
0.90198386 0.19236623 1.641
0.43495208 0.20783167 1.645
0.44817898 0.20475909 1.649
0.45533839 0.20475909 1.649
0.46025401 0.20376571 1.641
0.47708493 0.20426241 1.645
0.48478791 0.20885125 1.6436666
0.49501166 0.20473853 1.6455715
0.50555366 0.20236291 1.6470001
0.51469225 0.20226942 1.6474001
0.52564734 0.20354646 1.645
0.53609198 0.20251879 1.6463335
0.54565203 0.20140558 1.645
0.55707926 0.20211805 1.645
0.5675332 0.20442796 1.6463335
0.5775401 0.20585524 1.6463335
0.58564401 0.2042601 1.645
0.59544212 0.20228983 1.6455715
0.62716419 0.20189533 1.649
0.63420987 0.20211805 1.645
0.64577866 0.20189533 1.649
0.65974492 0.20091584 1.641
0.66616958 0.20301758 1.6442
0.6742053 0.20235556 1.645
0.32503715 0.2190779 1.649
0.33219656 0.21764602 1.649
0.36799359 0.2190779 1.649
0.37423605 0.21783401 1.645
0.38565984 0.2171146 1.645
0.40758789 0.2173803 1.6470001
0.41568556 0.21617806 1.6463333
0.4250136 0.21464768 1.6458
0.43137586 0.21140096 1.645
0.098320521 0.22941454 1.641
0.10687014 0.22941455 1.6410002
0.11484027 0.22729872 1.6463335
0.12371015 0.22524524 1.6470001
0.13283503 0.22426012 1.645
0.14552225 0.22398745 1.6430001
0.15531793 0.22656468 1.641
0.16440475 0.22730103 1.6463335
0.17376003 0.22667712 1.6470001
0.18411069 0.22407834 1.6436667
0.21048661 0.22480543 1.649
0.22692822 0.22407834 1.6436667
0.23653921 0.22656468 1.641
0.2447118 0.22586098 1.6442
0.25424975 0.22426012 1.645
0.26076311 0.2237148 1.641
0.29211169 0.2237148 1.641
0.31930962 0.22194166 1.649
0.32061037 0.22086494 1.641
0.33770961 0.22086494 1.641
0.34396741 0.2221738 1.6436667
0.35710555 0.22282824 1.645
0.36522275 0.22113411 1.6430001
0.37190804 0.22086494 1.641
0.42035583 0.22086494 1.641
-0.81648779 0.23796415 1.641
-0.89343429 0.24936363 1.641
-0.88633478 0.24771553 1.649
-0.87375194 0.24837478 1.6458
-0.86442733 0.24881427 1.6436666
-0.85534853 0.24778759 1.6463335
-0.84327662 0.24423388 1.641
-0.83495396 0.24431708 1.643
-0.82513928 0.24520546 1.645
-0.81743777 0.24366389 1.6410002
-0.79653871 0.24793869 1.641
-0.78467119 0.24771553 1.649
-0.77516472 0.24793871 1.641
-0.76234025 0.24366389 1.641
-0.75521559 0.24508883 1.641
-0.74479938 0.24731496 1.6463335
-0.73420537 0.24711466 1.645
-0.72529191 0.24556381 1.6410002
-0.7181673 0.24366389 1.641
-0.89252424 0.25112402 1.6463335
-0.88442183 0.25112402 1.6463335
-0.8791849 0.25221351 1.641
-0.86628842 0.2505793 1.649
-0.7918306 0.2505793 1.649
-0.78633708 0.25139642 1.645
0.5222947 0.19999714 1.6570001
0.54675484 0.19999714 1.6570001
0.55586737 0.19999716 1.6570001
0.59855258 0.19999714 1.6570001
0.60430789 0.19999714 1.6570001
0.61725736 0.19711949 1.6570001
0.62445152 0.19999714 1.6570001
0.63452333 0.19999714 1.6570001
0.646034 0.19999716 1.6570001
0.65178925 0.19999714 1.6570001
0.66617751 0.19999714 1.6570001
0.67624938 0.19999714 1.6570001
0.6949541 0.19711949 1.6570001
0.85466409 0.19424184 1.6570001
0.86329699 0.19136417 1.6570001
0.8748076 0.19136417 1.6570001
0.88344061 0.19136417 1.6570001
0.89639008 0.19136417 1.6570001
0.42517379 0.20791069 1.6570001
0.43432063 0.20616357 1.6569999
0.44459796 0.20575246 1.6570001
0.48488516 0.20431364 1.6570001
0.49351811 0.20359421 1.6570001
0.52805001 0.20287479 1.6570001
0.53380531 0.20287481 1.6570001
0.56402075 0.20431364 1.6570001
0.58560318 0.20287481 1.6570001
0.33524701 0.21726309 1.6570001
0.36834008 0.21726309 1.6570001
0.37553424 0.21726309 1.6570001
0.40431076 0.21726309 1.6570001
0.41467038 0.21323438 1.6569999
0.42445439 0.21150777 1.6570001
0.096401505 0.22877371 1.6570001
0.10575388 0.2280543 1.6570001
0.11366744 0.22589606 1.6570001
0.12230041 0.22301839 1.6570001
0.13381104 0.22589606 1.6570001
0.15683231 0.22589606 1.6570001
0.16546527 0.22589606 1.6570001
0.17505746 0.22589606 1.6570001
0.19424184 0.22589606 1.6570001
0.21438543 0.22301839 1.6570001
0.24172316 0.22589606 1.6570001
0.25755027 0.22301839 1.6570001
0.2834492 0.22301839 1.6570001
0.29783747 0.22301839 1.6570001
0.30071512 0.22301839 1.6570001
0.31798106 0.22301839 1.6570001
0.3237364 0.22014074 1.6570001
0.33812466 0.22014074 1.6570001
0.34531879 0.22157957 1.6570001
0.35539064 0.22301839 1.6570001
0.36546242 0.22014074 1.6570001
-0.90214539 0.24891731 1.6570001
-0.89495122 0.24891731 1.6570001
-0.88631833 0.24891731 1.6570001
-0.87049115 0.24891731 1.6570001
-0.86473584 0.24603966 1.6570001
-0.85898054 0.24603966 1.6570001
-0.83020395 0.24603966 1.6570001
-0.80142742 0.24891731 1.6570001
-0.79567212 0.24891731 1.6570001
-0.7812838 0.24603966 1.6570001
-0.77840614 0.24603966 1.6570001
-0.75394607 0.24603966 1.6570001
-0.74387425 0.24891731 1.6570001
-0.73380244 0.24603966 1.6570001
-0.80142742 0.25179496 1.6570001
-0.79854977 0.25179496 1.6570001
0.86746502 0.18939653 1.6650001
0.87758547 0.18939653 1.6650001
0.88047701 0.18939653 1.6650001
0.89638054 0.18939653 1.6650001
0.55373186 0.19807118 1.6650001
0.60577977 0.19807118 1.6650002
0.61300862 0.19807118 1.6650001
0.62312907 0.19807118 1.6650001
0.64626145 0.19807118 1.6650001
0.66216499 0.19807118 1.6650001
0.67806852 0.19807118 1.6650001
0.69686359 0.19662541 1.6650001
0.7012009 0.19517963 1.6650001
0.86312771 0.19228809 1.6650001
0.87180233 0.19228809 1.6650001
0.89204317 0.19228809 1.6650001
0.90650094 0.19373386 1.6650001
0.91372985 0.19373386 1.6650001
0.41782898 0.20963739 1.6650001
0.42526445 0.20550662 1.6650002
0.43517828 0.20385429 1.6650002
0.44674453 0.20385429 1.6650002
0.45397335 0.20385428 1.6650001
0.46843112 0.20385428 1.6650001
0.47566 0.20385428 1.6650001
0.49445504 0.20385428 1.6650001
0.52481633 0.20096274 1.6650001
0.53638256 0.20096275 1.6650002
0.54361141 0.20096274 1.6650001
0.56674385 0.20096274 1.6650001
0.57541847 0.20385428 1.6650001
0.58264732 0.20385428 1.6650001
0.59421355 0.20096274 1.6650001
0.63324946 0.20096274 1.6650001
0.64144224 0.20192659 1.6650002
0.67373115 0.20096274 1.6650001
0.68674314 0.20096275 1.6650002
0.69252622 0.20096274 1.6650001
0.33108249 0.21831203 1.6650001
0.39469659 0.21831203 1.6650001
0.40915433 0.21542048 1.6650001
0.41349167 0.21252893 1.6650001
0.091083825 0.22987823 1.6650001
0.1040958 0.22698668 1.6650001
0.11518008 0.22409515 1.6650002
0.12433666 0.22264937 1.6650001
0.17783032 0.22409514 1.6650001
0.18361343 0.22409514 1.6650001
0.19228809 0.22698668 1.6650001
0.20963739 0.22698668 1.6650001
0.21252893 0.22409514 1.6650001
0.22120358 0.22409514 1.6650001
0.2371071 0.22698668 1.6650001
0.24722753 0.22409514 1.6650001
0.25301063 0.22409515 1.6650002
0.26746839 0.22409514 1.6650001
0.29493812 0.22409514 1.6650001
0.32240784 0.22120358 1.6650001
0.36288953 0.22120358 1.6650001
-0.90071785 0.24722753 1.6650001
-0.893489 0.24722753 1.6650001
-0.88221198 0.24549261 1.6650002
-0.87469393 0.24474908 1.6650002
-0.86168194 0.24433598 1.6650001
-0.85734463 0.24433598 1.6650001
-0.7937305 0.24722753 1.6650002
-0.78794742 0.24722753 1.6650001
-0.75180304 0.24722753 1.6650001
-0.74168259 0.24722753 1.6650001
-0.90650094 0.25011909 1.6650001
-0.87758547 0.25011909 1.6650001
-0.80240512 0.25011909 1.6650001
0.88180208 0.1874011 1.6730001
0.4285529 0.19902287 1.6730001
0.55639243 0.19902287 1.6730001
0.56220329 0.19902287 1.6730001
0.60287952 0.19902287 1.6730001
0.62467033 0.19757015 1.6730001
0.63483942 0.19902287 1.6730001
0.64452422 0.19757015 1.6730002
0.65517747 0.19902287 1.6730001
0.66534656 0.19902287 1.6730001
0.67551559 0.19902287 1.6730001
0.68568468 0.19902287 1.6730001
0.69440097 0.19829652 1.6730001
0.71038091 0.19030654 1.6730001
0.85855854 0.19611743 1.6730001
0.86436939 0.1922435 1.6730001
0.87744391 0.19030654 1.6730001
0.88761294 0.19030654 1.6730001
0.89342391 0.19030654 1.6730001
0.9166674 0.1922435 1.6730001
0.41838384 0.2077392 1.6730001
0.42564747 0.20338103 1.6730001
0.43436378 0.20192832 1.6730001
0.44017467 0.20192832 1.6730001
0.46341822 0.20483378 1.6730001
0.47503999 0.20483376 1.6730001
0.48230362 0.20483376 1.6730001
0.49683082 0.20192832 1.6730001
0.50506294 0.20192832 1.6730001
0.51716888 0.20192832 1.6730001
0.53314888 0.20192832 1.6730001
0.57382506 0.20192832 1.6730001
0.58835226 0.20192832 1.6730001
0.59416318 0.20192832 1.6730001
0.32976782 0.21936098 1.6730001
0.34284234 0.21936098 1.6730001
0.36608589 0.21936098 1.6730001
0.40676206 0.21790826 1.6730001
0.41402572 0.21161315 1.6730001
0.097332351 0.22807731 1.6730001
0.10459597 0.22589822 1.6730001
0.11767046 0.22517186 1.6730001
0.12541831 0.22323492 1.6730001
0.14091401 0.22517186 1.6730001
0.15398851 0.22517186 1.6730001
0.16996844 0.22517186 1.6730001
0.17577933 0.22517186 1.6730001
0.18449566 0.22517186 1.6730001
0.19514894 0.22614035 1.6730001
0.20556012 0.22735094 1.6730001
0.2150028 0.22517186 1.6730001
0.22807731 0.22517186 1.6730001
0.23969908 0.22517186 1.6730001
0.24550998 0.22371913 1.6730001
0.25422633 0.22226642 1.6730001
0.26294264 0.22420339 1.6730001
0.2731117 0.22517186 1.6730001
0.29199708 0.22517186 1.6730001
0.30071339 0.22226642 1.6730001
0.35882226 0.22226642 1.6730001
0.36172771 0.22226642 1.6730001
-0.77430069 0.23969908 1.6730001
-0.9021402 0.24841541 1.6730001
-0.89342386 0.24841541 1.6730001
-0.88761294 0.24405724 1.6730001
-0.86436939 0.24260454 1.6730001
-0.83822042 0.24550997 1.6730001
-0.81207144 0.24841541 1.6730001
-0.80480778 0.24768905 1.6730001
-0.79463881 0.24550997 1.6730001
-0.7888279 0.24550997 1.6730001
-0.77575338 0.24550997 1.6730001
-0.76703703 0.24841541 1.6730001
-0.75589955 0.24647844 1.6730001
-0.74815166 0.24841541 1.6730001
0.71377784 0.18829723 1.6810001
0.85244632 0.18829723 1.6810001
0.87580103 0.18829723 1.6810001
0.88407248 0.18829724 1.6810001
0.89331704 0.18829723 1.6810001
0.90207505 0.18829723 1.6810001
0.42768285 0.19997457 1.6810001
0.44227952 0.19997457 1.6810001
0.50504524 0.19997457 1.6810001
0.51234359 0.19997457 1.6810001
0.5298596 0.19997457 1.6810001
0.53861761 0.19997457 1.6810001
0.54445636 0.19997458 1.6810001
0.55321431 0.19997457 1.6810001
0.56781101 0.19997457 1.6810001
0.57073033 0.19997457 1.6810001
0.59992373 0.19997457 1.6810001
0.60284305 0.19997457 1.6810001
0.61452037 0.19705524 1.6810001
0.62619776 0.19705524 1.6810001
0.63787508 0.19997457 1.6810001
0.64546531 0.19530363 1.6810001
0.6553911 0.19608212 1.6810001
0.6860441 0.19705524 1.6810001
0.69772148 0.19705524 1.6810001
0.70501983 0.19413589 1.6810001
0.71085852 0.19267622 1.6810001
0.85487914 0.19218966 1.6810001
0.86558336 0.19218966 1.6810001
0.9093734 0.19121656 1.6810001
0.91229272 0.19121656 1.6810001
0.92105073 0.19121656 1.6810001
0.41600549 0.20775947 1.6810001
0.42330384 0.20435357 1.6810001
0.43936017 0.2028939 1.6810001
0.44665852 0.2028939 1.6810001
0.45833588 0.2028939 1.6810001
0.46855354 0.2028939 1.6810001
0.48898891 0.2028939 1.6810001
0.49336791 0.2028939 1.6810001
0.50942427 0.2028939 1.6810001
0.51526296 0.2028939 1.6810001
0.57948834 0.2028939 1.6810001
0.58532703 0.2028939 1.6810001
0.34302205 0.21749058 1.6810001
0.40578783 0.21749058 1.6810001
0.41113994 0.21262503 1.6810001
0.089039773 0.22916794 1.6810001
0.093418777 0.22916794 1.6810001
0.10509612 0.2240591 1.6810001
0.1153138 0.22332928 1.6810001
0.12261215 0.22040993 1.6810001
0.13574916 0.22624859 1.6810001
0.15472485 0.22624859 1.6810001
0.16494253 0.22624859 1.6810001
0.17661989 0.22430238 1.6810001
0.18537788 0.22332928 1.6810001
0.19530363 0.22449699 1.6810001
0.20435357 0.22624859 1.6810001
0.21749058 0.22332926 1.6810001
0.22624859 0.22624859 1.6810001
0.23500662 0.22478893 1.6810001
0.24522428 0.22186959 1.6810001
0.25544196 0.22040993 1.6810001
0.26517308 0.22235617 1.6810001
0.27393112 0.22332928 1.6810001
0.28463537 0.22332928 1.6810001
0.29582614 0.22235617 1.6810001
0.3050707 0.22332926 1.6810001
0.31236905 0.22624859 1.6810001
0.32550603 0.22186959 1.6810001
0.34886074 0.22332926 1.6810001
0.35469943 0.22332928 1.6810001
0.36199775 0.22040993 1.6810001
0.40432814 0.22040993 1.6810001
-0.91229272 0.24960329 1.6810001
-0.90499443 0.24668396 1.6810001
-0.89623642 0.24668396 1.6810001
-0.85098666 0.24668396 1.6810001
-0.84514797 0.24668396 1.6810001
-0.81157565 0.24668396 1.6810001
-0.80719662 0.24668396 1.6810001
-0.79843861 0.24376462 1.6810001
-0.76632589 0.24668396 1.6810001
-0.75756788 0.24668396 1.6810001
-0.74589056 0.24376462 1.6810001
0.70879447 0.18930535 1.6900001
0.71319693 0.18930535 1.6900001
0.87462008 0.18930535 1.6900001
0.88465804 0.18725261 1.6980001
0.89434516 0.18681151 1.694
0.90611279 0.18827897 1.694
0.92744946 0.18930535 1.6900001
0.4324578 0.19857916 1.694
0.44675231 0.19904806 1.6980001
0.47427499 0.19904807 1.6980002
0.4858247 0.19831084 1.6980001
0.49590001 0.19904807 1.6980002
0.5054065 0.19834471 1.692
0.51483834 0.19857916 1.694
0.5248971 0.19904806 1.6980001
0.5440647 0.19904806 1.6980001
0.55291128 0.19904806 1.6980001
0.57797658 0.19904806 1.6980001
0.60750163 0.19784194 1.6940001
0.61486745 0.19743991 1.6926668
0.62172031 0.19743991 1.6926668
0.63542032 0.19811027 1.6900001
0.64485526 0.1949551 1.6932
0.65449762 0.19297406 1.6900001
0.66781092 0.19857916 1.694
0.67420703 0.19770804 1.6916001
0.68602258 0.19671884 1.6932
0.6949411 0.19687375 1.692
0.70491546 0.19455288 1.6948
0.71172947 0.19224033 1.6900001
0.86638999 0.19195811 1.694
0.87286258 0.19020148 1.6980001
0.91562104 0.19020148 1.6980001
0.92375731 0.19269533 1.694
0.41554356 0.20813863 1.6940001
0.42363209 0.20299087 1.6940001
0.43731004 0.20104523 1.6900001
0.44464746 0.20104523 1.6900001
0.45491984 0.20251271 1.6900001
0.46621966 0.20240955 1.6916001
0.47546464 0.20251273 1.6900003
0.48587793 0.20271096 1.6934286
0.49531764 0.20136246 1.6926668
0.50041181 0.20104523 1.6900001
0.52520508 0.20185164 1.6926668
0.53856641 0.20104523 1.6900001
0.55324125 0.20104523 1.6900001
0.57818842 0.20104523 1.6900001
0.59419531 0.20199692 1.6980002
0.60014689 0.20152107 1.694
0.10615896 0.21969007 1.6980001
0.11058225 0.21969007 1.6980001
0.12237769 0.21969007 1.6980001
0.19609919 0.21969007 1.6980001
0.24711725 0.21917254 1.694
0.25507641 0.21969007 1.6980002
0.26392299 0.21969007 1.6980002
0.28751385 0.21969007 1.6980001
0.2957707 0.21910031 1.6980002
0.30411378 0.21869409 1.696
0.31700245 0.21969007 1.6980001
0.32584906 0.21969007 1.6980001
0.33497697 0.21891379 1.692
0.34485859 0.21865502 1.6900001
0.35513097 0.21865502 1.6900001
0.36565864 0.21969007 1.6980001
0.37303078 0.21969007 1.6980002
0.40727961 0.21640316 1.6953335
0.41136599 0.2108435 1.6980001
0.088816032 0.22719479 1.6953335
0.095386431 0.22599244 1.6900003
0.10357741 0.22258596 1.692
0.1144637 0.22158998 1.6900001
0.12767105 0.22158998 1.6900001
0.13385358 0.22431916 1.694
0.14550547 0.22683589 1.6926668
0.15726386 0.22487925 1.6926668
0.16672938 0.22377054 1.6932001
0.17453952 0.22339335 1.6948
0.18372023 0.22193965 1.6926668
0.19416627 0.22211446 1.694
0.20478891 0.22389629 1.6926668
0.21425258 0.22452496 1.6900001
0.22452496 0.22452496 1.6900001
0.23413499 0.22238676 1.6916001
0.24360225 0.22158998 1.6900001
0.25680959 0.22158998 1.6900001
0.26561451 0.22158998 1.6900001
0.27548134 0.22258598 1.692
0.28502348 0.22185223 1.692
0.29349667 0.22158998 1.6900001
0.30768237 0.22354662 1.6900001
0.31569865 0.22381772 1.6930001
0.32313982 0.22335096 1.6900002
0.355131 0.22158998 1.6900001
0.39957055 0.22263893 1.6980001
0.40355793 0.22158998 1.6900001
-0.92446768 0.24917869 1.6980002
-0.91593504 0.24422848 1.6964
-0.90611279 0.24564977 1.694
-0.89956731 0.24506973 1.6900001
-0.86526471 0.24599503 1.6964
-0.85461891 0.24662809 1.694
-0.84779727 0.24622981 1.6980001
-0.83010411 0.24622981 1.6980001
-0.82373232 0.24711725 1.6940002
-0.81476015 0.24447349 1.6926668
-0.8055563 0.24593979 1.6960001
-0.79244101 0.24800469 1.6900001
-0.78561068 0.2478044 1.6953334
-0.77555019 0.24770424 1.6980001
-0.76489055 0.24564977 1.694
-0.75722146 0.24800469 1.6900001
-0.92011207 0.25093967 1.6900001
0.87845641 0.18813485 1.7060001
0.88141912 0.18813485 1.7060001
0.8962329 0.18813485 1.7060001
0.9066025 0.18813485 1.7060001
0.91104668 0.18813485 1.7060001
0.93623006 0.18813485 1.7060001
0.45330128 0.19998586 1.7060001
0.46663368 0.19998586 1.7060001
0.47848469 0.19998586 1.7060001
0.48441023 0.19702312 1.7060001
0.49626121 0.19801068 1.7060001
0.51107496 0.19702311 1.7060001
0.52440739 0.19850448 1.7060001
0.53329563 0.19998586 1.7060001
0.54366523 0.19998586 1.7060001
0.55551624 0.19998586 1.7060001
0.56440455 0.19998586 1.7060001
0.57625556 0.19998586 1.7060001
0.5851438 0.19998586 1.7060001
0.5955134 0.19998586 1.7060001
0.60588306 0.19899827 1.7060001
0.61625266 0.19702311 1.7060001
0.62563479 0.19603553 1.7060001
0.63551062 0.19702312 1.7060001
0.64439893 0.19603553 1.7060001
0.6671133 0.19504794 1.7060001
0.67550778 0.19628242 1.7060001
0.6858775 0.19603553 1.7060001
0.86956811 0.1910976 1.7060001
0.92586052 0.1910976 1.7060001
0.93178594 0.1910976 1.7060001
0.41700754 0.20591137 1.7060001
0.42219236 0.20294861 1.7060001
0.4577454 0.20294861 1.7060001
0.46070817 0.20294861 1.7060001
0.54070252 0.20294861 1.7060001
0.58810657 0.20294861 1.7060001
0.59106928 0.20294861 1.7060001
0.29627535 0.21776238 1.7060001
0.30516362 0.216281 1.7060001
0.36590004 0.2177624 1.7060001
0.40540344 0.21578722 1.7060002
0.41034135 0.21183687 1.7060001
0.08591985 0.22813201 1.7060001
0.094808102 0.22368789 1.7060001
0.11702876 0.22072515 1.7060001
0.13776803 0.22665064 1.7060001
0.14517492 0.22516927 1.7060001
0.15554455 0.22467548 1.7060001
0.16443281 0.2227003 1.7060001
0.17035832 0.22072513 1.7060001
0.18813485 0.22072513 1.7060001
0.19504794 0.22072515 1.7060001
0.20591137 0.22171271 1.7060001
0.21479963 0.22368789 1.7060001
0.22516926 0.22368789 1.7060001
0.23702028 0.22072513 1.7060001
0.24294579 0.22072513 1.7060001
0.27109194 0.22072513 1.7060001
0.28442433 0.22072513 1.7060001
0.31553325 0.22072513 1.7060001
0.32442153 0.22072513 1.7060001
0.38466415 0.22072515 1.7060001
0.39849034 0.22368789 1.7060001
0.40145308 0.22072513 1.7060001
-0.92511976 0.23776096 1.7060001
-0.91993493 0.23850165 1.7060001
-0.93178594 0.24442716 1.7060001
-0.92734182 0.24442717 1.7060002
-0.9189474 0.24343958 1.7060001
-0.86413646 0.24343958 1.7060002
-0.85327303 0.24442716 1.7060001
-0.84882885 0.24442716 1.7060001
-0.82660818 0.24442716 1.7060001
-0.81525105 0.24442717 1.7060001
-0.80339998 0.24541473 1.7060001
-0.79401791 0.24738991 1.7060001
-0.78438902 0.24664922 1.7060001
-0.76587176 0.24590853 1.7060001
-0.75994623 0.24738991 1.7060001
-0.78364825 0.25035265 1.7060001
0.87564468 0.18912734 1.715
0.88457984 0.18689355 1.715
0.8979826 0.18614896 1.715
0.90393937 0.18614896 1.715
0.91883129 0.18614896 1.715
0.92329884 0.18912734 1.715
0.93551028 0.18793599 1.715
0.94265836 0.18614896 1.715
0.47654134 0.19806249 1.715
0.48547649 0.1965733 1.715
0.49590084 0.1965733 1.715
0.50632513 0.19806249 1.715
0.53313065 0.19806249 1.715
0.58227396 0.19806249 1.715
0.59716588 0.19806249 1.715
0.60461181 0.19806249 1.715
0.61652541 0.19508411 1.715
0.62397134 0.19508411 1.715
0.63588488 0.19508411 1.715
0.64630926 0.19508411 1.715
0.65971196 0.19210573 1.715
0.66417944 0.19210573 1.715
0.67460382 0.19508411 1.715
0.68502814 0.19508411 1.715
0.69694173 0.19508411 1.715
0.71332282 0.19409132 1.715
0.40803853 0.20997603 1.715
0.41473991 0.20699765 1.715
0.42739803 0.20104088 1.715
0.43335479 0.20104088 1.715
0.44824672 0.20104088 1.715
0.46164942 0.20104088 1.715
0.54206574 0.20104088 1.715
0.55249012 0.20104088 1.715
0.59120911 0.20104088 1.715
0.1072218 0.21891119 1.715
0.11168938 0.21891119 1.715
0.19806249 0.21891119 1.715
0.20104088 0.21891119 1.715
0.23975986 0.21891119 1.715
0.24571663 0.2189112 1.715
0.2516734 0.21891119 1.715
0.28741401 0.21891119 1.715
0.29485995 0.21742199 1.715
0.30230591 0.2159328 1.715
0.31124106 0.21891119 1.715
0.33804652 0.21891119 1.715
0.34549248 0.21891119 1.715
0.35740602 0.21891119 1.715
0.3618736 0.21891119 1.715
0.37676549 0.2189112 1.715
0.38570064 0.2189112 1.715
0.39582714 0.21712415 1.715
0.40257818 0.21494001 1.715
0.083394736 0.22784632 1.715
0.096797459 0.22188957 1.715
0.10275423 0.22188957 1.715
0.1265813 0.22188957 1.715
0.13551645 0.22486795 1.715
0.14643718 0.22586076 1.715
0.15189755 0.22486795 1.715
0.16381109 0.22188957 1.715
0.17572463 0.22188957 1.715
0.18317059 0.22188959 1.715
0.20997603 0.22188957 1.715
0.21295442 0.22188957 1.715
0.22784632 0.22188957 1.715
0.2323139 0.22188957 1.715
0.27698967 0.22188957 1.715
0.28145725 0.22188957 1.715
0.31421944 0.22188957 1.715
0.38867903 0.22188957 1.715
0.39612499 0.22188957 1.715
0.40059257 0.22188957 1.715
-0.9367016 0.24571663 1.715
-0.86224198 0.24571663 1.715
-0.85628521 0.24273825 1.715
-0.84735006 0.24273825 1.715
-0.83543652 0.24472384 1.715
-0.82650137 0.24273825 1.715
-0.81756628 0.24571663 1.715
-0.80465996 0.24670944 1.715
-0.79820681 0.24571663 1.715
-0.77884728 0.24571663 1.715
0.8842178 0.18701729 1.723
0.89768302 0.18701729 1.723
0.90516371 0.18701729 1.723
0.92012513 0.18701729 1.723
0.93658262 0.18701729 1.723
0.94107103 0.18402502 1.723
0.46829131 0.19898641 1.723
0.47277972 0.19898641 1.723
0.48774111 0.19599412 1.723
0.49821407 0.19599412 1.723
0.50270247 0.19599412 1.723
0.52514458 0.19898641 1.723
0.54509306 0.19898641 1.723
0.55506736 0.19898641 1.723
0.56404418 0.19898641 1.723
0.58499008 0.19898641 1.723
0.59396696 0.19898641 1.723
0.60743219 0.19599412 1.723
0.61341673 0.19599412 1.723
0.62289226 0.19200443 1.723
0.6343627 0.19599412 1.723
0.64333951 0.19599412 1.723
0.65680474 0.19300185 1.723
0.67326224 0.19300185 1.723
0.68074298 0.19300185 1.723
0.70617729 0.19599412 1.723
0.7106657 0.19599412 1.723
0.72263485 0.19000958 1.723
0.93209422 0.19000958 1.723
0.39797282 0.20796323 1.723
0.40545353 0.20676632 1.7229999
0.41368222 0.20571902 1.723
0.42340717 0.20197868 1.723
0.43238398 0.20197868 1.723
0.5775094 0.20197868 1.723
0.10323355 0.21993235 1.723
0.11669879 0.21993235 1.723
0.12118721 0.21993235 1.723
0.19449799 0.21843621 1.723
0.20646709 0.21993235 1.723
0.21095552 0.21993235 1.723
0.22890916 0.21993235 1.723
0.23638986 0.21993235 1.723
0.24387056 0.21694008 1.723
0.26182422 0.21993235 1.723
0.27379331 0.21993235 1.723
0.28426629 0.21993235 1.723
0.29473925 0.21694006 1.723
0.30970064 0.21694006 1.723
0.31568521 0.21893494 1.723
0.32466203 0.21993236 1.723
0.33363885 0.21993236 1.723
0.35458478 0.21993235 1.723
0.37553072 0.21694008 1.723
0.38510603 0.21574317 1.7229999
0.39408287 0.21364856 1.7229998
0.40395737 0.21095552 1.723
0.088272162 0.22591689 1.723
0.094256714 0.22292462 1.723
0.13465247 0.22442076 1.723
0.15559839 0.22292462 1.723
0.16008681 0.22292462 1.723
0.21843621 0.22292462 1.723
0.22442076 0.22292462 1.723
-0.9238655 0.24461862 1.723
-0.86027956 0.24087828 1.723
-0.85579115 0.24087828 1.723
-0.84831047 0.24387056 1.723
-0.83933365 0.24387056 1.723
-0.8228761 0.24387056 1.723
-0.81539547 0.24387056 1.723
-0.80582017 0.24327211 1.7229999
-0.79444945 0.24536669 1.723
-0.78696877 0.24686283 1.723
-0.77649581 0.24686283 1.723
0.88432455 0.18799417 1.7320001
0.89485228 0.18498626 1.7320001
0.91741157 0.18799417 1.7320001
0.92493129 0.1859889 1.7320001
0.93545902 0.1872422 1.7320001
0.94899458 0.18498626 1.7320001
0.48427299 0.19701789 1.7320001
0.49179277 0.19400999 1.7320001
0.50683224 0.19551393 1.7320001
0.51284808 0.19701789 1.7320001
0.53691137 0.19701789 1.7320001
0.58804578 0.19701789 1.7320001
0.59556556 0.19701789 1.7320001
0.60308528 0.19701789 1.7320001
0.6166209 0.19400999 1.7320001
0.62414062 0.19400999 1.7320001
0.6527158 0.19400999 1.7320001
0.66023552 0.19400999 1.7320001
0.68429875 0.19400999 1.7320001
0.69482648 0.19400999 1.7320001
0.70385015 0.19400999 1.7320001
0.71588182 0.19400999 1.7320001
0.7218976 0.19250605 1.7320001
0.38801998 0.20904952 1.7320001
0.39553979 0.20604162 1.7320004
0.40381148 0.20453766 1.7320001
0.41509113 0.2030337 1.7320001
0.4256188 0.2000258 1.7320001
0.44968206 0.2030337 1.7320001
0.46772951 0.2000258 1.7320001
0.52187181 0.2000258 1.7320001
0.54593509 0.2000258 1.7320001
0.55796671 0.2000258 1.7320001
0.57300621 0.2000258 1.7320001
0.1097886 0.21807323 1.7320001
0.2060416 0.21807323 1.7320001
0.2356194 0.21707061 1.7320002
0.2451444 0.21506533 1.7320001
0.2511602 0.21807323 1.7320001
0.29176694 0.21807323 1.7320001
0.32936579 0.21807323 1.7320001
0.34500691 0.21687007 1.7320002
0.35042113 0.21807323 1.7320001
0.36245278 0.21807323 1.7320001
0.37448439 0.21656927 1.7320001
0.38471127 0.21326058 1.7320002
0.085725352 0.22609434 1.7320001
0.096253015 0.22108115 1.7320001
0.10076488 0.22108115 1.7320001
0.14889139 0.22408906 1.7320001
0.15189929 0.22408906 1.7320001
0.16543487 0.22108115 1.7320001
0.17596255 0.22108117 1.7320001
0.18348232 0.22108115 1.7320001
0.19100209 0.22108115 1.7320001
0.21506533 0.22108115 1.7320001
0.225593 0.22108115 1.7320001
0.23311277 0.22108115 1.7320001
0.25717604 0.22108115 1.7320001
0.26519713 0.22108117 1.7320001
0.27522349 0.22108115 1.7320001
0.28123927 0.22108115 1.7320001
-0.92593402 0.24514441 1.7320001
-0.87530088 0.2451444 1.7320001
-0.8677811 0.24213649 1.7320001
-0.82416642 0.24213649 1.7320001
-0.81564403 0.24213651 1.7320001
-0.80611902 0.24213649 1.7320001
-0.79559135 0.24514441 1.7320001
-0.78055179 0.2451444 1.7320001
-0.77303207 0.2481523 1.7320001
-0.76852018 0.2481523 1.7320001
0.72716057 0.18897104 1.7410001
0.89345515 0.18594751 1.7410001
0.90252572 0.18594751 1.7410001
0.91159636 0.18594751 1.7410001
0.93729639 0.18594751 1.7410001
0.94485521 0.18594751 1.7410001
0.52458364 0.19804166 1.7410001
0.53365421 0.19804166 1.7410001
0.54574841 0.19804166 1.7410001
0.55481905 0.19804166 1.7410001
0.56540138 0.19804166 1.7410001
0.5729602 0.19804166 1.7410001
0.5880779 0.19804166 1.7410001
0.59412497 0.19804166 1.7410001
0.60470736 0.19501813 1.7410001
0.613778 0.19501813 1.7410001
0.62436032 0.19199458 1.7410001
0.65157217 0.19501813 1.7410001
0.69541347 0.19199458 1.7410001
0.70599592 0.19199459 1.7410001
0.71355468 0.19501813 1.7410001
0.72262526 0.19199458 1.7410001
0.38751662 0.20610443 1.7410001
0.39396685 0.20348404 1.7410001
0.4051539 0.20182107 1.7410001
0.41724807 0.2010652 1.7410001
0.42329514 0.2010652 1.7410001
0.43538928 0.2010652 1.7410001
0.4489952 0.20408873 1.7410001
0.45504227 0.2010652 1.7410001
0.46713644 0.2010652 1.7410001
0.51853657 0.2010652 1.7410001
0.57900727 0.2010652 1.7410001
0.58354259 0.2010652 1.7410001
0.10582379 0.21920641 1.7410001
0.11640617 0.21920641 1.7410001
0.12245324 0.21920641 1.7410001
0.16629452 0.21920641 1.7410001
0.17385337 0.21920641 1.7410001
0.19199458 0.21920641 1.7410001
0.20408873 0.21920641 1.7410001
0.21467111 0.21920641 1.7410001
0.22676526 0.21920641 1.7410001
0.23281233 0.21618287 1.7410001
0.25548887 0.21819857 1.7410001
0.2630477 0.21920641 1.7410001
0.27967715 0.21920641 1.7410001
0.28723598 0.21920641 1.7410001
0.30537722 0.21618287 1.7410001
0.31595963 0.21719073 1.7410001
0.32503021 0.21920642 1.7410001
0.3356126 0.21920641 1.7410001
0.34165967 0.21769464 1.7410001
0.35677731 0.21920641 1.7410001
0.36433619 0.21920641 1.7410001
0.37491855 0.21618287 1.7410001
0.38398916 0.21164757 1.7410001
0.0861708 0.22525349 1.7410001
0.09221787 0.22222996 1.7410001
0.12547678 0.22222996 1.7410001
0.13605915 0.22525349 1.7410001
0.14512977 0.22449762 1.7410001
0.15571216 0.22222996 1.7410001
0.18897104 0.22222996 1.7410001
0.21920641 0.22222996 1.7410001
0.22222996 0.22222996 1.7410001
-0.81635493 0.23734763 1.7410001
-0.92595816 0.24717413 1.7410001
-0.91613162 0.24944179 1.7410001
-0.88740802 0.24641825 1.7410001
-0.87531388 0.2433947 1.7410001
-0.8511256 0.2433947 1.7410001
-0.84507859 0.2433947 1.7410001
-0.83600795 0.2433947 1.7410001
-0.822402 0.24037117 1.7410001
-0.81484318 0.24037117 1.7410001
-0.80426079 0.2433947 1.7410001
-0.79549259 0.24399941 1.7410001
-0.78460777 0.24641825 1.7410001
-0.69292974 0.18583345 1.7590002
-0.68732929 0.18787 1.7590001
0.56666481 0.1863426 1.7590001
0.69596922 0.18994792 1.7500001
0.70416236 0.18892008 1.7525716
0.71365875 0.18870115 1.7554001
0.72636086 0.18994792 1.7500001
0.89655423 0.18386959 1.7500001
0.90880203 0.1848152 1.7590001
0.91382217 0.18621092 1.7530001
0.92655742 0.18754959 1.756
0.93389213 0.18535805 1.7545002
0.94639021 0.18410599 1.7522501
0.9544937 0.18260407 1.7554001
-0.70107585 0.19550699 1.7590001
-0.69383669 0.19477208 1.757
-0.6859864 0.19533718 1.756
0.3976272 0.1980499 1.7545002
0.40524468 0.19804989 1.7545002
0.41545236 0.19703439 1.7590001
0.47259042 0.19906542 1.7500001
0.48170793 0.19906542 1.7500001
0.52273667 0.19906542 1.7500001
0.53428292 0.19737536 1.7530001
0.54541361 0.1980499 1.7545002
0.55356741 0.19737536 1.7530001
0.56537098 0.19489095 1.755
0.57538462 0.19534403 1.7530001
0.58501661 0.19804989 1.7545002
0.59568107 0.19576663 1.7545002
0.60583895 0.19500291 1.7545002
0.61610526 0.19297163 1.7554001
0.62403524 0.19174972 1.7554001
0.63224089 0.19195594 1.7545002
0.64608949 0.19703439 1.7590001
0.65525389 0.19703439 1.7590001
0.66253835 0.19298708 1.7500001
0.67358267 0.19397959 1.7590001
0.68580186 0.19397959 1.7590002
0.69141042 0.19298708 1.7500001
0.71724331 0.19298708 1.7500001
0.72325867 0.19161223 1.756
-0.70107585 0.20467138 1.7590001
-0.69384784 0.2051674 1.7554001
-0.6864807 0.20450167 1.7589999
0.24743854 0.2061988 1.7590001
0.2547361 0.2051805 1.7589999
0.26118511 0.20467138 1.7590001
0.38492274 0.20618498 1.755625
0.39306065 0.20109689 1.7545002
0.41438952 0.20109689 1.7545002
0.42461675 0.20008919 1.7590001
0.43308127 0.20210458 1.7500001
0.44447294 0.20314398 1.7590001
0.45489499 0.20177925 1.7560003
0.46602041 0.20212042 1.7567501
0.47502089 0.20008919 1.7590001
0.48418528 0.20008919 1.7590001
-0.72245944 0.21536317 1.7590001
-0.70107585 0.21230838 1.7590001
-0.69802105 0.21230838 1.7590001
0.10691789 0.21841797 1.7590001
0.11455488 0.21841797 1.7590001
0.12219187 0.21841797 1.7590001
0.13899325 0.21841797 1.7590001
0.14510284 0.21841797 1.7590001
0.15455934 0.21674903 1.7554001
0.16492064 0.21736 1.7554001
0.17412342 0.21841797 1.7590001
0.18787 0.21841797 1.7590001
0.20925358 0.21841797 1.7590001
0.21462858 0.21767294 1.7530001
0.22543517 0.21691298 1.7518002
0.23461369 0.21481222 1.7545002
0.24486002 0.21292272 1.7515001
0.25524029 0.21415488 1.7522501
0.26430696 0.21613808 1.7554001
0.2718769 0.21841797 1.7590001
0.28562349 0.21841797 1.7590002
0.29517233 0.21757981 1.7522501
0.30242488 0.21536317 1.7590001
0.31617147 0.21536319 1.7590002
0.32602704 0.21785921 1.7545002
0.33582792 0.21730044 1.7500002
0.34613332 0.21600893 1.756
0.35650074 0.21785921 1.7545002
0.36516306 0.21757981 1.7522501
0.37553853 0.215572 1.7545002
0.38206407 0.21158418 1.7530001
