# .PCD v0.7 - Point Cloud Data file format
VERSION 0.7
FIELDS x y z
SIZE 4 4 4
TYPE F F F
COUNT 1 1 1
WIDTH 1501
HEIGHT 1
VIEWPOINT 0 0 0 1 0 0 0
POINTS 1501
DATA ascii
-0.074787125 0.16515373 1.1962004
-0.065463826 0.16521963 1.1966803
-0.055087939 0.16526382 1.1970003
-0.047663692 0.16734262 1.197
-0.10152033 0.17714261 1.1930001
-0.091014363 0.17767715 1.1938
-0.083973132 0.17511392 1.1954002
-0.074605457 0.1751958 1.1970003
-0.066247754 0.17478248 1.1970003
-0.055217866 0.17383882 1.1970003
-0.046961766 0.17433488 1.1970001
-0.17434758 0.18708952 1.1941429
-0.16462553 0.18705109 1.1937273
-0.15435234 0.1864659 1.193
-0.1445305 0.18589135 1.1950001
-0.13527665 0.18555972 1.1948463
-0.12598988 0.18610935 1.1937273
-0.11257682 0.18389685 1.1938
-0.10877178 0.18542999 1.1930001
-0.092946835 0.18226185 1.1960001
-0.073537193 0.18371308 1.197
-0.067929886 0.18301845 1.1962001
-0.030142456 0.18709111 1.197
-0.024655377 0.18580621 1.1966366
-0.019055575 0.18674466 1.197
-0.17565775 0.19020928 1.197
-0.16446428 0.19324754 1.1970003
-0.1561691 0.19150853 1.197
-0.1449956 0.19020928 1.197
-0.13823953 0.19020928 1.197
0.6495229 0.21857947 1.1930001
0.6274308 0.22227918 1.1943334
0.63505036 0.22205715 1.1950001
0.64130676 0.22139114 1.197
0.47292474 0.23802146 1.197
0.48584726 0.23929791 1.1930001
0.49517056 0.23929791 1.1930001
0.50035018 0.23929791 1.1930001
0.18853775 0.24965712 1.1930001
0.19439943 0.2493467 1.194
0.20645638 0.24818212 1.1947777
0.21436056 0.24729712 1.1947503
0.22448914 0.24732456 1.1955001
0.23451427 0.24800035 1.1950001
0.24321844 0.24841541 1.197
0.25431141 0.2476676 1.1954001
0.26452604 0.24737602 1.197
0.27429032 0.2494088 1.1938
0.28384256 0.24758528 1.1930001
0.2946915 0.24592504 1.1950001
0.30351549 0.24613313 1.1943334
0.31181651 0.24675284 1.1956668
0.32582301 0.24800034 1.1950001
0.33540362 0.24728152 1.1951818
0.3425827 0.2450949 1.1943334
0.35451612 0.24479595 1.1952858
0.3647753 0.24461658 1.1958573
0.37501037 0.24472868 1.1955
0.38458243 0.24481589 1.1952223
0.39547881 0.24434571 1.1954001
0.40461713 0.2435156 1.1954001
0.41557956 0.24488562 1.1950001
0.42637151 0.24308105 1.1951538
0.43496078 0.24057631 1.1955001
0.44332963 0.24190927 1.1956668
0.45449263 0.24177438 1.1950001
0.46538892 0.24073499 1.1949999
0.47432131 0.2409403 1.1952858
0.48571876 0.24159998 1.1941429
0.49163386 0.24010025 1.197
0.50712955 0.24094658 1.1943334
0.51278126 0.24136975 1.1930001
0.52073693 0.24010025 1.197
-0.539446 0.25880936 1.197
-0.26088816 0.25880936 1.197
-0.25673056 0.25880936 1.197
-0.23568217 0.25852108 1.1956668
-0.11397552 0.2576333 1.1954001
-0.10454538 0.25733754 1.1949999
-0.097020194 0.25785723 1.1950001
-0.085576862 0.25880939 1.197
-0.074773058 0.25755376 1.1960001
-0.065062486 0.2557517 1.1956668
-0.055253424 0.25730169 1.1941429
-0.047812171 0.25880936 1.197
-0.034252804 0.2555559 1.1954001
-0.015558277 0.25621587 1.1946001
-0.00621553 0.25587267 1.1930001
0.017669715 0.25465178 1.197
0.024909012 0.2542263 1.1950001
0.033233725 0.25339964 1.1960001
0.04569431 0.25236198 1.1960001
0.055464357 0.25349385 1.194
0.065440908 0.25448161 1.1962
0.073550448 0.25380081 1.1930001
0.082112208 0.25465178 1.197
0.095701627 0.25348127 1.1954001
0.10553919 0.2523036 1.1945
0.1151429 0.25206658 1.1946001
0.12735556 0.25090581 1.1956668
0.13567252 0.2511116 1.1950002
0.14437658 0.25074118 1.1962001
0.15400675 0.25229165 1.1956668
0.16433339 0.25142029 1.194
0.17507076 0.25172898 1.1930001
0.18397292 0.25049421 1.197
0.19852445 0.25049421 1.197
0.20060325 0.25049421 1.197
-0.65274006 0.26920331 1.197
-0.64542174 0.26719618 1.1950001
-0.63504392 0.26362979 1.1947778
-0.62703288 0.26487756 1.1935714
-0.54256421 0.26712453 1.197
-0.5340476 0.26529351 1.1950002
-0.5249722 0.2648243 1.1960001
-0.51657933 0.26504573 1.197
-0.49412844 0.26795605 1.197
-0.48697522 0.26604605 1.1945
-0.47640458 0.26593533 1.194
-0.46823663 0.26623186 1.1930001
-0.44278228 0.26504573 1.197
-0.43463054 0.26409855 1.1946
-0.42693257 0.26445529 1.1943334
-0.41526461 0.26309407 1.1938001
-0.40325367 0.26305676 1.1947144
-0.39638373 0.26304552 1.1950001
-0.38121918 0.26416004 1.1930001
-0.37424588 0.26494822 1.1950001
-0.36464444 0.26416004 1.1930001
-0.35651249 0.26296693 1.197
-0.34611854 0.26296693 1.197
-0.33440819 0.26274723 1.1960001
-0.3256999 0.26341435 1.1954999
-0.31597611 0.26296693 1.197
-0.30559692 0.26208818 1.1930001
-0.29556534 0.26203465 1.1943334
-0.2846728 0.26212192 1.1958573
-0.27751845 0.26088816 1.197
-0.26519597 0.26001635 1.1930001
-0.25339791 0.26067021 1.1960001
-0.24468505 0.2602343 1.194
-0.23929791 0.26001635 1.1930001
-0.22529517 0.26059759 1.1956668
-0.11602323 0.26001635 1.1930001
-0.092297755 0.26030695 1.1943334
-0.085981503 0.26001635 1.1930001
-0.65159476 0.27037555 1.1930001
-0.26512972 -0.1449613 1.2028419
-0.23327196 -0.14121705 1.2046667
-0.24110317 -0.13464203 1.202
-0.23491833 -0.13456318 1.2028332
-0.2268388 -0.13533784 1.2019999
-0.23405793 -0.12577026 1.2019999
-0.22823045 -0.12350883 1.2020001
-0.17221655 0.13464203 1.202
-0.14137335 0.13718452 1.2060001
-0.13506927 0.13835056 1.203143
-0.12420466 0.137982 1.202
-0.11496937 0.1362198 1.2036667
-0.10774224 0.13807774 1.2046667
-0.09494704 0.13823174 1.2060002
-0.085164405 0.13791236 1.2042223
-0.1337474 0.14150088 1.2020001
-0.12629214 0.14194819 1.2020001
-0.11307149 0.14229611 1.2020001
-0.10527173 0.14399184 1.2031764
-0.095154569 0.14429598 1.2041998
-0.084423251 0.14441948 1.2031428
-0.074561059 0.14703092 1.2045716
-0.064980544 0.14813754 1.2052729
-0.05797736 0.14651422 1.2060003
-0.074701741 0.15223645 1.2020001
-0.065494485 0.15369022 1.2019999
-0.055100277 0.15530793 1.2032173
-0.045282129 0.15685874 1.2038946
-0.03447197 0.15668817 1.2029999
-0.026126284 0.15667765 1.2035385
-0.01989699 0.15812871 1.2060001
0.041888401 0.15184546 1.2060001
-0.043967415 0.16451901 1.2019999
-0.034443315 0.16491042 1.2019999
-0.024869787 0.16463467 1.2022352
-0.017948451 0.16493003 1.2050771
0.0010472101 0.16860081 1.2060001
-0.062972113 0.17778316 1.202
-0.054796174 0.17847897 1.202
-0.042034131 0.17468357 1.2019999
-0.034482356 0.17451592 1.2034398
-0.025099695 0.17465624 1.2043999
-0.016752059 0.17485544 1.2057999
-0.0023038622 0.17237078 1.2060002
0.0026180251 0.17121883 1.2060001
-0.092660554 0.18636692 1.2044001
-0.083897628 0.18347041 1.2034286
-0.077627853 0.18380128 1.2026668
-0.063407011 0.18239298 1.202
-0.055020887 0.18352053 1.2031111
-0.045246348 0.18341884 1.2024443
-0.034730505 0.18388514 1.2043155
-0.025049683 0.18161018 1.202
-0.01776506 0.1835226 1.2036
-0.18056644 0.19309129 1.202
-0.17391263 0.19495809 1.2026154
-0.1680416 0.1962225 1.202
-0.15499324 0.19523782 1.2023636
-0.14609942 0.19352083 1.2046669
-0.13423763 0.19217382 1.2037144
0.62937325 0.22022845 1.202
0.63250446 0.22231592 1.202
0.46706551 0.23928082 1.2033334
0.47427568 0.23849748 1.2036
0.48602182 0.23961225 1.205
0.49610209 0.23917477 1.2028
0.50601256 0.2394134 1.2040001
0.51627457 0.23981111 1.2060001
0.52316999 0.23961225 1.2050002
0.12837961 0.24945307 1.202
0.13672951 0.24945307 1.202
0.14113891 0.24882093 1.204
0.1878726 0.24945307 1.202
0.19465689 0.24945307 1.202
0.20474344 0.24861513 1.2030001
0.21768713 0.24485207 1.2033334
0.22396111 0.24624835 1.2033334
0.24721394 0.24861023 1.2046667
0.25467175 0.24736559 1.202
0.26703855 0.24818878 1.2060001
0.27495775 0.24855998 1.2040001
0.28332502 0.24829906 1.204
0.2935679 0.24749064 1.2060001
0.30432963 0.24576786 1.2044001
0.31520444 0.24694185 1.2033334
0.326116 0.24723759 1.2042859
0.33471298 0.24589811 1.2033334
0.34408519 0.24527812 1.202
0.35232103 0.2446425 1.204
0.36499143 0.24409373 1.2044001
0.37587833 0.24338111 1.2046669
0.38513884 0.24319065 1.202
0.39610279 0.24393187 1.2036002
0.4050746 0.24346042 1.2033334
0.41597855 0.24477509 1.2046669
0.4244616 0.24394205 1.2040001
0.44746262 0.24202621 1.2040001
0.45599937 0.24227269 1.2048573
0.46209747 0.24150434 1.204
0.48448199 0.24206644 1.2033334
0.50621229 0.24110317 1.202
0.51456219 0.24110317 1.202
0.52082461 0.24110317 1.202
-0.53804624 0.25832483 1.202
-0.32568231 0.25866088 1.2060001
-0.29321879 0.25866088 1.2060001
-0.28911507 0.25989044 1.202
-0.26615286 0.25989044 1.202
-0.25488448 0.25958306 1.2030001
-0.24527812 0.25989044 1.202
-0.2306658 0.25989044 1.202
-0.11389118 0.25669497 1.2033334
-0.10550164 0.25645012 1.2030001
-0.094174862 0.25762048 1.2038182
-0.085260667 0.25846788 1.2037144
-0.074965537 0.25767678 1.2046669
-0.066799149 0.25571549 1.202
-0.05539307 0.25689086 1.2036002
-0.049218871 0.25866088 1.2060001
-0.03502249 0.25561738 1.204
-0.025067916 0.25592822 1.2030001
-0.014966595 0.25550824 1.2026668
-0.0064781145 0.25563702 1.2036002
0.0093936305 0.25571549 1.202
0.016396448 0.25502837 1.2053336
0.024059203 0.25488883 1.2046667
0.033816956 0.25419068 1.2046667
0.045480698 0.25248095 1.204
0.056459036 0.25405002 1.2040001
0.064927027 0.25447205 1.2060001
0.074203953 0.25396562 1.2036002
0.086278848 0.25524807 1.2054287
0.094559275 0.2535139 1.2042859
0.10548758 0.2512891 1.2028002
0.11500555 0.25195909 1.2040001
0.12336933 0.25091189 1.204
0.13194847 0.25028321 1.2060001
0.14648524 0.25059754 1.205
0.15485597 0.25216836 1.205
0.16309038 0.25195909 1.2040001
0.17477083 0.25221023 1.2052001
0.18326175 0.25098139 1.2060001
0.26913297 0.25028321 1.2060001
0.28798276 0.25028321 1.2060001
-0.65463698 0.26589078 1.2044616
-0.64524919 0.2654936 1.2028002
-0.6363315 0.26197791 1.202
-0.54309106 0.26476121 1.2020001
-0.53702247 0.26363152 1.204
-0.52421546 0.26524633 1.205
-0.50329036 0.26786262 1.205
-0.49597698 0.26609904 1.2033334
-0.48598501 0.26525187 1.2036
-0.4767341 0.26659572 1.204
-0.44192261 0.26494414 1.2060001
-0.43472415 0.26393065 1.2052001
-0.42701167 0.26470506 1.2033335
-0.41377819 0.26400924 1.2033334
-0.40527031 0.26284972 1.2060002
-0.39060935 0.26494414 1.2060001
-0.38381481 0.26417375 1.2044001
-0.3751691 0.2636095 1.2035002
-0.3642641 0.26406538 1.202
-0.35422155 0.26435831 1.2033334
-0.3442612 0.263998 1.2036
-0.33381411 0.26148888 1.2036002
-0.32473835 0.26129869 1.2042223
-0.31521198 0.26186097 1.2046667
-0.30601978 0.26215228 1.2028002
-0.29508442 0.26136661 1.2040001
-0.28807133 0.26197791 1.202
-0.27541625 0.26180249 1.2060001
-0.22164209 0.2624138 1.204
-0.21781969 0.26284972 1.2060001
-0.24060649 -0.14184226 1.21
-0.23850513 -0.14184226 1.21
-0.23850513 -0.13974088 1.21
-0.23102802 -0.11528912 1.2117144
-0.22512442 -0.11352132 1.2111768
-0.21590161 -0.11220809 1.2118182
-0.20788053 -0.1113275 1.2152501
-0.23035322 -0.10623828 1.2113335
-0.22468765 -0.10655091 1.2132144
-0.21416663 -0.10761255 1.215
-0.2075334 -0.1081706 1.2173336
-0.34154677 0.13809453 1.2140001
-0.33673763 0.13828413 1.2156668
-0.11137244 0.13448748 1.21
-0.10397188 0.13572137 1.2130001
-0.093510821 0.13974088 1.21
-0.080902621 0.13763952 1.21
-0.076624781 0.13745284 1.2130002
-0.051483486 0.13974088 1.21
-0.04440809 0.13852111 1.2177501
-0.035456367 0.13864332 1.2126669
-0.028368451 0.13974088 1.21
-0.35215425 0.14452575 1.219
-0.34471944 0.14486645 1.21775
-0.33535942 0.14447895 1.2145002
-0.32826439 0.14568447 1.2140001
-0.10401765 0.14184226 1.21
-0.074405186 0.1424993 1.2117858
-0.066532381 0.14369635 1.2118889
-0.053393822 0.14470777 1.21
-0.045371704 0.14456329 1.2152402
-0.03494072 0.14449456 1.213167
-0.02440501 0.14528763 1.2110523
-0.015689915 0.14608495 1.2165715
-0.0069860891 0.14882487 1.2190001
0.039003797 0.14863609 1.2140001
0.04111211 0.14863609 1.2140001
-0.35177431 0.15207094 1.2190001
-0.34612894 0.15136527 1.2190001
-0.05253417 0.15024772 1.21
-0.044618603 0.15182117 1.2103637
-0.034672551 0.1512984 1.21
-0.023216698 0.15250352 1.2112309
-0.015003022 0.15501644 1.2136668
-0.0052860663 0.15541641 1.2175999
0.0051158946 0.15574835 1.2187917
0.01431495 0.15747865 1.2171818
0.02505113 0.15948042 1.2190001
0.036026496 0.15640604 1.2160001
0.043524604 0.15654948 1.2165
-0.013318786 0.16439027 1.211
-0.005261892 0.1652367 1.2120799
0.0054428596 0.16521068 1.213167
0.015204003 0.16544534 1.2114998
0.024616798 0.16524617 1.214174
0.0347922 0.16552915 1.2142003
0.044792984 0.16596808 1.2174209
0.056368731 0.16759653 1.2182858
0.063063316 0.16831158 1.2145001
-0.011557517 0.17546411 1.21
-0.0059888954 0.17609455 1.2099999
0.0056036441 0.17558086 1.2099999
0.015938548 0.17533764 1.2103331
0.025216401 0.17546414 1.2099999
0.034581143 0.17538884 1.2134548
0.045653947 0.17448641 1.2153046
0.054721005 0.17437993 1.215579
0.064550318 0.17536215 1.2132728
0.070395783 0.17336276 1.21
-0.086228102 0.18822776 1.2110001
-0.0126082 0.1828189 1.21
-0.0050013834 0.1845523 1.2127501
0.0054601943 0.18498622 1.2149132
0.014596428 0.1855395 1.216059
0.024257546 0.18563573 1.21465
0.034966614 0.18482558 1.2138698
0.045335855 0.18450847 1.2142003
0.054807641 0.18444704 1.2138003
0.063026108 0.18453903 1.2129475
-0.15024772 0.19647779 1.21
-0.1449943 0.19647779 1.21
-0.08736337 0.19185445 1.2180001
0.027520958 0.19158821 1.2190001
0.035777245 0.19398747 1.2190001
0.045474622 0.19460391 1.2179999
0.054957252 0.19446574 1.2171251
0.063320957 0.19389954 1.2166666
0.070628501 0.19080237 1.2140001
0.038317643 0.20683061 1.2190001
0.045639373 0.20519531 1.2160372
0.054693047 0.20513548 1.2181177
0.061851546 0.20498303 1.2185456
0.02676489 0.21608487 1.2190001
0.035802148 0.21599591 1.219
0.045385614 0.21531713 1.2155001
0.054981377 0.21510126 1.2176111
0.060334407 0.21381667 1.2190001
0.6351254 0.21897082 1.2143334
0.64039153 0.21805066 1.2190001
0.031754948 0.22122616 1.2190001
0.046221092 0.22122616 1.2190001
0.053983416 0.22122616 1.2190001
0.060334407 0.22651866 1.2190001
0.63741344 0.22135669 1.2120001
0.64435112 0.22304401 1.2145001
0.65521049 0.22334316 1.2190001
0.66156149 0.22334315 1.2190001
0.45105186 0.23872785 1.2165
0.46727103 0.23889935 1.2120001
0.47569385 0.23679276 1.212
0.4849121 0.23929358 1.2140001
0.49822134 0.23806517 1.2113335
0.50515991 0.23784518 1.212
0.51547635 0.23752105 1.2125
0.5241698 0.2372697 1.21175
0.53030771 0.23604514 1.2190001
0.016559986 0.24875697 1.2173333
0.021831494 0.24858835 1.2165
0.06548927 0.24844609 1.2165
0.072494887 0.24918233 1.2170001
0.098036572 0.24983513 1.2140001
0.1191197 0.24983513 1.2140001
0.1258947 0.24952428 1.2154287
0.13490736 0.24907719 1.2148889
0.14531657 0.24869426 1.2148751
0.15316749 0.24929112 1.2165
0.16533512 0.24935156 1.2162223
0.18825033 0.24947247 1.2156668
0.19428623 0.24911845 1.2143751
0.20517276 0.24903123 1.2142001
0.21821044 0.24561851 1.2140001
0.22334315 0.24663012 1.2190001
0.23482108 0.24956076 1.2126669
0.24449997 0.24871488 1.2144287
0.25519693 0.24746718 1.2138889
0.26428056 0.24701774 1.2126001
0.27437454 0.24741335 1.2147778
0.28480867 0.24683245 1.2148
0.29441324 0.24641755 1.2133334
0.30465126 0.24561851 1.2140001
0.31592661 0.24592638 1.2132223
0.32477298 0.24553511 1.2143571
0.33421788 0.24523556 1.2142001
0.34448209 0.24545665 1.2132001
0.35459694 0.24663012 1.2190001
0.36503288 0.2447664 1.2150002
0.37435329 0.24268891 1.2144288
0.38448536 0.24273342 1.213143
0.39647302 0.24360955 1.2124001
0.40496975 0.24232705 1.2127777
0.41571444 0.24342754 1.2147778
0.42587325 0.24411197 1.2170001
0.43466395 0.24140188 1.2140001
0.44568598 0.24051297 1.2125715
0.45598409 0.24078199 1.2148751
0.46321172 0.24057536 1.2151668
0.48646641 0.24060649 1.21
0.49537724 0.24027912 1.2190001
0.51378417 0.24060649 1.21
-0.32536161 0.2595188 1.21
-0.29684561 0.25947213 1.21225
-0.28893793 0.2595188 1.21
-0.27091828 0.25826839 1.2140001
-0.26437992 0.25854051 1.210889
-0.25484329 0.25929692 1.2144445
-0.24677037 0.25942546 1.2145
-0.22334318 0.25812241 1.2190001
-0.21725282 0.25738892 1.2165
-0.11749332 0.25933209 1.2190001
-0.10313369 0.25678873 1.2120001
-0.094796821 0.25594908 1.2130001
-0.084505595 0.25731611 1.2135
-0.075373746 0.25730503 1.2149999
-0.064691707 0.25588682 1.2155714
-0.054206006 0.25728256 1.2160001
-0.045020051 0.2580671 1.2137858
-0.035232186 0.25482848 1.2147001
-0.024691148 0.25495335 1.2153001
-0.015814956 0.25520706 1.2145001
-0.0046428922 0.2555016 1.2149
0.0053991433 0.25547135 1.2148821
0.014566293 0.25327662 1.2128334
0.025449796 0.25267673 1.2139286
0.034480408 0.25327531 1.2167273
0.044429019 0.2525745 1.214143
0.055591311 0.25247112 1.2125
0.064079374 0.25220945 1.2134545
0.075359382 0.25234294 1.2143847
0.08506234 0.25274977 1.2140001
0.094621152 0.25162485 1.2135
0.10480599 0.25106135 1.2161251
0.114362 0.25112364 1.2138752
0.12187926 0.25111333 1.21
0.15568598 0.25104213 1.2125715
0.16495728 0.25111333 1.21
0.17563896 0.25109479 1.2144445
0.18293244 0.25113395 1.2177501
0.24027912 0.25086412 1.2190001
-0.65525585 0.2652626 1.21225
-0.64617026 0.26372153 1.21
-0.53573072 0.2635906 1.2147777
-0.52447408 0.26575297 1.2145002
-0.51572061 0.26648417 1.2162222
-0.50518888 0.265214 1.2153846
-0.49460757 0.26320028 1.2155001
-0.48480543 0.26539722 1.2148
-0.47546557 0.26732183 1.215091
-0.46478051 0.26901066 1.2165002
-0.45467541 0.26710036 1.2158333
-0.44592738 0.26527652 1.2152002
-0.43407434 0.26396033 1.2143335
-0.42371729 0.26377222 1.2138751
-0.41446942 0.2627959 1.2130002
-0.40074062 0.26470232 1.2145001
-0.39473781 0.26465172 1.2155001
-0.38577652 0.26350868 1.2138751
-0.37467951 0.26325756 1.2143335
-0.3654834 0.26450887 1.215
-0.35329473 0.26402858 1.2155716
-0.34439108 0.26264328 1.2147501
-0.33456492 0.26146546 1.2141669
-0.32134181 0.26150614 1.2160001
-0.31461143 0.26149797 1.2164286
-0.30565205 0.26142198 1.2127501
-0.28438267 0.26121292 1.2130001
-0.2750181 0.26132131 1.2135003
-0.24451312 0.2614491 1.2190001
-0.23272899 0.26122376 1.2155001
-0.22477823 0.2610485 1.2127779
-0.21669757 0.26151201 1.2122859
-0.20305541 -0.11162859 1.2243335
-0.19923823 -0.11187173 1.2270001
-0.20382152 -0.10837087 1.2252859
-0.19923823 -0.10974084 1.2270001
-0.36161205 0.14511362 1.2270001
-0.35737157 0.14592458 1.2236668
-0.011681689 0.14549012 1.223
-0.0084957741 0.14655209 1.223
0.028673235 0.14973801 1.223
0.035045065 0.14867604 1.223
-0.39101833 0.15875131 1.2270001
-0.38888744 0.15875131 1.2270001
-0.36209911 0.1538807 1.2270001
-0.35756665 0.15309066 1.2243335
0.0095577454 0.15186195 1.223
0.015929576 0.15372039 1.223
0.02436604 0.15492421 1.2253999
0.032783404 0.15391017 1.2258002
0.047788728 0.15823378 1.223
0.053187154 0.15849254 1.2250001
0.047788732 0.16141969 1.223
0.054000314 0.16392989 1.2237272
0.0084957741 0.19221687 1.223
0.014893654 0.19324152 1.2250001
0.024611298 0.19537525 1.2247143
0.032516479 0.19786905 1.2238001
0.068223737 0.19701947 1.2238001
0.072736695 0.19665034 1.2241429
0.026312115 0.20655021 1.2261431
0.034232479 0.20455554 1.2243999
0.043540843 0.2028366 1.223
0.055753514 0.2023056 1.223
0.066936471 0.204448 1.2235713
0.073333889 0.20639785 1.2266926
0.024702635 0.21289788 1.2252222
0.033186618 0.21319081 1.223
0.058408443 0.21133237 1.223
0.065149643 0.2156726 1.2229998
0.075576089 0.21501009 1.2257999
0.082039267 0.21202356 1.2270001
0.64461684 0.21982814 1.223
0.036933038 0.22399549 1.224
0.045714565 0.22432187 1.2243334
0.054999575 0.22558928 1.2239999
0.065252259 0.22490199 1.2229998
0.075162299 0.2243246 1.2269999
0.64674073 0.22195208 1.223
0.6545378 0.22208089 1.2256668
0.66418105 0.22196145 1.2254001
0.67227447 0.22491746 1.2256669
0.056804549 0.23409489 1.2259092
0.064935319 0.23525064 1.2258798
0.073302619 0.23695497 1.2270001
0.44806263 0.23946463 1.2256669
0.45491147 0.23826896 1.2250001
0.46630979 0.23972514 1.2270001
0.47494146 0.23880339 1.2250001
0.48784357 0.23860629 1.2240001
0.49480876 0.2388846 1.2263335
0.50182462 0.23972513 1.2270001
0.51531094 0.23623835 1.2255001
0.52384377 0.23688397 1.2270001
0.5316571 0.23759425 1.2270001
0.014867604 0.24743941 1.223
0.025718471 0.24845083 1.2238001
0.057937063 0.24679784 1.2258574
0.064684369 0.24442863 1.2256666
0.075530127 0.24659158 1.2251334
0.084644102 0.24818654 1.2246001
0.091781966 0.24912512 1.2243335
0.10974084 0.2482487 1.2270001
0.11807163 0.24890602 1.2250001
0.12303676 0.24890602 1.2250001
0.13544381 0.24819803 1.2250001
0.14454885 0.24764171 1.2240001
0.15511358 0.2484678 1.2263336
0.16434628 0.2484678 1.2263335
0.17575632 0.24956335 1.223
0.18442909 0.24956337 1.223
0.19618055 0.24868691 1.2256668
0.20509697 0.248833 1.2252222
0.2136867 0.24770916 1.2243335
0.23401584 0.24890602 1.2250001
0.24500518 0.24819803 1.2250001
0.25381124 0.24743941 1.223
0.26557022 0.24677859 1.2250001
0.27337134 0.24677861 1.2250001
0.28447387 0.24611782 1.2270001
0.29544458 0.24491754 1.2250001
0.30489331 0.24481727 1.2245001
0.31509152 0.24463245 1.2241429
0.32575959 0.24378806 1.2260002
0.33495456 0.24478404 1.2246002
0.34539056 0.2453707 1.2254002
0.35504109 0.2453644 1.2251819
0.36402485 0.24486072 1.2252859
0.37442014 0.24358922 1.2250001
0.3865577 0.24319153 1.223
0.3947739 0.24310151 1.2243335
0.40454 0.24272263 1.2260002
0.41735488 0.24319153 1.223
0.42521697 0.24252376 1.2250001
0.43349266 0.2428164 1.2254002
0.44426626 0.24179567 1.2240001
-0.49462786 0.25848114 1.2250001
-0.45707592 0.25890315 1.2270001
-0.26230702 0.25805911 1.223
-0.25529176 0.25848114 1.2250001
-0.23226702 0.25890315 1.2270001
-0.22726195 0.25699717 1.223
-0.11613351 0.25890315 1.2270001
-0.10416093 0.25720817 1.2240001
-0.093856707 0.25571954 1.2236668
-0.085817218 0.25617868 1.2262002
-0.075646602 0.25677225 1.2270001
-0.064072296 0.25593519 1.223
-0.054299492 0.25660488 1.2262002
-0.044023979 0.25584385 1.2246002
-0.035045065 0.25381124 1.223
-0.023882406 0.25244641 1.2248183
-0.015007213 0.25276035 1.2247778
-0.0050552199 0.25353098 1.2255001
0.0051044109 0.25180206 1.2246001
0.011681689 0.25168729 1.223
0.035132766 0.25177196 1.2260001
0.044679224 0.25209886 1.2250001
0.053183682 0.25138858 1.2250001
0.083895765 0.25168729 1.223
0.094750799 0.25070649 1.2260002
0.10547906 0.25037959 1.2270001
0.11444069 0.25070649 1.2260002
0.17366754 0.25037959 1.2270001
0.18645288 0.25037959 1.2270001
0.23617366 0.25037962 1.2270001
-0.66514826 0.26513892 1.223
-0.65736049 0.26655489 1.223
-0.54124606 0.26316494 1.2270001
-0.53475183 0.26542723 1.2243335
-0.52483112 0.26507786 1.2260001
-0.51443475 0.26448169 1.2243334
-0.50496751 0.26230702 1.223
-0.49499223 0.26077804 1.2238001
-0.48491758 0.26301733 1.2246668
-0.47489712 0.26519936 1.2246002
-0.4658429 0.26565599 1.2254001
-0.45653284 0.26323786 1.2255458
-0.44757754 0.26471925 1.2243335
-0.43378025 0.26290268 1.2238001
-0.42585063 0.26230705 1.223
-0.41411516 0.26401591 1.2260001
-0.40396795 0.26469666 1.2262002
-0.39604321 0.2632466 1.2254002
-0.38625222 0.26282176 1.2254001
-0.37495461 0.26326695 1.2250001
-0.36493608 0.26431638 1.2252859
-0.35547197 0.26287779 1.2256668
-0.34489202 0.26039582 1.2240001
-0.33876896 0.26018307 1.223
-0.32496071 0.26103404 1.2270001
-0.31750262 0.26103404 1.2270001
-0.30422235 0.26060855 1.2250001
-0.29735208 0.26018307 1.223
-0.28507036 0.26060855 1.2250001
-0.27777666 0.26145837 1.2256668
-0.24252552 0.26167053 1.2250001
-0.23500419 0.26094827 1.2246002
-0.2011199 -0.11446717 1.2320001
-0.19466546 -0.11309917 1.2337146
-0.18615937 -0.11212587 1.2356668
-0.17794119 -0.11090123 1.2320001
-0.20471673 -0.1055083 1.2328891
-0.19512263 -0.1061358 1.2346668
-0.18555474 -0.10618306 1.2352002
-0.17802918 -0.10647434 1.2336
-0.15776922 -0.099813186 1.2360001
-0.37456775 0.13845055 1.2360001
-0.38172281 0.14846765 1.2360001
-0.37484464 0.14538351 1.2348236
-0.36708966 0.14426838 1.2320002
-0.39332068 0.15611129 1.2342224
-0.3852216 0.15408559 1.2342224
-0.37547705 0.15509894 1.2344002
-0.3677927 0.15426324 1.2320002
0.011767654 0.15297949 1.2320001
0.016581694 0.19737564 1.2320001
0.020325948 0.19791053 1.2320001
0.078347981 0.1985531 1.2360001
0.081567764 0.1985531 1.2360001
0.017330546 0.20176177 1.2320002
0.022822117 0.20325947 1.2320004
0.077171676 0.20392595 1.2324446
0.083955593 0.20522614 1.2353685
0.085170381 0.21506222 1.2328892
0.091942608 0.21500978 1.2360001
0.65791881 0.21930628 1.2320001
0.66861671 0.21930628 1.2320001
0.67827427 0.21858904 1.2340001
0.039582107 0.22786456 1.2320001
0.042791471 0.22786456 1.2320001
0.085544154 0.22473796 1.2331113
0.091227099 0.22431135 1.2360001
0.65362579 0.22126871 1.2340001
0.66391653 0.22130413 1.2336
0.67505676 0.22205862 1.2337145
0.047145292 0.23037753 1.2340001
0.052481636 0.23483598 1.2335001
0.076168813 0.23385537 1.2320002
0.084536217 0.23434497 1.2323202
0.091227099 0.23182416 1.2360001
0.44969594 0.23933698 1.2360001
0.45511991 0.23730996 1.2344002
0.46207607 0.23836331 1.2346668
0.47974724 0.23933698 1.2360001
0.48486346 0.23787646 1.2340001
0.49906591 0.23933698 1.2360001
0.50484699 0.23902717 1.2344002
0.51391351 0.23714966 1.233
0.52497119 0.23621909 1.2346668
-0.017172161 0.24792306 1.2360001
0.015001327 0.24859169 1.2340001
0.025156485 0.24785621 1.233
0.055011921 0.24546361 1.2334547
0.075954854 0.24284159 1.2320002
0.084445536 0.243765 1.233067
0.093169853 0.24881457 1.2333335
0.10647573 0.24872541 1.2336
0.11460654 0.24822395 1.2335001
0.12543482 0.2483688 1.2346668
0.13458681 0.24749377 1.2360001
0.14369962 0.24772248 1.2350001
0.15552197 0.24776259 1.2352002
0.16528204 0.24792306 1.2360001
0.17546153 0.24859168 1.2340001
0.18483779 0.24859166 1.2340001
0.19527197 0.24881457 1.2333335
0.20459461 0.24786957 1.2336
0.21250549 0.24792306 1.2360001
0.22786456 0.24926031 1.2320001
0.2350256 0.24849617 1.2342858
0.24289802 0.24825738 1.2350001
0.25493851 0.24658374 1.2336003
0.26502401 0.2460932 1.2340001
0.27644956 0.24644864 1.2340001
0.28656045 0.24577656 1.2360001
0.29482815 0.24479592 1.2346668
0.30505535 0.24332958 1.2326669
0.31450686 0.24428301 1.2328001
0.3214553 0.2432358 1.2340001
0.3367793 0.24417047 1.2344002
0.34491593 0.24401279 1.2336001
0.35464761 0.24297184 1.2326669
0.36324295 0.24430558 1.2340001
0.37571004 0.24287188 1.2337146
0.38522166 0.24208708 1.2342223
0.39438263 0.24225956 1.2337145
0.40412796 0.24199277 1.2345001
0.4142735 0.24256997 1.2328001
0.4238182 0.24202676 1.2344002
0.43377855 0.24182303 1.2350001
0.44540295 0.24291453 1.2360001
0.466427 0.240702 1.2320001
-0.50335896 0.25865567 1.2360001
-0.49745083 0.25995818 1.2320001
-0.46157476 0.25952399 1.2333335
-0.45679891 0.25995818 1.2320001
-0.32307559 0.25995818 1.2320001
-0.29419133 0.25995818 1.2320001
-0.26080218 0.25865567 1.2360001
-0.25650916 0.25865567 1.2360001
-0.24819052 0.25995818 1.2320001
-0.2338604 0.25716385 1.2340001
-0.22786456 0.25567901 1.2320001
-0.12258536 0.25786874 1.2337145
-0.11528254 0.25643316 1.2350001
-0.10532536 0.25720036 1.2352002
-0.095081024 0.25523344 1.234286
-0.08407741 0.2543762 1.234182
-0.07576035 0.25551695 1.2346668
-0.065630376 0.25528914 1.2340001
-0.055529673 0.25530291 1.2331431
-0.045201961 0.25515243 1.2336
-0.034290485 0.25395101 1.2340001
-0.023591749 0.2509388 1.2350001
-0.014851975 0.25063974 1.2342858
-0.0059991418 0.25151035 1.2336001
0.00482446 0.25073475 1.2340001
0.01180586 0.25006959 1.2360001
0.035373122 0.25188825 1.2344002
0.044719171 0.2522161 1.2360001
0.050279975 0.25139987 1.2320001
0.098739922 0.25006959 1.2360001
0.10195971 0.25006959 1.2360001
0.18782051 0.25006959 1.2360001
0.23000415 0.25139987 1.2320001
-0.66291463 0.26737839 1.2333335
-0.65791881 0.26637688 1.2320001
-0.5429334 0.26277715 1.2352002
-0.53623265 0.26586422 1.2336
-0.52371269 0.26389208 1.2344002
-0.51523566 0.26286605 1.2336
-0.5063889 0.26194954 1.2346668
-0.492899 0.26144996 1.2340001
-0.48603976 0.26209778 1.2320001
-0.47507906 0.26269588 1.2328001
-0.46728837 0.26273683 1.2333335
-0.45396763 0.2632364 1.2340001
-0.44553491 0.26526472 1.2328001
-0.4144755 0.26541564 1.2350001
-0.40396258 0.26225317 1.2340002
-0.39532268 0.26188183 1.2326669
-0.38512322 0.26209775 1.2320001
-0.37708244 0.26346418 1.2344002
-0.36524144 0.26295087 1.2335002
-0.35541403 0.26173362 1.2353334
-0.34022343 0.26294872 1.2360001
-0.33520794 0.2623814 1.2333335
-0.32484469 0.26123405 1.2346668
-0.31448489 0.26159179 1.2346668
-0.308597 0.26144996 1.2340001
-0.29473719 0.26135743 1.2342858
-0.28418553 0.26112607 1.2350001
-0.2522161 0.26080218 1.2360001
-0.24289802 0.26112607 1.2350001
-0.23933698 0.26080218 1.2360001
-0.13028474 -0.16689368 1.24
-0.12658218 -0.16770123 1.2460001
-0.1030321 -0.16756272 1.2490001
-0.0986939 -0.16810499 1.2490001
-0.11170848 -0.15509042 1.2490001
-0.16108018 -0.11135073 1.245
-0.15409163 -0.11238773 1.2474999
-0.14525019 -0.11237188 1.2483335
-0.16136819 -0.1056646 1.2416667
-0.15429454 -0.10504229 1.2426087
-0.14727196 -0.10537156 1.2462727
-0.13773765 -0.10086299 1.2490001
-0.1388222 -0.0986939 1.2490001
-0.3926065 0.13990673 1.2490001
-0.37945732 0.13945869 1.245
-0.40267736 0.14610416 1.2490001
-0.39398935 0.14513294 1.2467337
-0.38549697 0.14499436 1.2426875
-0.37945732 0.14162083 1.245
-0.4136073 0.15686512 1.2490002
-0.40493134 0.15471528 1.2476671
-0.39617032 0.15184416 1.2431667
-0.41465899 0.1634053 1.2490001
-0.4061431 0.16388594 1.2466
-0.39946806 0.16043328 1.24
0.087933235 0.20780955 1.24
0.091522336 0.20780954 1.24
0.089368872 0.21211648 1.24
0.094889924 0.21504 1.2417858
0.10086299 0.21690968 1.2490001
0.65729362 0.21945824 1.245
0.66322708 0.21870489 1.2460001
0.67552662 0.2182367 1.2457502
0.68292683 0.21681242 1.2472
0.09493199 0.22485779 1.2399999
0.6568073 0.22073033 1.24
0.66523743 0.22102702 1.2416667
0.67471385 0.22058859 1.24225
0.68109637 0.22016332 1.2490001
0.037959192 0.23426244 1.2490001
0.04436655 0.23483518 1.2462729
0.050810527 0.23891759 1.245
0.093978278 0.23440717 1.2440001
0.40482426 0.23906782 1.2476667
0.41104382 0.23968519 1.2490001
0.45456758 0.23767219 1.2447779
0.46608877 0.23843783 1.2425001
0.47577018 0.23873648 1.2472857
0.48322952 0.23797968 1.2465715
0.49629158 0.23843783 1.2425001
0.50698024 0.23813435 1.244143
0.51571822 0.2375337 1.2458571
0.5241816 0.23596901 1.2446667
0.53714812 0.23885362 1.2446668
-0.021534666 0.24872541 1.24
-0.012920801 0.24872541 1.24
-0.008633404 0.24922687 1.2425001
0.011891825 0.24972834 1.245
0.024764867 0.24872541 1.24
0.036132216 0.24945498 1.2458
0.045683637 0.24824697 1.2484287
0.051802259 0.24507359 1.2457777
0.089368872 0.24334174 1.24
0.094060384 0.24671531 1.2450999
0.10357263 0.24922687 1.2425001
0.11792662 0.24776503 1.2460001
0.12593456 0.24775825 1.2438
0.13578694 0.24776502 1.2459999
0.14695543 0.2485435 1.2445
0.15596361 0.24595158 1.2456001
0.16490997 0.24584992 1.2429
0.17336026 0.24692482 1.245875
0.18552542 0.24693377 1.2451
0.19491509 0.24768949 1.2432221
0.20523384 0.24709423 1.244
0.21520068 0.2473696 1.245375
0.22466244 0.24896903 1.2472223
0.23432602 0.24709809 1.2446363
0.24504612 0.24655667 1.2431999
0.25348592 0.24556583 1.244
0.26395598 0.24493079 1.2448
0.27276435 0.24642017 1.2436001
0.28434137 0.24630089 1.2464287
0.29502878 0.24611068 1.2464001
0.31620225 0.24391299 1.2452857
0.32441485 0.24340282 1.2440001
0.33323857 0.24415509 1.2460001
0.34617391 0.24243276 1.2445556
0.35475141 0.2415877 1.2428572
0.36512616 0.24321719 1.2436666
0.37498352 0.24257274 1.2438
0.38479131 0.24103132 1.24475
0.39489961 0.24140637 1.2448334
0.40409717 0.24030519 1.2410001
0.41618577 0.24180901 1.244
0.42487663 0.24152903 1.244143
0.43633389 0.24140638 1.2448334
0.44572392 0.24231632 1.2447001
0.4743937 0.24043427 1.2416667
-0.54159689 0.25949275 1.24
-0.53728998 0.25949275 1.24
-0.52383542 0.25939754 1.243
-0.51569343 0.2575748 1.24375
-0.50918633 0.25837693 1.245
-0.46514881 0.25949275 1.24
-0.45868841 0.25949275 1.24
-0.41104382 0.25920707 1.2490001
-0.40464488 0.25921094 1.2445714
-0.39946806 0.25949275 1.24
-0.33078724 0.25920707 1.2490001
-0.32467183 0.25921094 1.2445714
-0.31777269 0.25920707 1.2490001
-0.3004199 0.25920707 1.2490001
-0.2957387 0.25939754 1.243
-0.28577271 0.2593658 1.244
-0.27330619 0.25920707 1.2490001
-0.26500666 0.25888723 1.244
-0.2534014 0.25916395 1.2453334
-0.24428223 0.25896701 1.2436999
-0.23756009 0.25624663 1.2416668
-0.12350674 0.2551066 1.24225
-0.113057 0.25572416 1.24
-0.10464502 0.25677702 1.2425001
-0.094011843 0.25394669 1.2445
-0.085025229 0.2526111 1.244
-0.074636199 0.25335726 1.2456924
-0.064935602 0.2543304 1.2463751
-0.054308068 0.25478366 1.244625
-0.044968881 0.25484285 1.2458571
-0.034789406 0.25406119 1.2465714
-0.027038163 0.25200874 1.2456001
-0.0037841967 0.25070477 1.2445
0.004682777 0.25070477 1.2445002
0.036368988 0.25168556 1.244
0.045140527 0.25139683 1.24525
0.050606467 0.25087887 1.24
0.10086299 0.25053066 1.2490001
0.22073033 0.25087887 1.24
-0.68218094 0.26788345 1.2490001
-0.67295837 0.26810661 1.24
-0.6664893 0.26630771 1.2433333
-0.54160774 0.26271209 1.2425001
-0.53529936 0.26344615 1.2440002
-0.52544081 0.2628988 1.2408333
-0.51427263 0.26145303 1.2425001
-0.50854087 0.2612772 1.2416668
-0.49463198 0.26189697 1.24375
-0.48386097 0.26245508 1.2438334
-0.47293776 0.26184246 1.2435
-0.45364097 0.26414752 1.2460001
-0.44566798 0.26556131 1.24575
-0.43462536 0.26467654 1.2482001
-0.42382067 0.2654705 1.2461667
-0.41486949 0.26291272 1.2450911
-0.40600261 0.26118714 1.2446667
-0.39464477 0.26232266 1.2461429
-0.38428289 0.26194599 1.244
-0.37456951 0.2623232 1.2450908
-0.36489639 0.26151118 1.2445
-0.35289297 0.26234001 1.2474
-0.34410703 0.26206464 1.2478573
-0.33516854 0.26164308 1.2451249
-0.32540357 0.26053908 1.245
-0.31453952 0.26085541 1.2435715
-0.3049742 0.26116428 1.2435715
-0.28313777 0.26155621 1.243
-0.27512202 0.26166764 1.2446667
-0.26486337 0.26053908 1.245
-0.6756736 0.27005255 1.2490001
-0.12086679 -0.17095573 1.2540001
-0.11760013 -0.17095573 1.2540001
-0.13175569 -0.16660017 1.2540001
-0.12460601 -0.16429241 1.2555001
-0.11542236 -0.16442238 1.2539999
-0.10611571 -0.1638193 1.2549525
-0.095111154 -0.16480467 1.2589999
-0.085272081 -0.16507798 1.2590001
-0.12270713 -0.15714212 1.2550001
-0.11595663 -0.15704441 1.2547145
-0.108889 -0.15788905 1.2540001
-0.090738229 -0.15742537 1.2590001
-0.088551767 -0.1585186 1.2590001
-0.14917794 -0.11433345 1.2540001
-0.13369022 -0.11122569 1.2575715
-0.12541318 -0.11376434 1.25775
-0.11588256 -0.11697579 1.2590001
-0.14278978 -0.10504159 1.2540001
-0.13515641 -0.1051848 1.2552499
-0.12738436 -0.10521899 1.2556666
-0.10822994 -0.10385701 1.2590001
-0.13393348 -0.099088997 1.2540001
-0.12848902 -0.099088997 1.2540001
-0.32530776 -0.084380381 1.2555
-0.31473288 -0.083112538 1.25525
-0.30815586 -0.081666753 1.2540001
-0.33124921 -0.078712679 1.2590001
-0.32379496 -0.076699689 1.257889
-0.3138513 -0.07519073 1.255
-0.30820101 -0.074867412 1.2556667
-0.32031688 -0.066687137 1.2590001
-0.31448686 -0.066352606 1.2560833
-0.30877024 -0.067647949 1.2565
-0.42464247 0.148211 1.2590001
-0.41512096 0.147089 1.2547693
-0.40591398 0.14603227 1.2540001
-0.39526707 0.14373347 1.2540001
-0.42414266 0.154825 1.2556667
-0.41677263 0.15271683 1.2540001
-0.43338832 0.1675768 1.2590001
-0.42517853 0.16461952 1.2555
-0.41585699 0.16580828 1.2539999
-0.43343848 0.17141017 1.2573335
-0.42793378 0.17095573 1.2540001
0.66095626 0.2188669 1.2540001
0.67455149 0.2177045 1.2556669
0.68232137 0.2163585 1.2552501
0.67184514 0.22104467 1.2540001
0.04137782 0.23846692 1.2540001
0.094733432 0.23846692 1.2540001
0.39902958 0.23941775 1.2590001
0.40493947 0.23903742 1.2570002
0.4372927 0.23941775 1.2590001
0.44494531 0.23941775 1.2590001
0.45441997 0.23868893 1.2590001
0.46822271 0.23846692 1.2540001
0.47573453 0.23797266 1.2559999
0.48374534 0.23587438 1.2556667
0.49566865 0.23873639 1.2573334
0.50563985 0.23793739 1.256143
0.51471353 0.23594549 1.2573333
0.52477139 0.23699576 1.25775
0.53568351 0.23832451 1.2590001
0.54297841 0.238372 1.2573333
-0.0752832 0.24875972 1.2565001
-0.068600073 0.24935582 1.2540001
0.036278319 0.24712202 1.2564999
0.044432156 0.24384095 1.2545263
0.097126856 0.24554105 1.2567776
0.10421355 0.24840204 1.258
0.11435039 0.2483623 1.2581668
0.12450359 0.24791721 1.25775
0.13425216 0.24776939 1.2570001
0.14679906 0.24887894 1.256
0.15492848 0.24603315 1.2565
0.16349307 0.24469787 1.25525
0.17674969 0.24657761 1.2565
0.18423541 0.2456968 1.2575716
0.19516891 0.24641478 1.2556667
0.20491213 0.2468778 1.2552501
0.21973957 0.2481636 1.2590001
0.22557651 0.24737516 1.2550001
0.23491858 0.24582656 1.256
0.24439329 0.2454887 1.2565
0.25391021 0.24519563 1.2550001
0.26405585 0.24500026 1.2540001
0.27642548 0.24649182 1.2568573
0.28533348 0.24597715 1.2590001
0.29517257 0.24597713 1.2590001
0.30574048 0.24670595 1.2590001
0.3141948 0.24422796 1.2590001
0.32491618 0.24314377 1.2556667
0.33473063 0.2427808 1.2556667
0.34398469 0.24320804 1.2559999
0.35473415 0.2412204 1.257
0.36610788 0.2420103 1.2573333
0.37368944 0.24221334 1.2565
0.39469633 0.24096453 1.2556667
0.41761452 0.24160421 1.2590001
0.42493111 0.24141231 1.258
0.43446714 0.24064469 1.2540001
0.44535604 0.24064469 1.2540001
0.45188937 0.24064469 1.2540001
0.49544495 0.24064469 1.2540001
-0.52588916 0.25748822 1.2565
-0.34655446 0.2585493 1.2590001
-0.33452892 0.25909591 1.2590001
-0.32164663 0.25840995 1.2556667
-0.3141948 0.25865862 1.2590001
-0.3047711 0.25889012 1.258
-0.29553697 0.25909591 1.2590001
-0.2860623 0.25909591 1.2590001
-0.27439481 0.25768113 1.2556667
-0.26536232 0.25757092 1.256143
-0.25472301 0.25909591 1.2590001
-0.24370834 0.25642073 1.2548335
-0.12631124 0.25588915 1.2540001
-0.10489641 0.25734103 1.2540001
-0.096156046 0.2540285 1.2567778
-0.085014835 0.25178435 1.2552501
-0.074870311 0.2511391 1.2556669
-0.065562144 0.25213003 1.2554288
-0.055618491 0.25411603 1.256
-0.043891326 0.2532708 1.255875
-0.034913946 0.25203288 1.2565
-0.028367583 0.25094181 1.2565
-0.00108889 0.2515336 1.2540001
0.0065333406 0.2515336 1.2540001
0.014212012 0.25035006 1.2590001
0.031703718 0.25035006 1.2590001
0.10604348 0.25035006 1.2590001
0.11260287 0.25035006 1.2590001
-0.68354642 0.26785433 1.2565
-0.67184514 0.26460028 1.2540001
-0.50407231 0.26294565 1.2565
-0.48211518 0.26346883 1.2590001
-0.47693384 0.2624225 1.2540001
-0.46134377 0.26346883 1.2590001
-0.45448267 0.26402181 1.2581668
-0.44508123 0.26384598 1.2573333
-0.43397382 0.26372877 1.2567778
-0.42578265 0.26336959 1.2562224
-0.41595599 0.26024473 1.2540001
-0.40180042 0.26024473 1.2540001
-0.39495754 0.26185393 1.2565001
-0.38394517 0.26166242 1.2573335
-0.37497848 0.26128241 1.2590001
-0.36526009 0.26204246 1.2556667
-0.3547821 0.26213747 1.2552501
-0.34544992 0.26132339 1.2550001
-0.33691713 0.26059061 1.2556667
-0.31251144 0.26024473 1.2540001
-0.30597812 0.26024473 1.2540001
-0.2940003 0.26024473 1.2540001
-0.28202251 0.26024473 1.2540001
-0.27984473 0.26024473 1.2540001
-0.25806695 0.26024473 1.2540001
-0.68108332 0.27002823 1.2590001
-0.083740093 -0.17329876 1.2665715
-0.074320644 -0.17341487 1.2679999
-0.069365941 -0.17176329 1.268
-0.040738728 -0.17066224 1.268
-0.095139161 -0.16546537 1.2630002
-0.083170474 -0.16583532 1.2648184
-0.075226262 -0.16544533 1.2670623
-0.067897886 -0.16442297 1.2680001
-0.042547032 -0.16578177 1.2671669
-0.037653543 -0.16706476 1.263
-0.096510038 -0.15902223 1.263
-0.085147612 -0.15891774 1.2680001
-0.067163847 -0.15965177 1.268
-0.1222676 -0.11217096 1.2640001
-0.11545389 -0.11369628 1.2663333
-0.10443098 -0.11322952 1.266
-0.097552739 -0.11384823 1.268
-0.12258418 -0.10390893 1.2650002
-0.11546674 -0.10578226 1.2635885
-0.10398714 -0.106658 1.2644287
-0.095298551 -0.10454561 1.2673333
-0.089184783 -0.10349839 1.268
-0.33218938 -0.072596364 1.2667501
-0.32641971 -0.072219633 1.2640001
-0.33196557 -0.067714371 1.268
-0.32596633 -0.065114327 1.2659411
-0.32462469 -0.058125366 1.263
-0.43310452 0.14729504 1.2640001
-0.43452519 0.15531109 1.2653531
-0.45032811 0.16846015 1.268
-0.4444274 0.16534631 1.2666667
-0.43636677 0.16389649 1.2630001
-0.45032811 0.17286433 1.268
-0.44498926 0.17233345 1.266125
-0.43977872 0.17218269 1.263
0.66789335 0.2182443 1.263
0.67228019 0.2182443 1.263
0.68763411 0.21605091 1.263
0.69476044 0.2169062 1.268
0.036191266 0.23798499 1.263
0.3347182 0.23892714 1.268
0.40518522 0.23892714 1.268
0.41069043 0.23892714 1.268
0.4360145 0.23892714 1.268
0.44482288 0.23892714 1.268
0.45339063 0.23775962 1.265143
0.46354067 0.23892714 1.268
0.47643995 0.23644826 1.2652223
0.48501435 0.23390548 1.2646667
0.49456343 0.23685391 1.2640001
0.50511444 0.23588988 1.2655001
0.5155158 0.23412539 1.2658572
0.52497101 0.23472452 1.266125
0.53459984 0.23625614 1.2655001
0.54553211 0.23644824 1.2652223
-0.069092415 0.24895205 1.263
0.029728262 0.24993759 1.268
0.03549004 0.24380456 1.2641112
0.098337889 0.24237183 1.263
0.10466629 0.24587075 1.2654999
0.11532498 0.24629915 1.2648749
0.12515137 0.24700284 1.26425
0.13542874 0.2477355 1.268
0.1456558 0.24846542 1.2650001
0.15380214 0.24709971 1.2670001
0.16702697 0.24504933 1.2655001
0.17692046 0.24394828 1.2655001
0.18485227 0.24415392 1.2646668
0.19669878 0.24504785 1.2655001
0.20435271 0.24675862 1.263
0.21339141 0.24749129 1.26675
0.22499907 0.24695401 1.2640001
0.23472452 0.24489398 1.2661252
0.24456523 0.24456523 1.263
0.2551921 0.24529137 1.2667501
0.26535225 0.24553342 1.268
0.27581567 0.24422354 1.2654999
0.28515875 0.24387972 1.2657781
0.29571438 0.24514614 1.2660002
0.30527601 0.24502213 1.264111
0.31464478 0.24321714 1.2655001
0.32403857 0.2418748 1.2650001
0.33493367 0.24139395 1.2636251
0.34470731 0.24151282 1.26425
0.3512339 0.24112923 1.268
0.3683629 0.24081229 1.2663335
0.37581334 0.24175054 1.2655001
0.38640577 0.24237183 1.263
0.39695251 0.2408123 1.2663333
0.4156512 0.24017841 1.263
0.42576557 0.24093907 1.2670001
0.43434179 0.2408123 1.2663333
-0.44401765 0.25879693 1.2646668
-0.40548301 0.25933257 1.2655001
-0.395237 0.25924873 1.2658572
-0.38494349 0.25991911 1.263
-0.37543869 0.25991911 1.263
-0.35204232 0.25991911 1.263
-0.34337184 0.25901118 1.2650001
-0.33517924 0.25757644 1.2646669
-0.32472697 0.25755751 1.2657778
-0.31553531 0.25733176 1.2646668
-0.30554044 0.25874597 1.268
-0.29478854 0.25903925 1.2667501
-0.28570992 0.25896698 1.2655001
-0.27600035 0.25879693 1.2646668
-0.26373237 0.25933254 1.2655001
-0.25633809 0.25854191 1.2670001
-0.24803963 0.25683933 1.2667501
-0.1305079 0.25772569 1.263
-0.12422377 0.25613925 1.2660002
-0.1137481 0.25644848 1.2663335
-0.10603687 0.25642553 1.2649233
-0.094316632 0.25333887 1.263
-0.062512189 0.25224215 1.263
-0.054948136 0.25384033 1.2655001
-0.04574959 0.25293916 1.2646668
-0.037287973 0.25114545 1.263
-0.021975346 0.25164258 1.2655001
-0.018717794 0.25213969 1.268
-0.0033031402 0.25213969 1.268
0.0054861302 0.25134429 1.2640001
0.018643986 0.25114545 1.263
0.025244189 0.25134429 1.2640001
-0.69145727 0.26755434 1.268
-0.68419039 0.2688756 1.268
-0.51308775 0.26535225 1.268
-0.50119418 0.26430592 1.263
-0.4952231 0.26446208 1.2655001
-0.48595458 0.2634804 1.2665715
-0.47528517 0.26315016 1.268
-0.46243963 0.26315016 1.268
-0.45428404 0.26233912 1.2667501
-0.44504184 0.26153028 1.2655001
-0.43455648 0.26161346 1.2651429
-0.42526931 0.26263133 1.2655001
-0.41289252 0.26094806 1.268
-0.4010897 0.26153028 1.2655001
-0.39643586 0.26172435 1.2646668
-0.38629651 0.26141384 1.266
-0.37325484 0.26094806 1.268
-0.36478257 0.26146561 1.2657777
-0.35655317 0.26164672 1.2650001
-0.68459535 0.27142233 1.2655001
-0.064062163 -0.18003677 1.2720001
-0.054489654 -0.18077312 1.2720002
-0.044497091 -0.18104318 1.2732501
-0.064675786 -0.17475961 1.272
-0.055225998 -0.17451416 1.2720001
-0.045526307 -0.17472535 1.2722632
-0.03681701 -0.17356172 1.2751251
-0.028771792 -0.17486367 1.2745001
-0.07253015 -0.1616281 1.2720001
-0.064283073 -0.16560438 1.2720002
-0.055226002 -0.16567801 1.2720001
-0.047695182 -0.16597924 1.2720003
-0.083943523 -0.15794636 1.2720001
-0.092779681 -0.12039268 1.2720001
-0.089466125 -0.12039268 1.2720001
-0.06542284 -0.12086593 1.2770001
-0.055443086 -0.12086593 1.2770001
-0.046572194 -0.12086593 1.2770001
-0.093683377 -0.11517131 1.2720003
-0.085129879 -0.1149858 1.2732502
-0.075274214 -0.1146566 1.2748574
-0.065282822 -0.11507566 1.27425
-0.055372261 -0.11518078 1.2754377
-0.048124596 -0.11465631 1.2770001
-0.035483576 -0.1131039 1.2770001
-0.026288792 -0.11288247 1.2745003
-0.018776841 -0.11818364 1.2720001
-0.12481077 -0.10051133 1.2720001
-0.092411511 -0.10861114 1.2720001
-0.084206499 -0.10513979 1.272
-0.075210042 -0.10506898 1.2737501
-0.065239102 -0.10504107 1.2734001
-0.056328554 -0.10579231 1.2753336
-0.046941813 -0.10497224 1.2770001
-0.035206359 -0.10589629 1.2770001
-0.025032056 -0.10720973 1.2755002
-0.018850649 -0.10645072 1.2770001
-0.091675162 -0.098302282 1.2720001
-0.084739007 -0.097531304 1.274778
-0.075402595 -0.098688692 1.2770001
-0.066373296 -0.098055057 1.2770001
-0.058769669 -0.098688692 1.2770001
-0.044724088 -0.097949445 1.2770002
-0.33393323 -0.065166682 1.2720001
-0.4513067 0.14747861 1.2770002
-0.44497153 0.14802669 1.2760001
-0.4601776 0.15856722 1.2770001
-0.45392767 0.15554306 1.2770002
-0.44489789 0.15474486 1.2729375
-0.47237507 0.16854699 1.2770001
-0.46461299 0.16587269 1.2770002
-0.45549917 0.16492921 1.2737647
-0.44688883 0.16059721 1.2720002
-0.47265232 0.1743685 1.2770001
-0.46507624 0.1752755 1.2761179
-0.45557985 0.17383608 1.2724169
0.67539054 0.21820334 1.2730001
0.68381536 0.21724984 1.2732501
0.69916117 0.21759045 1.2720001
0.32251984 0.23968084 1.2720001
0.3368786 0.23820816 1.2720001
0.34571478 0.23968086 1.2720001
0.36780518 0.23968084 1.2720001
0.37332776 0.23968084 1.2720001
0.40314981 0.23857632 1.2720001
0.41473192 0.23925565 1.2736669
0.42524022 0.23968086 1.2720001
0.43464515 0.23925565 1.2736669
0.44666132 0.23770517 1.2732501
0.45506227 0.23636729 1.2720001
0.46598184 0.2385193 1.2736667
0.47388819 0.23725019 1.274778
0.4809362 0.23273049 1.2732501
0.49731565 0.23704372 1.2736669
0.50299203 0.23489352 1.2745001
0.51400208 0.23323695 1.2730001
0.524647 0.23250146 1.2720001
0.53286839 0.23461629 1.2745001
0.5447405 0.23493454 1.2742224
0.55168432 0.23295517 1.2745
-0.24727616 0.24949388 1.2770001
-0.036592435 0.24949388 1.2770001
0.0077620326 0.24949388 1.2770002
0.029939266 0.24949388 1.2770001
0.032094035 0.24789658 1.2745001
0.10382488 0.24409893 1.2720001
0.11509802 0.24513094 1.2745001
0.12481076 0.24630797 1.2720002
0.13584092 0.24805942 1.2753334
0.14445779 0.24707747 1.2727145
0.15352829 0.24630797 1.2720001
0.16965584 0.24505843 1.2770001
0.17545128 0.24403921 1.274
0.18637057 0.24296367 1.2730001
0.19458982 0.24433881 1.2732501
0.20526342 0.24644534 1.2750001
0.21656647 0.24758637 1.27575
0.22545198 0.2462517 1.2740002
0.23366156 0.24473861 1.2753334
0.24520345 0.24409893 1.2720001
0.25429252 0.24433881 1.2732501
0.26501796 0.24505845 1.2770001
0.27556384 0.24347199 1.2745001
0.28496617 0.24188989 1.2720001
0.29492125 0.24342388 1.2734287
0.30488583 0.24324411 1.274143
0.31478819 0.24188991 1.2720002
0.32330626 0.2414676 1.2736669
0.33135599 0.24188989 1.2720001
0.34263825 0.24062298 1.2770001
0.35520539 0.24210148 1.2770002
0.36299026 0.2423653 1.2745001
0.38501066 0.24252233 1.2753334
0.39436725 0.24204858 1.27575
0.40029907 0.24062298 1.2770001
0.41804087 0.24062298 1.2770001
0.42164922 0.24125645 1.2745001
0.43134719 0.24062298 1.2770001
0.44021809 0.24062298 1.2770001
-0.5045321 0.25836477 1.2770002
-0.45492071 0.2584253 1.2736669
-0.44953966 0.25956219 1.2720001
-0.41168684 0.25896347 1.2745001
-0.40433836 0.25700301 1.27575
-0.39497548 0.2577855 1.274143
-0.38561007 0.25916308 1.2736667
-0.37516966 0.25922009 1.2734287
-0.36449161 0.25956219 1.2720001
-0.3550126 0.25916305 1.2736669
-0.34366378 0.25728834 1.2753334
-0.33326286 0.25658298 1.2736669
-0.32504475 0.25539485 1.2732501
-0.31547925 0.25667015 1.2730001
-0.30408406 0.25866413 1.27575
-0.29538897 0.25860426 1.276
-0.28719518 0.25836477 1.2770002
-0.26280022 0.25836477 1.2770001
-0.25343004 0.25675011 1.2745001
-0.24727616 0.2550382 1.2770001
-0.13143788 0.25735316 1.2720001
-0.12312909 0.25473922 1.2736667
-0.11540981 0.2533927 1.2727144
-0.1049294 0.25293508 1.2720002
-0.082839005 0.25293508 1.2720001
-0.064062163 0.25183058 1.2720001
-0.055283528 0.25318363 1.2732501
-0.045314994 0.252363 1.2728335
-0.035344638 0.25072604 1.2720001
-0.025956221 0.25127831 1.2720001
-0.014358761 0.25293511 1.2720001
-0.0055295466 0.25200388 1.2740002
0.0055252053 0.25092316 1.2730001
0.015509954 0.2514652 1.27575
0.024025336 0.25171161 1.2770002
-0.69338292 0.26746818 1.276
