# .PCD v0.7 - Point Cloud Data file format
VERSION 0.7
FIELDS x y z
SIZE 4 4 4
TYPE F F F
COUNT 1 1 1
WIDTH 1496
HEIGHT 1
VIEWPOINT 0 0 0 1 0 0 0
POINTS 1496
DATA ascii
-0.48479316 0.26354524 1.2490001
-0.4732174 0.26265594 1.2448
-0.46621794 0.2612344 1.24575
-0.4539941 0.26380849 1.2468333
-0.44604707 0.26503879 1.2438
-0.43381935 0.26354524 1.2490001
-0.42497468 0.26217124 1.2466
-0.41510242 0.26127717 1.2416667
-0.40162155 0.26164621 1.24
-0.395255 0.26134381 1.2436999
-0.38485834 0.26161668 1.2450001
-0.37516677 0.26164305 1.2451251
-0.36527935 0.26149622 1.245
-0.35420761 0.26207983 1.2446251
-0.34424591 0.26242194 1.2471112
-0.33473122 0.2613019 1.2435
-0.32107928 0.26053908 1.245
-0.31572011 0.26166031 1.2452
-0.30551839 0.26178488 1.2452222
-0.29473394 0.26086313 1.2448334
-0.28574961 0.2611973 1.2429999
-0.2764937 0.2613717 1.2438334
-0.26571435 0.26137614 1.2490001
-0.25662637 0.26203871 1.247
-0.24540403 0.26053908 1.245
-0.12195568 -0.17095573 1.2540001
-0.11868902 -0.17095573 1.2540001
-0.12438829 -0.1649497 1.257158
-0.11544602 -0.16445564 1.2542499
-0.10531123 -0.16271129 1.2540001
-0.095863812 -0.16487437 1.2586429
-0.086911924 -0.1623449 1.2590001
-0.12159272 -0.15716313 1.2540001
-0.1165901 -0.15690365 1.2548335
-0.10453344 -0.15788905 1.2540001
-0.090738229 -0.15742537 1.2590001
-0.086365305 -0.1585186 1.2590001
-0.13378954 -0.11085123 1.25775
-0.12525679 -0.11288614 1.2567776
-0.14248905 -0.10531122 1.2540001
-0.13546461 -0.10510474 1.2543124
-0.12594828 -0.10671123 1.2539999
-0.11916225 -0.10604347 1.2590001
-0.1021273 -0.096311204 1.2556667
-0.09697707 -0.095885277 1.2548335
-0.32434341 -0.083677322 1.2555624
-0.31406701 -0.082600094 1.2540002
-0.30815586 -0.081666753 1.2540001
-0.32345554 -0.075302742 1.2568948
-0.31403586 -0.075133428 1.2539999
-0.30579662 -0.074588969 1.2539999
-0.29944476 -0.077311195 1.2540001
-0.32119149 -0.067124434 1.2590001
-0.31417316 -0.0662864 1.2548333
-0.30706698 -0.068600073 1.2540001
-0.42351794 0.14802359 1.2590001
-0.41595602 0.14808904 1.2540001
-0.40506709 0.14700015 1.2539999
-0.39853379 0.14591126 1.2540002
-0.43291974 0.1585186 1.2590001
-0.42460629 0.15547365 1.2565
-0.41791597 0.15266238 1.2540001
-0.4039782 0.15135571 1.2540001
-0.44144699 0.16770175 1.2590001
-0.43393385 0.1649231 1.2561055
-0.42521966 0.16413085 1.2545553
-0.41573825 0.16703573 1.2540001
-0.44275886 0.17309502 1.2590001
-0.43337822 0.17095573 1.2540001
-0.42466712 0.17150018 1.2540001
0.66796458 0.21973957 1.2590001
0.67515278 0.21886571 1.2571249
0.68496948 0.21789601 1.2567778
0.6658389 0.22122096 1.2550001
0.67630094 0.22165649 1.2550001
0.68128222 0.22177061 1.2540001
0.03811115 0.23520026 1.2540001
0.040833376 0.23683359 1.2540001
0.39902958 0.23941775 1.2590001
0.40504918 0.2391008 1.2573334
0.41268933 0.23846692 1.2540001
0.43489322 0.2391008 1.2573334
0.44494528 0.23941775 1.2590001
0.45441997 0.23941776 1.2590001
0.46025056 0.23941775 1.2590001
0.47594953 0.2385214 1.2575716
0.48346719 0.23628914 1.2540001
0.49419779 0.23808898 1.25775
0.5040701 0.23894233 1.2565
0.51532084 0.23800758 1.2573333
0.52536702 0.23706913 1.25525
0.53515279 0.23863342 1.25775
0.54503697 0.23834033 1.2584444
-0.090377875 0.24935582 1.2540001
-0.088200092 0.24935582 1.2540001
-0.07469786 0.24892028 1.2540001
-0.066422299 0.24935584 1.2540001
0.037300821 0.24669595 1.256
0.044441067 0.24389137 1.2547895
0.096881583 0.24506418 1.2571249
0.10444835 0.24856101 1.2573335
0.11358213 0.24682397 1.25775
0.12134872 0.24597713 1.2590001
0.13720015 0.24717803 1.2540001
0.14516537 0.24776939 1.257
0.1524446 0.24717803 1.2540001
0.16481054 0.2455864 1.257
0.17602825 0.24580887 1.2556666
0.18460707 0.2454861 1.2565
0.19384661 0.24548726 1.2565001
0.20491213 0.2468778 1.2552501
0.2188669 0.24717803 1.2540001
0.22515947 0.24666338 1.256143
0.23473187 0.2456312 1.2550001
0.24516308 0.24479866 1.2548335
0.25505751 0.24524447 1.25525
0.26429611 0.24573293 1.25775
0.27658153 0.24637745 1.2573334
0.28483775 0.24551518 1.2578889
0.29404947 0.24602197 1.2570001
0.30501163 0.24510255 1.2590001
0.31521514 0.24379067 1.2590001
0.32488507 0.2432362 1.2561431
0.33481672 0.24255471 1.2567272
0.34464094 0.2420103 1.2573333
0.35473761 0.2412204 1.257
0.36529571 0.24212635 1.2568573
0.37434027 0.24212635 1.2568573
0.38498774 0.2410285 1.2560002
0.39472264 0.24064469 1.2540001
0.41922265 0.24064469 1.2540001
0.42575604 0.24064469 1.2540001
0.43446714 0.24064469 1.2540001
0.44535598 0.24064469 1.2540001
0.45406717 0.24064469 1.2540001
0.46604493 0.24064469 1.2540001
0.49653387 0.24064469 1.2540001
0.53900057 0.24064469 1.2540001
0.54335612 0.24064469 1.2540001
-0.53021735 0.25909591 1.2590001
-0.52803093 0.25909591 1.2590001
-0.47774225 0.25909591 1.2590001
-0.43182653 0.25909591 1.2590001
-0.42854685 0.25909591 1.2590001
-0.37935141 0.25909591 1.2590001
-0.34655446 0.25778404 1.2590001
-0.33386678 0.25858143 1.2565
-0.32207355 0.2580241 1.2573334
-0.31479689 0.25838852 1.2573334
-0.30574048 0.25873151 1.2590001
-0.2940793 0.25909591 1.2590001
-0.2860623 0.25909591 1.2590001
-0.27512997 0.25909591 1.2590001
-0.26512995 0.25803483 1.2565
-0.25556332 0.25883865 1.25775
-0.2444617 0.25585482 1.2562222
-0.23941775 0.25472298 1.2590001
-0.12555522 0.25584054 1.2573334
-0.11324456 0.25588915 1.2540001
-0.10335656 0.25511172 1.2573335
-0.096374668 0.25270474 1.2555001
-0.084933423 0.2515336 1.2540001
-0.075133413 0.2515336 1.2540001
-0.065395266 0.25178435 1.2552501
-0.054444503 0.25371137 1.2540001
-0.044501413 0.2530587 1.2567778
-0.03528608 0.2518459 1.2567778
-0.02874936 0.25074458 1.2573334
-0.00108889 0.2515336 1.2540001
0.0043555601 0.2515336 1.2540001
0.022907937 0.25203508 1.2565
0.032796949 0.25035006 1.2590001
0.10385701 0.25035006 1.2590001
-0.67233753 0.26565534 1.2590001
-0.6666382 0.2662167 1.2565
-0.5232116 0.26133361 1.2540001
-0.51656944 0.26198694 1.2540001
-0.50264263 0.26277128 1.2556667
-0.49086103 0.26346883 1.2590001
-0.48435599 0.26282227 1.258
-0.47643065 0.26148951 1.2565
-0.46525684 0.26153263 1.2560002
-0.45478439 0.26456207 1.2590001
-0.44399333 0.26457483 1.2573333
-0.43403003 0.26172382 1.255875
-0.42508933 0.26105076 1.25525
-0.40180042 0.26024473 1.2540001
-0.39425829 0.26102298 1.25775
-0.38481754 0.26128238 1.2590001
-0.37437758 0.26086733 1.2570001
-0.36513939 0.26128238 1.2590001
-0.35532305 0.26196647 1.256
-0.34442899 0.26050413 1.25525
-0.3369171 0.26059061 1.2556667
-0.32557815 0.26024473 1.2540001
-0.31468922 0.26024473 1.2540001
-0.3048892 0.26024473 1.2540001
-0.29508922 0.26024473 1.2540001
-0.28367364 0.26076356 1.2565
-0.27424476 0.26180029 1.2540002
-0.26351139 0.26024473 1.2540001
-0.25806695 0.26024473 1.2540001
-0.083791569 -0.17339489 1.2672858
-0.074570887 -0.17326473 1.2679999
-0.069365941 -0.17286435 1.268
-0.040738728 -0.17066224 1.268
-0.034132447 -0.17066225 1.268
-0.093877949 -0.1653831 1.2630001
-0.084015839 -0.16630954 1.2644286
-0.074210547 -0.16647826 1.268
-0.065940462 -0.16356662 1.268
-0.041799616 -0.1671952 1.2667501
-0.036847074 -0.16774572 1.26675
-0.028514331 -0.16998927 1.263
-0.095852017 -0.15858355 1.263
-0.086201012 -0.15814486 1.263
-0.094029389 -0.12045451 1.268
-0.088083737 -0.12111513 1.268
-0.12116088 -0.11420783 1.2646668
-0.11483954 -0.11423124 1.2649446
-0.10445508 -0.11435061 1.26625
-0.094910219 -0.11472908 1.268
-0.087489247 -0.11555292 1.267375
-0.12116088 -0.10578385 1.2646668
-0.11456556 -0.1055165 1.265059
-0.10452275 -0.10556813 1.264316
-0.09489128 -0.10467691 1.2674443
-0.088083729 -0.10322312 1.268
-0.10109441 -0.096694559 1.2655001
-0.094538517 -0.094974317 1.2650002
-0.087677635 -0.095015056 1.2674444
-0.095791064 -0.089184783 1.268
-0.089184783 -0.089184783 1.268
-0.33010823 -0.071285829 1.263
-0.3279148 -0.072382532 1.263
-0.33141506 -0.069365941 1.268
-0.32651967 -0.066988736 1.2646668
-0.4359909 0.14796643 1.2660002
-0.42881167 0.14805518 1.263
-0.44262075 0.15744968 1.2680001
-0.43520051 0.15411079 1.265059
-0.42881167 0.15134528 1.263
-0.45142913 0.16625805 1.268
-0.44573879 0.16516048 1.2638335
-0.43977872 0.16121563 1.263
-0.45326424 0.17139629 1.268
-0.44690731 0.17273104 1.263
0.67424619 0.2177456 1.2657778
0.68349862 0.21647856 1.2655001
0.69255841 0.21690622 1.268
0.66423768 0.22189999 1.263
0.33462256 0.23757963 1.2658572
0.34124145 0.23787907 1.2663335
0.40628624 0.23892716 1.268
0.41317731 0.23845607 1.2655001
0.43543562 0.2386131 1.2663333
0.4450469 0.23790553 1.2655001
0.453035 0.23787907 1.2663335
0.46133858 0.23892714 1.268
0.47639972 0.23668998 1.2648749
0.48455694 0.23477854 1.264111
0.49242055 0.23579156 1.263
0.50616407 0.23689666 1.2653077
0.51584828 0.23578423 1.2661818
0.52480954 0.23678862 1.2660002
0.53535879 0.23722902 1.2660002
0.54562199 0.23517609 1.2660002
0.5516305 0.23274952 1.2663335
-0.031930353 0.24993759 1.268
0.035572752 0.24485829 1.2645
0.098703451 0.24237181 1.263
0.10497738 0.24494362 1.2659166
0.11428092 0.24614601 1.2655001
0.12612109 0.24675862 1.263
0.13542874 0.2477355 1.268
0.14643921 0.2477355 1.268
0.15566829 0.24688148 1.2655001
0.16599582 0.24514614 1.2660002
0.1754553 0.24394827 1.2655001
0.18408719 0.24278057 1.2651429
0.19656925 0.24488795 1.2646668
0.20489687 0.24740988 1.2663335
0.21250202 0.2477355 1.268
0.22921135 0.24675862 1.263
0.23573864 0.2445195 1.2646668
0.24401687 0.24456522 1.263
0.25502202 0.24489938 1.2670001
0.26535225 0.24553341 1.268
0.27540636 0.24465194 1.2648749
0.28443071 0.24337706 1.2663335
0.29460171 0.24429099 1.265
0.30453897 0.24379402 1.266125
0.31537595 0.24321714 1.2655001
0.32501817 0.24152596 1.2651429
0.33398169 0.24070244 1.2638334
0.34470946 0.24041611 1.26425
0.3512339 0.24112923 1.268
0.36836296 0.2408123 1.2663333
0.37618598 0.24118757 1.2660002
0.38499936 0.24112925 1.268
0.39433885 0.24055874 1.2650001
0.40249074 0.24017841 1.263
0.41784462 0.24017841 1.263
0.42442486 0.24017839 1.263
0.43319851 0.24017841 1.263
0.44635895 0.24017841 1.263
0.45732599 0.24017841 1.263
0.46592554 0.24065381 1.2655001
0.47234905 0.24112923 1.268
0.49900079 0.24017841 1.263
-0.52803719 0.25907746 1.26425
-0.48145351 0.25991911 1.263
-0.44197214 0.25991911 1.263
-0.43758529 0.25991911 1.263
-0.40668046 0.25952807 1.2646668
-0.39481384 0.25991911 1.263
-0.38604018 0.25991911 1.263
-0.37507311 0.25991911 1.263
-0.36520275 0.25991914 1.263
-0.35314837 0.25830498 1.2658572
-0.34337184 0.25901118 1.2650001
-0.33525425 0.2580024 1.2643638
-0.325151 0.2575365 1.2661252
-0.31560051 0.25690588 1.265143
-0.30678535 0.25840589 1.2663333
-0.29571092 0.25921521 1.2660002
-0.28516316 0.25908113 1.2665715
-0.27472115 0.25896698 1.2655001
-0.26384363 0.25857249 1.2650001
-0.25458333 0.25810149 1.2670001
-0.24739443 0.25441679 1.2640001
-0.12378161 0.25525841 1.2660002
-0.11454584 0.25547776 1.2660002
-0.1063077 0.254852 1.2658572
-0.060318775 0.25333887 1.263
-0.054948136 0.25384033 1.2655001
-0.040738728 0.25213969 1.268
-0.036191266 0.25114545 1.263
-0.020919887 0.25213969 1.268
-0.018717794 0.25213969 1.268
-0.0044041867 0.25213969 1.268
0.0055052335 0.25213969 1.268
0.015372323 0.25139403 1.26425
0.025267633 0.25164258 1.2655001
-0.68577874 0.26940188 1.2663335
-0.67886043 0.26649931 1.263
-0.50119418 0.26430592 1.263
-0.49576527 0.26349729 1.265143
-0.4871226 0.26207024 1.2663335
-0.47895533 0.26094806 1.268
-0.46378148 0.26318952 1.2646668
-0.4545002 0.26390249 1.2663335
-0.44584984 0.26282251 1.2646668
-0.43931764 0.26094806 1.268
-0.42830718 0.26315016 1.268
-0.40368798 0.26123917 1.2667501
-0.39695251 0.26133621 1.2663333
-0.38756844 0.26094806 1.268
-0.36081594 0.2621125 1.263
-0.35673913 0.26204911 1.268
-0.68544066 0.27088615 1.263
-0.064062163 -0.18003677 1.2720001
-0.0550051 -0.18047857 1.2720002
-0.044943921 -0.1805229 1.2728333
-0.03881016 -0.18074445 1.2770001
-0.027721543 -0.18074445 1.2770001
-0.075107366 -0.17340964 1.2720001
-0.064387023 -0.17470907 1.2720001
-0.055226002 -0.17451413 1.2720001
-0.045526311 -0.17472537 1.2722632
-0.035655722 -0.17569852 1.2765836
-0.026849976 -0.17607291 1.2738184
-0.08062996 -0.1601554 1.2720001
-0.075859949 -0.1623324 1.2735003
-0.064996757 -0.16593288 1.2720003
-0.055244453 -0.16683644 1.2724169
-0.047494359 -0.16678253 1.2720002
-0.064640909 -0.12115668 1.2761668
-0.05614398 -0.12152629 1.2761668
-0.032156989 -0.12086593 1.2770001
-0.091675162 -0.11155652 1.2720001
-0.083441466 -0.11376556 1.2720003
-0.075202756 -0.11455522 1.2750771
-0.065269142 -0.11505245 1.2740002
-0.055619419 -0.11545222 1.2760003
-0.049898777 -0.1186482 1.2770001
-0.032600533 -0.11465631 1.2770001
-0.027902504 -0.11447742 1.2750002
-0.091675162 -0.10934749 1.2720001
-0.083488718 -0.10557913 1.2720001
-0.075224593 -0.1050896 1.274
-0.065228507 -0.10502455 1.2732
-0.056875426 -0.10582057 1.2766156
-0.034374714 -0.10977732 1.2770002
-0.025489552 -0.10813181 1.2762858
-0.083154745 -0.095312066 1.2726252
-0.075032979 -0.098688692 1.2770002
-0.066373296 -0.098055057 1.2770001
-0.091675162 -0.089466125 1.2720001
-0.08725708 -0.089466125 1.2720001
-0.45384127 0.14811225 1.2770001
-0.44570774 0.14819962 1.2736669
-0.45312509 0.15584388 1.2765001
-0.44611347 0.15367807 1.2732501
-0.47237507 0.16854697 1.2770001
-0.46380684 0.16582738 1.2760003
-0.45590022 0.16420965 1.2731541
-0.44843513 0.1601554 1.2720001
-0.47200546 0.17446092 1.2770001
-0.46464771 0.17511517 1.2749413
-0.45705414 0.17477182 1.2727145
-0.46461305 0.18074445 1.2770001
0.6757468 0.21767533 1.27575
0.68503952 0.21497308 1.2745001
0.69638169 0.2163312 1.275
0.51672959 0.22953437 1.2770001
0.55553973 0.22953437 1.2770001
0.66566557 0.22173953 1.2730001
0.67065251 0.22133601 1.2745001
0.32583341 0.23968084 1.2720001
0.33135599 0.23857632 1.2720001
0.34497842 0.2389445 1.2720001
0.37443233 0.23968086 1.2720001
0.38105941 0.23968084 1.2720001
0.39431366 0.23968084 1.2720001
0.40204531 0.23968084 1.2720001
0.42634472 0.23968084 1.2720001
0.43578267 0.23840527 1.2770002
0.44430435 0.23725921 1.2728336
0.4536995 0.23625945 1.2750002
0.46336389 0.23866038 1.276
0.47578612 0.23706523 1.27575
0.48582861 0.23351178 1.2745001
0.49752137 0.23659849 1.2732501
0.5041998 0.23532268 1.2736667
0.51478142 0.2328127 1.274143
0.52584165 0.23448358 1.2731112
0.53342497 0.23517072 1.2745001
0.54372764 0.23529273 1.2761667
0.55112988 0.23129839 1.2745001
-0.24630797 0.24851701 1.2720001
0.032809399 0.24663071 1.2736669
0.10713844 0.24409893 1.2720001
0.11818364 0.24630797 1.2720001
0.12520674 0.24708252 1.276
0.13552748 0.24780798 1.2748573
0.14532374 0.24774149 1.275125
0.15478584 0.24655002 1.2732501
0.16965584 0.24505843 1.2770001
0.17340964 0.24409893 1.2720001
0.18813527 0.24346982 1.2745001
0.19497189 0.24481855 1.27575
0.2051394 0.24683261 1.2770001
0.21418515 0.24810338 1.2736667
0.22439037 0.24738696 1.2730001
0.23305373 0.24557161 1.2720001
0.24520347 0.24409893 1.2720001
0.25400865 0.24441877 1.2736667
0.26545721 0.245527 1.2751251
0.27556458 0.24347126 1.2745001
0.28533956 0.2414676 1.2736669
0.29409432 0.2421276 1.2732501
0.3046982 0.24265055 1.276
0.31466767 0.24199569 1.2745
0.32426476 0.24125645 1.2745001
0.35705346 0.24284071 1.2770001
0.3642424 0.24201684 1.2750001
0.37146866 0.24062298 1.2770001
0.38494843 0.24093972 1.27575
0.39438519 0.24062298 1.2770002
0.40029907 0.24062298 1.2770001
0.42247632 0.24062298 1.2770001
0.46793965 0.24062298 1.2770001
0.47302046 0.24093972 1.27575
-0.52538341 0.25956219 1.2720001
-0.49122572 0.25725591 1.2770001
-0.48488429 0.25956219 1.2720001
-0.4513067 0.25836477 1.2770001
-0.44410551 0.25876004 1.2727145
-0.43738991 0.25956219 1.2720001
-0.41168684 0.25896347 1.2745001
-0.40518051 0.25890452 1.2734287
-0.39762723 0.25956219 1.2720001
-0.38413739 0.25916305 1.2736669
-0.37516966 0.25922009 1.2734288
-0.36449161 0.25956219 1.2720001
-0.35602364 0.25735316 1.2720001
-0.34617066 0.25769037 1.2736667
-0.33246052 0.25735316 1.2720001
-0.32438591 0.25574589 1.2750002
-0.31487966 0.25654909 1.2753334
-0.30378774 0.25896347 1.2745001
-0.29659098 0.25896347 1.2745001
-0.28497425 0.25744212 1.2755715
-0.27721542 0.25836477 1.2770001
-0.25398445 0.25564343 1.2745001
-0.24736705 0.25252727 1.2736667
-0.13195454 0.25836477 1.2770001
-0.12394504 0.25453672 1.2745001
-0.1151839 0.25269213 1.2730001
-0.10713844 0.25293511 1.2720001
-0.061853126 0.25293508 1.2720001
-0.055338886 0.25343221 1.2745
-0.044773221 0.25262919 1.2732501
-0.036449164 0.25072604 1.2720001
-0.026535615 0.25207695 1.2732501
-0.014377574 0.25326651 1.2736669
-0.0049801087 0.25201747 1.2757502
0.0060987398 0.25171161 1.2770001
0.016632926 0.25171161 1.2770002
0.025480373 0.25195804 1.276
-0.69303858 0.26945341 1.2770001
-0.68614399 0.26781702 1.2745001
-0.6770708 0.26618934 1.2720001
-0.52571702 0.26147407 1.2732501
-0.51118523 0.26501796 1.2770001
-0.50350255 0.26319358 1.2753334
-0.49309677 0.26147407 1.2732501
-0.48915517 0.26117688 1.2745001
-0.47604817 0.26177126 1.2720001
-0.4643763 0.2628254 1.2753334
-0.45440057 0.26202631 1.2732501
-0.44953966 0.26177126 1.2720001
-0.43578264 0.26058251 1.2770001
-0.42855376 0.26177126 1.2720001
-0.41547406 0.26137501 1.2736667
-0.39364594 0.26058251 1.2770002
-0.35856569 0.26228142 1.2745001
-0.69032502 0.27060741 1.2720001
-0.033148892 -0.18407753 1.2823845
-0.024642626 -0.18366803 1.2836668
-0.03673571 -0.17922574 1.2820001
-0.079345696 -0.15980893 1.2870001
-0.072987542 -0.12257285 1.2832501
-0.05009415 -0.12133916 1.2820001
-0.044528134 -0.12133916 1.2820001
-0.03629043 -0.12222973 1.2820001
-0.076168761 -0.11852548 1.2836668
-0.050836291 -0.11280461 1.2820001
-0.044528142 -0.11465993 1.2819998
-0.037106782 -0.11558762 1.2819999
-0.051875275 -0.10419583 1.2819999
-0.044538721 -0.10466745 1.2823123
-0.034515169 -0.10466088 1.2822498
-0.025919426 -0.10395437 1.283875
-0.083236873 -0.092612095 1.2850002
-0.075298242 -0.094463579 1.2852353
-0.064044535 -0.09387619 1.2835385
-0.05454696 -0.095735498 1.2819998
-0.044341139 -0.095428772 1.282294
-0.03536408 -0.095920779 1.2861668
-0.02533102 -0.098716483 1.2870002
-0.086050965 -0.087168515 1.2870001
-0.075993061 -0.088286057 1.2870001
-0.030918747 -0.087541029 1.2870001
-0.027938627 -0.088286057 1.2870001
-0.47304085 0.15789315 1.2870002
-0.46480349 0.15630415 1.285077
-0.45841718 0.15518056 1.2820001
-0.48507375 0.16752249 1.2861669
-0.47550848 0.16479111 1.2843077
-0.46810204 0.1630843 1.2820001
-0.4856177 0.17565036 1.2863752
-0.47796911 0.17497532 1.2819999
-0.49227858 0.18774757 1.2870001
-0.48485494 0.18311776 1.2870002
-0.4751516 0.18255103 1.2845001
-0.46643221 0.18145216 1.2820001
0.70471287 0.20772952 1.2861668
0.67524993 0.21839169 1.284143
0.68292254 0.21457057 1.2830001
0.69460243 0.21428941 1.2840002
0.70397073 0.213552 1.2851818
0.55765498 0.22909673 1.2870001
0.36767232 0.23803709 1.2870001
0.37737596 0.23933873 1.2820001
0.39407399 0.23933873 1.2820001
0.40743244 0.23933873 1.2820001
0.41411164 0.23933873 1.2820001
0.42619464 0.23864879 1.2834288
0.43555471 0.23813131 1.2845001
0.44520408 0.23766719 1.2850002
0.45931101 0.23580199 1.2870001
0.46584088 0.23668727 1.28575
0.4754445 0.23647925 1.285077
0.48441181 0.23336399 1.284143
0.49092269 0.23488592 1.2820001
0.50463867 0.2350142 1.28575
0.51071811 0.23356691 1.2870001
0.52571237 0.23199567 1.2845001
0.53628093 0.23435831 1.2840002
0.54578614 0.23422787 1.2845001
0.55469775 0.23103225 1.2853334
-0.25535905 0.24865378 1.2870001
-0.0011175451 0.24921255 1.2870001
0.0044625816 0.24897049 1.28575
0.015086858 0.24921255 1.2870001
0.024585992 0.24921255 1.2870001
0.031169694 0.24713114 1.2820001
0.11600326 0.24649769 1.2845001
0.12591007 0.24623244 1.2870002
0.13501196 0.24547611 1.285
0.14384079 0.24515197 1.284143
0.15169306 0.24649769 1.2845001
0.16651422 0.24697745 1.2870001
0.19362496 0.24353468 1.2830001
0.20424446 0.24554007 1.2853334
0.21564265 0.2475204 1.2848573
0.22393328 0.24720235 1.2848573
0.2326595 0.24601796 1.2820001
0.25558349 0.24442542 1.2853335
0.26541695 0.24474236 1.2870001
0.27379853 0.24474236 1.2870001
0.28469503 0.24227174 1.28575
0.29446095 0.24203619 1.2845001
0.30564857 0.24250728 1.2870001
0.31422833 0.24124189 1.2832501
0.32213113 0.24187919 1.2836668
0.34979159 0.24027218 1.2870001
0.35488057 0.2414248 1.2860001
0.36591721 0.24143356 1.28575
0.37512264 0.24027219 1.2870001
0.38555306 0.24027219 1.2870001
0.39100528 0.24070317 1.2853334
0.40343377 0.24027219 1.2870001
0.41572675 0.24027218 1.2870001
0.42131448 0.24027218 1.2870001
0.43248993 0.24027218 1.2870001
-0.50303376 0.25876462 1.2845001
-0.4948189 0.25881979 1.2820001
-0.48869628 0.25937638 1.2820001
-0.43971533 0.25937638 1.2820001
-0.41522485 0.25937638 1.2820001
-0.40483496 0.25863427 1.2820001
-0.39073437 0.25937638 1.2820001
-0.38350224 0.25845876 1.2857502
-0.37699866 0.25876462 1.2845001
-0.35277173 0.25740787 1.2870001
-0.34610578 0.25566924 1.28575
-0.33685535 0.25670466 1.2820001
-0.32744071 0.25591782 1.2870001
-0.31403014 0.2581529 1.2870001
-0.30357572 0.25781572 1.2853334
-0.2957235 0.25740027 1.2842727
-0.28554013 0.25653389 1.2845001
-0.27745789 0.25684193 1.2832501
-0.26520032 0.25850248 1.2855716
-0.2553539 0.25352597 1.2851819
-0.13199222 0.25661129 1.2860001
-0.12566333 0.25393355 1.2845001
-0.11711863 0.25318995 1.2845001
-0.096977495 0.25525498 1.2836668
-0.070405334 0.25368273 1.2870001
-0.064687364 0.25318995 1.2845001
-0.054620773 0.25265321 1.2836668
-0.045081515 0.25248095 1.284143
-0.035725623 0.25120342 1.2857502
-0.021150865 0.25269717 1.2820001
-0.013230424 0.2523025 1.2848573
-0.0051337606 0.25150219 1.2850002
0.0042301728 0.25091603 1.2820001
0.014108537 0.25100464 1.2828335
0.024733087 0.25111142 1.2830001
0.030056491 0.25047076 1.2820001
-0.69421285 0.26786205 1.2853335
-0.68617266 0.26709327 1.2870001
-0.52354562 0.26456422 1.2855716
-0.51521516 0.26449454 1.2864444
-0.5044471 0.26122794 1.2848574
-0.49648869 0.26160279 1.2820001
-0.48424345 0.26160279 1.2820001
-0.47383907 0.26429939 1.2870001
-0.4654128 0.26153797 1.2853334
-0.4586398 0.26160279 1.2820001
-0.44701803 0.26038799 1.2870001
-0.43318307 0.26236799 1.2857502
-0.42606857 0.26322615 1.2845001
-0.41967767 0.26160279 1.2820001
-0.40119866 0.26038799 1.2870001
-0.3944934 0.26038799 1.2870001
-0.38778812 0.26038799 1.2870001
-0.37437758 0.26038799 1.2870001
-0.272681 0.26038799 1.2870001
-0.26485819 0.26038799 1.2870001
-0.70070076 0.27156344 1.2870001
-0.077649839 -0.16092649 1.296
-0.081834339 -0.090802491 1.291
-0.079592302 -0.090802491 1.291
-0.032829821 -0.092724234 1.291
-0.026904441 -0.093044519 1.291
-0.083195239 -0.08656697 1.29475
-0.077842988 -0.085865155 1.2938571
-0.034751572 -0.087813109 1.2910001
-0.026904441 -0.087439433 1.291
-0.50078523 0.15867576 1.296
-0.49536848 0.1573022 1.2952857
-0.48446679 0.15619525 1.2910001
-0.4764328 0.15582156 1.291
-0.46858567 0.15357952 1.291
-0.5028314 0.16399565 1.2959999
-0.49490985 0.16491246 1.2933077
-0.48584941 0.16269714 1.2910001
-0.50191063 0.17668152 1.296
-0.49500951 0.17510246 1.2926668
-0.51260149 0.18624708 1.296
-0.50535005 0.18529348 1.2949473
-0.49571434 0.18437016 1.2910001
-0.48508066 0.1865695 1.291
-0.47867483 0.18721007 1.291
-0.51309735 0.19376822 1.2948889
-0.50978816 0.19243658 1.296
0.70361155 0.20741844 1.294
0.67616206 0.21789652 1.2934999
0.69862151 0.21340378 1.2934999
0.70226288 0.21236308 1.294
0.47755381 0.22980876 1.291
0.56155467 0.22732273 1.296
0.35717636 0.23923931 1.2934999
0.36390895 0.23923929 1.2934999
0.37387568 0.23869668 1.293
0.38450301 0.2394705 1.29475
0.39500138 0.2397017 1.296
0.40625498 0.23970169 1.296
0.41461182 0.23933177 1.294
0.42541593 0.23796126 1.2926667
0.43504792 0.23699149 1.2934999
0.44434983 0.23676389 1.29225
0.45601049 0.23699293 1.2934999
0.46746466 0.23541385 1.291
0.47579226 0.23333198 1.291
0.48091689 0.23317182 1.291
0.49885318 0.23653488 1.291
0.50109524 0.23653488 1.291
0.5363667 0.23283598 1.29225
0.54495209 0.23393701 1.294
0.55387068 0.23140663 1.2945715
-0.29034376 0.2499871 1.291
-0.26287881 0.24942657 1.291
-0.25783423 0.24774505 1.291
-0.043804377 0.24934584 1.2934999
-0.036993608 0.2499871 1.2910001
-0.010089166 0.2499871 1.291
-0.0042633433 0.24947409 1.293
0.0044949278 0.24822481 1.2934999
0.014214038 0.24843858 1.2926667
0.025356725 0.24748681 1.2920001
0.031978328 0.24630123 1.29225
0.10663423 0.24581997 1.2926667
0.12410697 0.24541792 1.2934999
0.13530162 0.24299927 1.2920001
0.14438352 0.24408451 1.293
0.15500011 0.24710162 1.2934999
0.1655903 0.24725938 1.2943333
0.17538358 0.24621613 1.29475
0.18418393 0.24570362 1.296
0.19411962 0.24349651 1.29225
0.20615277 0.24506973 1.2926667
0.21415403 0.2452282 1.2934999
0.22449961 0.24562338 1.294
0.23632559 0.24645385 1.296
0.24741785 0.24554515 1.2951667
0.25491878 0.24441978 1.2951667
0.26637027 0.24463642 1.2943333
0.2752825 0.24382626 1.294
0.28546631 0.2419524 1.296
0.29550946 0.24202743 1.294
0.3045775 0.24201493 1.2943333
0.31351149 0.24101895 1.2910001
0.32522905 0.2419524 1.296
0.35760486 0.24101895 1.291
0.36255348 0.24133012 1.2926667
0.40020356 0.24101895 1.291
-0.68534428 0.25995818 1.296
-0.51587892 0.25962389 1.2943333
-0.50479501 0.25914475 1.29475
-0.47152585 0.25995818 1.296
-0.46477371 0.25995818 1.296
-0.44296312 0.25914475 1.29475
-0.4341653 0.25820658 1.294
-0.42501098 0.25995821 1.296
-0.41701883 0.25895524 1.291
-0.39311838 0.25945669 1.2934999
-0.38899338 0.25895524 1.291
-0.37666216 0.25895524 1.291
-0.33465061 0.25650379 1.2918333
-0.32572052 0.25664982 1.2934999
-0.31339842 0.25791544 1.2951667
-0.30639535 0.2549893 1.2925001
-0.2937068 0.25447115 1.291
-0.28491423 0.25439981 1.2935002
-0.27394724 0.25537661 1.2933335
-0.26473257 0.25463396 1.2918335
-0.14067 0.25545672 1.296
-0.13526173 0.25543657 1.292111
-0.1280414 0.25271755 1.2934999
-0.11366136 0.25545672 1.296
-0.10501277 0.25496393 1.2934999
-0.091154166 0.25545672 1.296
-0.085180528 0.25553414 1.2931429
-0.064065926 0.25288039 1.2943333
-0.055048093 0.25152147 1.2937777
-0.048297137 0.25159222 1.2934999
-0.031510081 0.25208065 1.296
-0.028134001 0.25320601 1.296
-0.015967088 0.25255877 1.295
-0.70418245 0.26705816 1.2945715
-0.69525188 0.26535183 1.2934999
-0.68645346 0.26519269 1.293
-0.53024167 0.26119727 1.291
-0.52385062 0.26173955 1.2918333
-0.51745379 0.26340431 1.2926667
-0.49178234 0.26445961 1.296
-0.48300716 0.26339731 1.293
-0.47574112 0.26270106 1.294
-0.46494803 0.26180425 1.294
-0.44056022 0.26119727 1.291
-0.43495512 0.26119727 1.291
-0.42588755 0.26173958 1.2918334
-0.40020356 0.26119727 1.291
-0.39796153 0.26119727 1.291
-0.36461663 0.26220888 1.296
-0.31052208 0.26119727 1.291
-0.27689153 0.26119727 1.291
-0.70399952 0.27016541 1.291
-0.083597928 -0.086987033 1.3010001
-0.50949544 0.15928794 1.3010001
-0.52052593 0.16783842 1.3060001
-0.5144372 0.16638526 1.3035002
-0.50761265 0.16531304 1.3010001
-0.52128196 0.17577672 1.3060001
-0.51489401 0.17508708 1.3018827
-0.50663352 0.17389876 1.3010004
-0.53186631 0.18258098 1.3060001
-0.52355003 0.18500026 1.3060001
-0.51552057 0.18414138 1.3010001
-0.52336103 0.19363792 1.3060001
-0.51853305 0.19091959 1.3010001
0.70485133 0.20877425 1.3043336
0.56475359 0.21887037 1.3060001
0.67895073 0.21803243 1.3010001
0.68459922 0.21803243 1.3010001
0.69928533 0.21351363 1.3010001
0.70267445 0.21125422 1.3010001
0.55575669 0.22711758 1.303143
0.56255543 0.2235902 1.3026669
0.30581367 0.23928314 1.3060001
0.31299597 0.23928314 1.3060001
0.32547045 0.23928314 1.3060001
0.36572984 0.23891671 1.3040001
0.37567672 0.23752207 1.3041251
0.38521773 0.23766534 1.3026667
0.3951461 0.23791641 1.3026669
0.40466672 0.23761596 1.3037779
0.41498175 0.23786797 1.3037779
0.42565027 0.23782627 1.3030002
0.43534869 0.2363345 1.3022501
0.44552904 0.23633452 1.3022501
0.45643914 0.23746574 1.3043336
0.46519095 0.23656136 1.3035002
0.49819845 0.23610766 1.3010001
0.503847 0.23610766 1.3010001
0.51160419 0.23656136 1.3035002
0.54525548 0.23186052 1.3041251
0.5510087 0.23148952 1.3030002
-0.26660961 0.24966408 1.3010001
-0.054225683 0.24966408 1.3010001
-0.044921488 0.24879169 1.3043336
-0.039539561 0.24966408 1.3010001
-0.0056528505 0.24922788 1.3026669
0.0011340433 0.24835549 1.3060001
0.016609482 0.24728253 1.3043336
0.025011281 0.24570844 1.3026668
0.034638304 0.24421866 1.3054445
0.10546603 0.24608742 1.3060001
0.1155628 0.24811779 1.3047502
0.128786 0.24401557 1.3010001
0.13443451 0.24288587 1.3010001
0.14591822 0.24395017 1.3026669
0.15513124 0.24661779 1.3040003
0.16541295 0.24698375 1.3047501
0.17592755 0.24539536 1.3043336
0.18578531 0.24461488 1.3030002
0.1943087 0.24288587 1.3010001
0.20581442 0.24431658 1.3041251
0.21594641 0.24426132 1.3043336
0.22335546 0.24448231 1.3035002
0.2339167 0.24599293 1.3035002
0.24535839 0.24503565 1.3038573
0.25580537 0.24259657 1.3035002
0.26559067 0.24393147 1.3031431
0.27608591 0.24261895 1.3020002
0.28428018 0.24199611 1.3043334
0.29456583 0.24132004 1.3047502
0.30435172 0.24099639 1.3030002
0.3136805 0.24062648 1.3010001
0.32484597 0.24221855 1.3035002
0.33417809 0.24225658 1.3045717
0.34004021 0.24062647 1.3010001
0.3540467 0.24093473 1.3026669
0.4033035 0.24062647 1.3010001
-0.69403452 0.25969592 1.3060001
-0.47629821 0.25969592 1.3060001
-0.44341093 0.25856188 1.3060001
-0.43464556 0.25806475 1.3035002
-0.4264003 0.25969592 1.3060001
-0.39351305 0.25856188 1.3060001
-0.38538224 0.25813553 1.3032223
-0.37845007 0.25870168 1.3010001
-0.3685641 0.25969592 1.3060001
-0.34361514 0.25742787 1.3060001
-0.33665109 0.25644228 1.3010001
-0.32425886 0.25714737 1.3026669
-0.31592345 0.25511187 1.302875
-0.28294832 0.25348634 1.3051668
-0.27360556 0.25208259 1.3047502
-0.14261812 0.25580537 1.3035002
-0.13735767 0.25321451 1.3030002
-0.12345009 0.25483415 1.3043334
-0.11344106 0.25487942 1.3045716
-0.10407525 0.25407714 1.3043333
-0.095369212 0.25441834 1.3032728
-0.086265124 0.25398108 1.302875
-0.074560314 0.25493604 1.3010001
-0.064830095 0.25196046 1.3041251
-0.033317428 0.25088355 1.3050002
-0.024498098 0.25389591 1.3021113
-0.015475437 0.25105688 1.3043336
-0.7119478 0.26485598 1.3035002
-0.70553178 0.26410142 1.3035002
-0.69458169 0.26264298 1.3015002
-0.49267644 0.26313889 1.3043336
-0.48538113 0.26250255 1.3038573
-0.4767341 0.26096109 1.3010001
-0.4524833 0.26196402 1.3060001
-0.42815694 0.26096109 1.3010001
-0.41543788 0.26196402 1.3060001
-0.4059875 0.26196402 1.3060001
-0.3987847 0.26096109 1.3010001
-0.374311 0.26264706 1.3045716
-0.36809087 0.26238286 1.3043336
-0.52336884 0.15883902 1.3160001
-0.51651251 0.15769629 1.3160001
-0.52365941 0.16483773 1.3132223
-0.5183816 0.16252595 1.3135002
-0.54317611 0.17864627 1.3160001
-0.53392565 0.17545539 1.314077
-0.52744764 0.17505263 1.3125
-0.55193698 0.18740718 1.3160001
-0.54596394 0.1850322 1.3153751
-0.53536624 0.184581 1.3110001
-0.52889371 0.18373536 1.3110001
-0.55250198 0.19359127 1.3130001
-0.54550749 0.19541651 1.313778
-0.53556347 0.19319871 1.3129232
-0.52934903 0.19466384 1.3110001
-0.546529 0.20195524 1.3140001
0.70963329 0.20911899 1.3160001
0.56569517 0.21874329 1.3143334
0.68644619 0.21743155 1.3110001
0.69473374 0.21680748 1.313143
0.70326132 0.21464419 1.3138573
0.54901826 0.22834447 1.3126668
0.55572039 0.22509168 1.3146365
0.56188893 0.22102587 1.3143334
0.32796258 0.23882988 1.3160001
0.36953795 0.23837617 1.3135002
0.37776062 0.23624486 1.3143334
0.38575327 0.23536836 1.3120002
0.39539343 0.236854 1.3135002
0.40598071 0.2355075 1.3138573
0.41413718 0.23518346 1.3126668
0.42347926 0.23735328 1.3110001
0.43423617 0.23654443 1.3160001
0.44482112 0.23609507 1.3135002
0.4539369 0.23723346 1.3135002
0.46763009 0.23837617 1.3135002
0.47447562 0.23666427 1.3135002
0.48108795 0.23654443 1.3160001
0.49861264 0.23792247 1.3110001
0.50591052 0.23709564 1.3140001
0.51406187 0.23535036 1.3141251
0.52793974 0.23882988 1.3160001
0.54508066 0.23273534 1.3160002
-0.065135419 0.2479717 1.3160001
-0.053606123 0.24863902 1.3135002
-0.047812171 0.24930632 1.3110001
-0.03358236 0.24873713 1.3110001
-0.024710599 0.24863902 1.3135002
-0.014229813 0.24930632 1.3110001
-0.0049330019 0.24930632 1.3110001
0.003415155 0.24930632 1.3110001
0.014260205 0.24749845 1.3135002
0.025044471 0.24361439 1.3110001
0.032443974 0.24247602 1.3110001
0.10741631 0.24568625 1.3160001
0.11541541 0.2479717 1.3160001
0.12553786 0.24651638 1.3143334
0.13563715 0.24278426 1.3126669
0.14468518 0.2431163 1.3120002
0.15597577 0.24595492 1.3150002
0.16460116 0.24619108 1.3141251
0.17450288 0.24379218 1.3135
0.18433243 0.24398023 1.3138573
0.19481407 0.24266095 1.3120002
0.20549652 0.24316961 1.3147501
0.21548127 0.24284592 1.3130001
0.22643061 0.24330127 1.3130001
0.23495451 0.24407679 1.3135
0.24447915 0.24390888 1.3141251
0.25272149 0.24247602 1.3110001
0.26565009 0.24284592 1.3130001
0.27592787 0.24174853 1.3120002
0.28549898 0.24083781 1.3120002
0.29551122 0.24074888 1.3140001
0.30508721 0.24019924 1.3110001
0.31877214 0.24126354 1.3126668
0.32500893 0.24076843 1.3110001
0.33625054 0.24164298 1.3126668
0.34510347 0.24225807 1.3160001
0.35538802 0.24225807 1.3160001
0.36224437 0.24111533 1.3160001
-0.70391965 0.25939897 1.3160001
-0.69669163 0.25727502 1.3110001
-0.50232106 0.25800985 1.3147502
-0.49406645 0.25689542 1.3156669
-0.48565885 0.25711352 1.3160001
-0.47841224 0.25655529 1.313143
-0.44710007 0.25890619 1.3135002
-0.43482459 0.25907046 1.3143334
-0.42509434 0.25939897 1.3160001
-0.40338254 0.259399 1.3160002
-0.39463016 0.25719428 1.3135002
-0.38613772 0.25754684 1.3143334
-0.36338711 0.25939897 1.3160001
-0.35995892 0.25939897 1.3160001
-0.34151551 0.25613663 1.3110001
-0.33346564 0.25542706 1.3151668
-0.32514358 0.25368974 1.3130834
-0.31988621 0.25272149 1.3110001
-0.1451263 0.25635171 1.3160002
-0.12557946 0.25458601 1.3147501
-0.11500972 0.25261241 1.314
-0.10423878 0.25146097 1.3143334
-0.09627039 0.25101483 1.313143
-0.085458107 0.25296354 1.3122501
-0.074766487 0.25329536 1.313143
-0.065473638 0.25085905 1.3151667
-0.058279064 0.25025713 1.3160001
-0.036567256 0.25025713 1.3160001
-0.02483503 0.25131792 1.3120002
-0.017108338 0.25092012 1.3135002
0.0057136337 0.25025713 1.3160001
-0.71580911 0.26428831 1.3147502
-0.70593709 0.2617805 1.3126668
-0.50331968 0.2613444 1.3120002
-0.49552277 0.26166594 1.3110001
-0.48495203 0.26069018 1.3110001
-0.47470656 0.26069018 1.3110001
-0.45537341 0.26211485 1.3143334
-0.44966209 0.26069018 1.3110001
-0.42120248 0.26069018 1.3110001
-0.41480979 0.26168442 1.3160001
-0.40464339 0.26102161 1.3126668
-0.39957315 0.26069018 1.3110001
-0.37566704 0.26069018 1.3110001
-0.36428323 0.26069018 1.3110001
-0.32216296 0.26296693 1.3110001
-0.54001129 0.16925727 1.3260001
-0.53388256 0.1663532 1.3238573
-0.52879852 0.16517785 1.3210001
-0.55336767 0.17616573 1.3260001
-0.54478532 0.17454934 1.3225001
-0.5372104 0.17167792 1.3210001
-0.55468953 0.18303934 1.3210001
0.7077412 0.20991351 1.3210001
0.71003532 0.20991351 1.3210001
0.56541193 0.21824928 1.3238573
0.57009298 0.21679592 1.3210001
0.6893881 0.21679592 1.3210001
0.69605446 0.21567243 1.3235002
0.70501119 0.2130813 1.3228751
0.54931182 0.22694448 1.3240002
0.55470926 0.223287 1.3232224
0.56091642 0.2213842 1.3210001
0.027911996 0.23897257 1.3210001
0.030970845 0.23973729 1.3210001
0.24064469 0.23834188 1.3260001
0.28537914 0.2394582 1.3220001
0.29364949 0.23973729 1.3210001
0.30282605 0.23973729 1.3210001
0.3257674 0.23859021 1.3210001
0.33472687 0.23876233 1.3226668
0.3424733 0.23903958 1.3235002
0.36706188 0.23973729 1.3210001
0.38753459 0.23574238 1.3243335
0.39723647 0.23603906 1.3260001
0.40506765 0.23504448 1.3230002
0.41503033 0.23384252 1.3240002
0.4257184 0.23621044 1.3226669
0.43517932 0.23674111 1.3235002
0.44408882 0.23582807 1.3226669
0.45624143 0.23674111 1.3235002
0.46570978 0.23744315 1.3210001
0.4746336 0.23674327 1.3235002
0.48474365 0.23603907 1.3260001
0.50613958 0.23696578 1.3247502
0.51518333 0.23420718 1.3243335
0.52461386 0.2356977 1.3226668
0.53396082 0.23651001 1.3243335
0.54567891 0.23320916 1.3230002
-0.33160609 0.24985598 1.3260001
-0.12435228 0.24985598 1.3260001
-0.11503138 0.24962045 1.3247502
-0.10477831 0.24985598 1.3260001
-0.094239786 0.24938491 1.3235002
-0.085120767 0.24962045 1.3247502
-0.074841656 0.24985598 1.3260001
-0.063853472 0.24891385 1.3210001
-0.055928916 0.24708498 1.3235002
-0.045585044 0.24900113 1.3235002
-0.02757957 0.2482335 1.3235002
-0.01491189 0.24891384 1.3210001
-0.0038264559 0.24846028 1.3226669
0.0046045547 0.24962045 1.3247502
0.01416599 0.24769557 1.3226669
0.025024325 0.24313231 1.3220001
0.030970845 0.24203143 1.3210001
0.10583095 0.24616839 1.3247501
0.11525807 0.2450362 1.3237275
0.12411504 0.24452914 1.3221112
0.13191286 0.24432556 1.3210001
0.14797182 0.24203143 1.3210001
0.15491703 0.24340625 1.3235002
0.16421495 0.24302997 1.324182
0.17501433 0.24294752 1.3260001
0.18537702 0.24294753 1.3260001
0.19434373 0.24264216 1.3243334
0.20495097 0.24294752 1.3260001
0.21531367 0.24294753 1.3260001
0.22568643 0.24175408 1.3220001
0.23503286 0.2414151 1.3232223
0.24534914 0.24126101 1.3237779
0.25415108 0.24175408 1.3220001
0.26432502 0.24248947 1.3235002
0.27479789 0.24145257 1.3241252
0.29476097 0.24064469 1.3260001
0.30051801 0.24064469 1.3260001
0.32354623 0.24064469 1.3260001
0.34821731 0.24133807 1.3235002
0.35455281 0.24123903 1.3238572
0.3626942 0.24064469 1.3260001
-0.7069658 0.25906727 1.3260001
-0.47468454 0.25668994 1.3256155
-0.46401823 0.25714827 1.3260002
-0.45596063 0.25780123 1.3245716
-0.44850373 0.25809038 1.3210001
-0.43482164 0.25882307 1.3247502
-0.42454988 0.25887188 1.3250002
-0.4122048 0.25906727 1.3260001
-0.40406492 0.25699031 1.3232224
-0.3970055 0.25535139 1.3226669
-0.38614219 0.25857884 1.3235002
-0.37497589 0.25906727 1.3260001
-0.364997 0.25906727 1.3260001
-0.35396135 0.25857884 1.3235002
-0.34455177 0.25573522 1.3226669
-0.33502156 0.25490651 1.3243334
-0.15141274 0.25720641 1.3243335
-0.14554623 0.25499544 1.3240001
-0.13451006 0.25384578 1.3240002
-0.12400278 0.25259274 1.3222501
-0.11470684 0.25120798 1.3210001
-0.10782443 0.25120798 1.3210001
-0.091765471 0.25120798 1.3210001
-0.084436744 0.25232702 1.3217144
-0.076394759 0.25166681 1.3210001
-0.069971174 0.25120798 1.3210001
0.0080294786 0.25120798 1.3210001
-0.72423691 0.26367289 1.3260001
-0.71611059 0.2617901 1.323143
-0.47481945 0.26228401 1.3254446
-0.46508422 0.26385859 1.3252858
-0.45653322 0.26095805 1.3210001
-0.43244478 0.26038453 1.3210001
-0.42479765 0.26038453 1.3210001
-0.41563275 0.26063094 1.3222501
-0.4095034 0.26038453 1.3210001
-0.38197377 0.26038453 1.3210001
-0.37509137 0.26038453 1.3210001
-0.36820894 0.26038453 1.3210001
-0.55429393 0.16856435 1.3326668
-0.54526597 0.1678609 1.3332224
-0.53732705 0.16393554 1.3326669
-0.5605396 0.17683001 1.3310001
-0.55356503 0.17269862 1.3318334
-0.54898208 0.172207 1.3310001
0.55684483 0.21925765 1.3360001
0.56556678 0.21786271 1.333778
0.69938302 0.21421567 1.3335001
0.70473123 0.21253788 1.3326668
0.53596318 0.22853839 1.3360001
0.54645234 0.22605786 1.3350627
0.55377263 0.22203112 1.3335001
0.5605396 0.22074857 1.3310001
0.2299946 0.2392406 1.3310001
0.23577335 0.2392406 1.3310001
0.24466616 0.23888524 1.3322501
0.25310963 0.2392406 1.3310001
0.2831592 0.23924062 1.3310001
0.29471669 0.23924062 1.3310001
0.32748729 0.23799628 1.3326669
0.33632374 0.2369291 1.3310001
0.34462747 0.23707598 1.3318336
0.35502082 0.23742034 1.3317696
0.36474344 0.23823985 1.3335001
0.37222847 0.23876679 1.3326668
0.40426132 0.23561044 1.3340001
0.41183314 0.23317876 1.3360001
0.42522606 0.23520517 1.3343334
0.43449086 0.23559043 1.3343334
0.44562778 0.23497014 1.3330001
0.45622149 0.23563614 1.3335001
0.46486306 0.23631617 1.333143
0.47481304 0.23581491 1.3328753
0.48432493 0.23532093 1.335
0.49419975 0.23549895 1.3360001
0.50594026 0.23597711 1.3343334
0.5144648 0.23485692 1.335
0.52486384 0.23250118 1.3343334
0.53523761 0.2331356 1.3340003
0.54550314 0.23276654 1.3347504
-0.13326268 0.24682073 1.3345002
-0.12500875 0.24700561 1.3330003
-0.11644229 0.24839596 1.3330001
-0.10525069 0.24867332 1.3320001
-0.094116919 0.24802439 1.3326669
-0.085525624 0.24848661 1.3310001
-0.075235002 0.24886 1.3330001
-0.064722091 0.24848661 1.3310001
-0.055164643 0.24648337 1.3326669
-0.046316184 0.24779472 1.3335001
-0.025077468 0.24879777 1.3326669
-0.015039533 0.2486733 1.3320001
-0.0046273489 0.24779326 1.3335001
0.0038604653 0.24817994 1.3335001
0.015827835 0.2470213 1.3335001
0.022787673 0.24292755 1.3343334
0.10653104 0.24547741 1.3335001
0.11467905 0.2430229 1.334
0.12505347 0.24277632 1.3335001
0.13347186 0.24358277 1.3320001
0.14385158 0.24477971 1.3360001
0.15515944 0.24200581 1.3335001
0.16758399 0.2415521 1.3310001
0.17567426 0.2415521 1.3310001
0.18145302 0.2415521 1.3310001
0.1981256 0.24292755 1.3343334
0.20649661 0.24245952 1.3360001
0.21577737 0.24245952 1.3360001
0.22507399 0.24094665 1.3331431
0.25556073 0.24107257 1.3347501
0.26545906 0.24227802 1.335
0.27438539 0.24037479 1.3351668
0.28886324 0.24013932 1.3360001
0.30452451 0.24071936 1.3360001
0.31525123 0.24223267 1.3347501
0.32250595 0.24245952 1.3360001
0.37703037 0.24013932 1.3360001
0.50464064 0.24013932 1.3360001
-0.72389829 0.25870082 1.3360001
-0.71345747 0.25870082 1.3360002
-0.70881706 0.25870082 1.3360001
-0.47141057 0.25334516 1.3322501
-0.46548358 0.25450879 1.3335003
-0.45637065 0.25623891 1.3322501
-0.43387491 0.25870082 1.3360001
-0.42611766 0.25821674 1.3335001
-0.41307101 0.25645915 1.3340001
-0.40496084 0.25344637 1.3340002
-0.3951166 0.25651148 1.3326669
-0.38476431 0.25870082 1.3360002
-0.37443143 0.25850719 1.3350002
-0.36310923 0.25754073 1.3360001
-0.35539019 0.25652337 1.332364
-0.34488553 0.25529033 1.3343334
-0.33828878 0.25419709 1.3326669
-0.15236357 0.25496757 1.3326669
-0.14521746 0.25374207 1.3343334
-0.13406721 0.25156865 1.3310002
-0.036984056 0.25079811 1.3310001
-0.72363317 0.26114026 1.3326669
-0.71425456 0.26004413 1.3310001
-0.47039095 0.26119989 1.3310001
-0.46807945 0.26235563 1.3310001
-0.44695809 0.26053256 1.3335001
-0.41838211 0.26004413 1.3310001
-0.38443244 0.26053256 1.3335001
-0.37793082 0.26004413 1.3310001
-0.55324209 0.16725925 1.3470001
-0.54419667 0.16430777 1.342
0.5462243 0.21872362 1.3470001
0.55569392 0.21770856 1.3448573
0.56482136 0.2166559 1.34325
0.57332921 0.21558112 1.342
0.70345485 0.21402739 1.342
0.71610236 0.21144381 1.3453335
0.5278824 0.22956476 1.342
0.53603637 0.22672567 1.3441873
0.54409206 0.22265297 1.3436668
0.55351913 0.22024235 1.342
0.024562545 0.23977724 1.3470001
0.12281273 0.23977724 1.3470001
0.20585752 0.23977724 1.3470001
0.22496173 0.23977725 1.3470001
0.23457332 0.23924319 1.3440001
0.24587902 0.23888719 1.342
0.25451156 0.23933221 1.3445001
0.26511955 0.23899746 1.3470001
0.27445325 0.2394212 1.3450001
0.28512529 0.23955473 1.3457501
0.29393321 0.23910969 1.34325
0.30293807 0.23977725 1.3470001
0.33444208 0.23888719 1.342
0.34440488 0.23699726 1.3445001
0.35474372 0.23636441 1.3453335
0.36617085 0.23535295 1.3451251
0.37475708 0.2372864 1.3445001
0.38511977 0.23948056 1.3453335
0.39927399 0.23699728 1.3445001
0.40631086 0.23360416 1.345889
0.41354057 0.23324823 1.3453335
0.42575079 0.23509865 1.3470001
0.43530074 0.23457503 1.3440001
0.4450863 0.23480776 1.3453335
0.45343241 0.23509865 1.3470001
0.46619093 0.23518102 1.3455716
0.47438225 0.23388255 1.3445001
0.48488879 0.23388255 1.3445001
0.49496916 0.23538931 1.3448573
0.50494123 0.23607159 1.3436667
0.51532334 0.23305497 1.3448573
0.52485698 0.23147805 1.3450001
0.53021306 0.23189537 1.342
-0.14152704 0.24913439 1.3470001
-0.1363405 0.24587902 1.342
-0.12934868 0.24587901 1.342
-0.11441247 0.24867201 1.3445001
-0.10507268 0.24867201 1.3445001
-0.096837401 0.24773811 1.3436668
-0.085067146 0.24820963 1.342
-0.074791074 0.24890321 1.3457501
-0.064655058 0.24811168 1.3440001
-0.057167888 0.24618438 1.3436668
-0.025707226 0.24890319 1.3457501
-0.013999922 0.2484408 1.34325
-0.0049012206 0.24717771 1.3440001
0.0054496601 0.24726662 1.3453335
0.015177165 0.24563442 1.3445001
0.024562545 0.24211654 1.3470001
0.11409496 0.2433736 1.3453335
0.12486807 0.2415773 1.3440001
0.13434276 0.2433736 1.3453335
0.14449762 0.24587901 1.342
0.15205386 0.24445581 1.3470001
0.16959853 0.24211653 1.3470001
0.1766164 0.24211653 1.3470001
0.18784684 0.24385087 1.3436668
0.19485025 0.24307112 1.3436668
0.20378858 0.24190581 1.3436668
0.21461228 0.24144247 1.34325
0.22140764 0.24121779 1.342
0.25986266 0.24121779 1.342
0.26568916 0.24121779 1.342
0.30880541 0.24121779 1.342
0.31551003 0.24189185 1.3457501
0.32399166 0.24211653 1.3470001
-0.73274463 0.25903997 1.3450001
-0.72379613 0.2588481 1.3440001
-0.46377742 0.2542758 1.3453335
-0.45454678 0.25763902 1.3450001
-0.443847 0.25812957 1.3451251
-0.4386169 0.25849155 1.3470001
-0.42418301 0.25917712 1.3445001
-0.41600791 0.25375596 1.3453335
-0.39226916 0.25801179 1.3445001
-0.38423839 0.25857386 1.3450001
-0.3735874 0.25801179 1.3445001
-0.3665216 0.25730211 1.3428334
-0.35541755 0.25520143 1.342
-0.3458904 0.25532973 1.3457501
-0.15410876 0.25450939 1.3445001
-0.14522964 0.25193912 1.344143
-0.040937576 0.2514737 1.3470001
-0.034830239 0.25175312 1.3460001
-0.73297584 0.26219326 1.342
-0.44797406 0.26083085 1.3470001
-0.5623396 0.1678801 1.3520001
-0.55881768 0.1678801 1.3520001
0.5388599 0.21953551 1.3520001
0.54553568 0.21789841 1.3540001
0.55490667 0.21748696 1.3568001
0.56011844 0.215793 1.358
0.57898557 0.215793 1.358
0.58134395 0.215793 1.358
0.70556599 0.21483956 1.3520001
0.71379817 0.21217696 1.3550003
0.72529674 0.21148063 1.3562858
0.73463959 0.21343462 1.3580002
0.74407315 0.215793 1.3580002
0.49424839 0.2289274 1.3520001
0.52946365 0.22943538 1.355
0.53515399 0.22478124 1.3565
0.54120785 0.22188349 1.3520001
0.20871782 0.23937693 1.358
0.2169722 0.23937693 1.358
0.22522655 0.23937693 1.358
0.23414695 0.23884812 1.355
0.24645211 0.23937693 1.358
0.25520319 0.23874235 1.3544
0.26297301 0.23831931 1.3520001
0.27471289 0.23831931 1.3520001
0.28553408 0.23853083 1.3532002
0.29511005 0.23867187 1.3540001
0.30423275 0.23937693 1.358
0.33687386 0.23911253 1.3564999
0.34668383 0.23701854 1.358
0.3546204 0.23680909 1.3568
0.36540049 0.23431456 1.3560002
0.37591976 0.23472875 1.355
0.38446504 0.23867187 1.3540001
0.39576855 0.23911253 1.3564999
0.40421924 0.23471503 1.3556
0.41676527 0.23362336 1.3520001
0.43840647 0.23352842 1.3559999
0.4452945 0.233036 1.3546668
0.45455489 0.23374698 1.3550003
0.46313286 0.23450768 1.3544
0.47481814 0.23329295 1.3535001
0.48571512 0.23262513 1.3544
0.49518758 0.23268417 1.3520001
0.50547564 0.23450768 1.3544
0.51417577 0.23296255 1.355
0.52475727 0.23178858 1.355
-0.1450412 0.2488105 1.3580002
-0.13853043 0.24653721 1.3520001
-0.12236293 0.24826086 1.355
-0.1044806 0.24748568 1.3562858
-0.095642753 0.24746147 1.3532002
-0.084804475 0.24853569 1.3564999
-0.075389139 0.24853566 1.3565001
-0.065820098 0.24739903 1.3535001
-0.0528294 0.2477112 1.3520001
-0.035768967 0.2488105 1.3580002
-0.028300721 0.2488105 1.358
-0.012955534 0.24844408 1.3559999
-0.0047063665 0.24649467 1.355
0.0052102488 0.24481918 1.3545716
0.01332255 0.2441574 1.3540001
0.021225542 0.24173532 1.358
0.10887916 0.24487984 1.3580002
0.11341345 0.24269527 1.3535001
0.12561658 0.24066727 1.3520001
0.13442901 0.24259208 1.3540001
0.14478487 0.24601655 1.3556
0.15731421 0.24301524 1.3520001
0.16490129 0.24382409 1.3564999
0.17523246 0.24250329 1.3544002
0.18460624 0.24312785 1.3569999
0.19370781 0.24301526 1.3520001
0.20237117 0.2412013 1.355
0.21483956 0.24066727 1.3520001
0.22423147 0.24066727 1.3520001
0.31484553 0.24173532 1.358
0.3250975 0.24205531 1.3565001
0.33135426 0.24173532 1.358
0.38858959 0.24066727 1.3520001
-0.73599362 0.25589824 1.3561538
-0.72806162 0.25864643 1.3560002
-0.46255076 0.25475511 1.3520001
-0.45487705 0.25430813 1.3527502
-0.44528398 0.25386244 1.3535
-0.43383846 0.2586574 1.3540001
-0.42510411 0.25576606 1.3542502
-0.39480236 0.25825724 1.3556
-0.38506761 0.25710309 1.3520001
-0.37521106 0.25624445 1.3545717
-0.36647516 0.25422892 1.3545717
-0.35022143 0.25588569 1.358
-0.34786302 0.25588569 1.358
-0.16272914 0.25352728 1.358
-0.15552695 0.25338119 1.3554286
-0.14674833 0.25005919 1.3520001
-0.035340734 0.25089148 1.3564999
-0.019957773 0.25005916 1.3520001
-0.72520596 0.26060247 1.358
-0.45315886 0.26179904 1.3520001
