# .PCD v0.7 - Point Cloud Data file format
VERSION 0.7
FIELDS x y z
SIZE 4 4 4
TYPE F F F
COUNT 1 1 1
WIDTH 1499
HEIGHT 1
VIEWPOINT 0 0 0 1 0 0 0
POINTS 1499
DATA ascii
0.036876686 0.20453726 1.2175294
0.045161303 0.2051488 1.2156074
0.05393783 0.20440932 1.2179285
0.035627186 0.21588469 1.2187221
0.045442488 0.21558288 1.2170001
0.054421861 0.21602254 1.2186428
0.065626897 0.21593367 1.219
0.65877849 0.21959282 1.21
0.034930445 0.22122616 1.2190001
0.056335635 0.22357838 1.219
0.063439339 0.2251779 1.2190001
0.63881552 0.22274488 1.21
0.64453089 0.2223735 1.2137144
0.65148103 0.22138217 1.2160001
0.66156149 0.22122616 1.2190001
0.44696242 0.23929358 1.2140001
0.45255485 0.23884101 1.216
0.46765742 0.23909646 1.2130002
0.47535568 0.23684835 1.2122858
0.48411667 0.23889935 1.2120001
0.49802393 0.23850513 1.21
0.50511724 0.2384403 1.2144445
0.51515663 0.23722498 1.2124168
0.52276504 0.23701334 1.2113335
0.017994473 0.24874711 1.2190001
0.022198074 0.24840701 1.2173334
0.066997655 0.24918233 1.2170002
0.070919387 0.24874711 1.2190001
0.096982419 0.24983513 1.2140001
0.10752398 0.24983513 1.2140001
0.11068645 0.24983513 1.2140001
0.13549769 0.24928828 1.2134001
0.14510339 0.2483363 1.2131251
0.15528014 0.24929111 1.2165002
0.16533512 0.24935156 1.2162223
0.17508575 0.24929112 1.2165
0.18471745 0.24910679 1.2155999
0.19410679 0.24888802 1.21325
0.20484467 0.24893437 1.2153333
0.21593367 0.24663012 1.2190001
0.22499342 0.24717847 1.2165
0.23465668 0.2490609 1.2136668
0.24523643 0.24898572 1.2144444
0.25487262 0.24758799 1.2142727
0.26525655 0.24673305 1.2148889
0.27435887 0.24715225 1.2143
0.28487042 0.24656573 1.2157145
0.29505718 0.2460885 1.2153
0.30451313 0.24494739 1.2153335
0.31564125 0.2451531 1.2152001
0.3247506 0.24525446 1.2137144
0.33399487 0.24507372 1.2134001
0.34834754 0.24521387 1.2120001
0.35692614 0.24629292 1.2173334
0.36415586 0.24432582 1.2135715
0.37373102 0.24339803 1.2124001
0.38538435 0.24431121 1.215
0.39557621 0.24359301 1.2126667
0.40457565 0.2424261 1.2165
0.41584173 0.24360955 1.2124002
0.42543429 0.24276845 1.2142501
0.43080884 0.24239613 1.2190001
0.44608021 0.24044281 1.2145001
0.4547821 0.24054101 1.2118
0.46284813 0.24069348 1.2150002
0.49537724 0.24027912 1.2190001
-0.54110193 0.2595188 1.21
-0.34154677 0.25826839 1.2140001
-0.33621866 0.25846809 1.21
-0.32536161 0.2595188 1.21
-0.29426253 0.25933209 1.2190001
-0.27002561 0.2595188 1.21
-0.26437753 0.258055 1.2142501
-0.25573635 0.2575447 1.2148573
-0.24779253 0.25833929 1.2143334
-0.22337577 0.25744918 1.217889
-0.21797079 0.25798243 1.2126669
-0.11701139 0.25826839 1.2140001
-0.10242166 0.25587642 1.2160001
-0.094548479 0.25482199 1.2143335
-0.084998399 0.25671178 1.2139091
-0.074899919 0.25740138 1.2149
-0.065501861 0.25700107 1.21675
-0.055421378 0.25771734 1.2134001
-0.044523861 0.25748447 1.2141539
-0.035747066 0.25421107 1.2147778
-0.02486969 0.25546381 1.215
-0.01473106 0.25526157 1.21225
-0.0040941914 0.25557065 1.2134444
0.0052713044 0.25622568 1.2143334
0.015290048 0.25425518 1.2143748
0.024564533 0.2519953 1.215
0.034245983 0.25237969 1.2135834
0.044168551 0.25154045 1.2143333
0.055841304 0.25223607 1.2133999
0.064441219 0.25234494 1.2136154
0.074711561 0.25263053 1.2160625
0.085785061 0.25248712 1.2150768
0.094951257 0.25116071 1.213143
0.10369623 0.25098872 1.2145
0.11545997 0.251187 1.2148889
0.12416053 0.25112709 1.2151668
0.1301953 0.25086412 1.2190001
0.15445046 0.25111333 1.21
0.1639066 0.25111333 1.21
0.1765148 0.25111333 1.21
0.18176822 0.25111333 1.21
-0.66280842 0.26469839 1.2145001
-0.65536523 0.26590973 1.213143
-0.64856553 0.26469451 1.2145001
-0.54124367 0.26252717 1.2158334
-0.53455591 0.26486516 1.2145715
-0.52442926 0.26527515 1.2152001
-0.51479125 0.26559573 1.215091
-0.50457811 0.26497942 1.2143078
-0.49471855 0.26413104 1.2148001
-0.48485315 0.26601654 1.2150002
-0.47533455 0.26820403 1.2170001
-0.4644393 0.26924941 1.218375
-0.45442626 0.26700693 1.2162727
-0.44696242 0.26459333 1.2140001
-0.43220425 0.26459333 1.2140001
-0.4246372 0.26407975 1.2165
-0.41397375 0.26273471 1.2151668
-0.40381747 0.26333255 1.215143
-0.39526415 0.26350868 1.2138751
-0.38451546 0.26278207 1.2132223
-0.37519896 0.26314247 1.214889
-0.36442739 0.26437539 1.2130001
-0.35428995 0.26447552 1.2148573
-0.3447648 0.26252514 1.2142
-0.33309007 0.26204911 1.2120001
-0.32178348 0.2614491 1.2190001
-0.31449524 0.26126882 1.2162002
-0.30470738 0.26188788 1.2154287
-0.29613337 0.26141655 1.2115
-0.28415123 0.26095566 1.2142501
-0.27564758 0.26130304 1.2144002
-0.24295317 0.2609129 1.2165
-0.2347286 0.26112014 1.2158334
-0.22477821 0.26104847 1.2127779
-0.21854214 0.26162016 1.21
-0.20210284 -0.11168937 1.2250001
-0.19923823 -0.11187173 1.2270001
-0.20365803 -0.10746824 1.2254
-0.19923823 -0.10974084 1.2270001
-0.333038 0.13750736 1.2238001
-0.32814926 0.1391183 1.223
-0.36248019 0.14512652 1.2248183
-0.35646853 0.14832205 1.223
-0.32708728 0.14124224 1.223
0.025527265 0.14785546 1.2250001
-0.39101833 0.15875131 1.2270001
-0.38888744 0.15768586 1.2270001
-0.36421731 0.15467338 1.2262
-0.3578845 0.1539859 1.223
0.0095577454 0.15186195 1.223
0.015296094 0.15335895 1.2245384
0.024470083 0.15426405 1.2252396
0.03079718 0.1539859 1.223
0.056284498 0.15823378 1.223
-0.39208376 0.1608822 1.2270001
0.054767404 0.16339193 1.2230002
0.0085235601 0.19284555 1.2270001
0.015591796 0.19171846 1.2243335
0.024465293 0.19657366 1.2250003
0.031505164 0.19788073 1.223
0.066783667 0.19609442 1.224
0.072056331 0.19664741 1.2263335
0.027510166 0.20564404 1.2252859
0.031763542 0.20487122 1.223889
0.056891341 0.20526396 1.2230002
0.064885579 0.20528066 1.2249198
0.074971035 0.20638099 1.2263999
0.027965253 0.21204035 1.223
0.032213144 0.21310233 1.223
0.057558864 0.21303153 1.223
0.064292155 0.21512116 1.2232352
0.075397797 0.21509032 1.2265788
0.64531207 0.21888688 1.2256668
0.65604234 0.21867934 1.2255001
0.66428328 0.21912219 1.2250001
0.67442673 0.21415445 1.2270001
0.038230982 0.22301406 1.223
0.045513697 0.22369793 1.2240908
0.05279978 0.22621059 1.2243334
0.066297382 0.22498631 1.2230002
0.075162306 0.22432464 1.2269999
0.64602244 0.22172575 1.2256669
0.6546337 0.22145368 1.2252859
0.66269028 0.22124961 1.2250001
0.67227447 0.22278886 1.2256669
0.056189928 0.23318169 1.2251818
0.065216325 0.23563549 1.2259564
0.072095118 0.23262218 1.2270001
0.44855237 0.23972513 1.2270001
0.45324367 0.23920414 1.2243335
0.46613219 0.23972513 1.2270001
0.474123 0.23972514 1.2270001
0.48571268 0.23860629 1.2240001
0.49553654 0.23914266 1.2262001
0.50567043 0.23846431 1.2260002
0.51511037 0.23733607 1.2256669
0.52952617 0.23759425 1.2270001
0.015929576 0.24956335 1.223
0.027611263 0.24956335 1.223
0.03079718 0.24956335 1.223
0.057672095 0.24834839 1.2254001
0.064644113 0.24531531 1.2259089
0.075862944 0.24780551 1.2255714
0.085096665 0.24890602 1.2250001
0.09451548 0.24956337 1.223
0.10680266 0.24899992 1.2247145
0.11304688 0.24912512 1.2243335
0.13529909 0.24899024 1.2236668
0.14478329 0.24804637 1.2260002
0.15383264 0.24804637 1.2260001
0.165144 0.2482487 1.2270001
0.17551535 0.24890602 1.2250001
0.18378927 0.2482487 1.2270001
0.19858871 0.24956335 1.223
0.20551917 0.2484678 1.2263335
0.21133237 0.2474394 1.223
0.22763532 0.24784404 1.2250001
0.23482899 0.24881214 1.2252859
0.24500519 0.24819806 1.2250001
0.25381124 0.2474394 1.223
0.26477274 0.24563642 1.2246002
0.27322662 0.24558291 1.2243335
0.28447384 0.24611782 1.2270001
0.2947675 0.2447515 1.2255002
0.30397138 0.24339037 1.2240001
0.31359598 0.24398693 1.2270001
0.32567507 0.24345666 1.2243335
0.33495456 0.24478404 1.2246002
0.34435758 0.24551603 1.2240001
0.35475114 0.24481413 1.2252223
0.36374456 0.24403207 1.2236668
0.37598807 0.24345666 1.2243335
0.38506588 0.24358922 1.2250001
0.39477384 0.24310152 1.2243335
0.40386343 0.24265733 1.2246002
0.41629291 0.24319153 1.223
0.425412 0.24239023 1.2254002
0.43275172 0.2421899 1.2260001
0.44429058 0.24185602 1.2270001
-0.49543196 0.25890315 1.2270001
-0.45707592 0.25890315 1.2270001
-0.25381124 0.25805911 1.223
-0.23226702 0.25890315 1.2270001
-0.22712488 0.25507629 1.2247145
-0.11506806 0.25890315 1.2270001
-0.10678735 0.25791383 1.2256669
-0.093759164 0.25464135 1.2270001
-0.084661387 0.25519583 1.2252859
-0.076151393 0.25571954 1.2236668
-0.064141758 0.25550389 1.2243335
-0.05424739 0.2571502 1.2250001
-0.044674017 0.25528824 1.2250001
-0.034514077 0.25328025 1.223
-0.023032157 0.25408641 1.2243334
-0.015189125 0.25414389 1.2255456
-0.0053195069 0.25427088 1.2252222
0.0053154156 0.25307855 1.2246001
0.0127645 0.25209713 1.2250001
0.037207216 0.25196168 1.2243335
0.0488507 0.25168729 1.223
0.053716403 0.25103343 1.2250001
0.083895765 0.25168729 1.223
0.10121728 0.25037959 1.2270001
0.11719896 0.25037959 1.2270001
0.12458934 0.25059754 1.2263335
-0.66590309 0.26636124 1.2270001
-0.65382868 0.26358926 1.2256669
-0.54113066 0.26046675 1.2243335
-0.53581727 0.26365495 1.2243335
-0.52440387 0.26379794 1.2250001
-0.51572871 0.26392457 1.2246002
-0.50427622 0.26259187 1.2243335
-0.49435288 0.26211944 1.2243334
-0.48485243 0.26438072 1.2254001
-0.47493842 0.26635283 1.2255715
-0.46588469 0.26517311 1.2251334
-0.45656073 0.26301676 1.224667
-0.44781774 0.26486337 1.2250001
-0.4334352 0.26388842 1.2247145
-0.42605063 0.26212618 1.2235715
-0.41507089 0.26252383 1.2256668
-0.40388182 0.26252151 1.2240001
-0.39621025 0.26222402 1.2246002
-0.38484824 0.26188272 1.2243335
-0.37415496 0.26341817 1.2262002
-0.36526635 0.26417243 1.2255001
-0.35603246 0.26367137 1.2254002
-0.32425043 0.26103407 1.2270001
-0.31359598 0.26245466 1.2270001
-0.30578274 0.26103404 1.2270001
-0.2866047 0.26103404 1.2270001
-0.27535284 0.26046675 1.2243335
-0.24345434 0.26046675 1.2243335
-0.23282766 0.26046675 1.2243335
-0.2011199 -0.11446717 1.2320001
-0.19457565 -0.11304608 1.2331431
-0.18575941 -0.11188504 1.2330003
-0.17794119 -0.11090122 1.2320001
-0.22001831 -0.10410623 1.2360001
-0.21811494 -0.105308 1.2333335
-0.20475717 -0.10548097 1.2320002
-0.19501899 -0.10607909 1.2340002
-0.18519585 -0.10661454 1.2340002
-0.17794119 -0.10733527 1.2320001
-0.15454943 -0.098203294 1.2360001
-0.14695615 -0.098687246 1.2353334
-0.38342217 0.14784157 1.2360001
-0.37472907 0.14510274 1.2337779
-0.36785382 0.14472686 1.2320002
-0.39324909 0.15644068 1.2340001
-0.38535783 0.15414113 1.2327502
-0.37529132 0.15430401 1.2320002
-0.36800662 0.15083992 1.2320001
0.020325948 0.19791053 1.2320001
0.077381238 0.19719735 1.2320001
0.080494501 0.1985531 1.2360001
0.027457859 0.20290288 1.2320001
0.077238597 0.20176177 1.2320002
0.08447203 0.20495208 1.2330528
0.090931877 0.20646882 1.2320001
0.085328236 0.21512902 1.2320002
0.091978341 0.21593763 1.2337145
0.65448511 0.21844558 1.2344002
0.66647708 0.21930628 1.2320001
0.67719239 0.21811494 1.2333335
0.038512319 0.22786456 1.2320001
0.042791471 0.22786456 1.2320001
0.085268296 0.22484395 1.2320002
0.092453688 0.22339144 1.2360001
0.65150011 0.22144584 1.2320001
0.67506552 0.22049415 1.2346668
0.047223441 0.2307509 1.2360001
0.052861243 0.23537914 1.2340001
0.075649202 0.23535307 1.2320002
0.084370613 0.23420095 1.2325003
0.091942608 0.23146641 1.2360001
0.45729098 0.23882061 1.2333335
0.46364832 0.23933698 1.2360001
0.47330767 0.23933698 1.2360001
0.48189375 0.23933698 1.2360001
0.49343738 0.23894972 1.2340001
0.50441021 0.23882061 1.2333335
0.5178231 0.2369346 1.2346668
0.52426028 0.2369346 1.2346668
-0.020391941 0.24792306 1.2360001
-0.015383394 0.24792306 1.2360001
0.018186374 0.24926031 1.2320001
0.024605095 0.24926031 1.2320001
0.056325786 0.24505346 1.2323639
0.07488507 0.24284157 1.2320004
0.084409155 0.2443929 1.2341179
0.094547033 0.24903743 1.2326669
0.10483909 0.24819052 1.2320001
0.11518963 0.24832425 1.2340002
0.12445186 0.24926031 1.2320001
0.13432632 0.24872541 1.2336
0.14596337 0.24792306 1.2360001
0.15652692 0.24765447 1.2346668
0.16528204 0.24792306 1.2360001
0.17344351 0.248926 1.233
0.18547139 0.24836883 1.2346668
0.19470116 0.24926031 1.2320001
0.20548704 0.24765447 1.2346668
0.21191965 0.24694012 1.2346668
0.23489045 0.24776259 1.2352002
0.24466334 0.24787849 1.2340001
0.25557095 0.24652331 1.2337779
0.26359475 0.24537885 1.2340001
0.27440029 0.24551605 1.2320001
0.28716478 0.24537885 1.2340001
0.29573697 0.24377245 1.2340001
0.30417603 0.24248499 1.2320002
0.3148739 0.24426797 1.2320001
0.3380526 0.24498115 1.2320001
0.34596181 0.24447449 1.2335001
0.35467249 0.24296661 1.2340001
0.36324295 0.24430558 1.2340001
0.3750245 0.2432358 1.2340001
0.38539124 0.2425203 1.2340001
0.39432061 0.24216256 1.2340002
0.40493032 0.2419928 1.2345002
0.41488823 0.24225956 1.2337145
0.42290872 0.24250208 1.233
0.43037727 0.24148351 1.2360001
0.44611236 0.24236138 1.2350001
0.46535721 0.240702 1.2320001
-0.54024225 0.25995818 1.2320001
-0.52482414 0.25865567 1.2360001
-0.50335896 0.25865567 1.2360001
-0.46321765 0.25995818 1.2320001
-0.40461904 0.25758243 1.2360001
-0.32307559 0.25995818 1.2320001
-0.26402196 0.25865567 1.2360001
-0.25716734 0.25823712 1.2340001
-0.24926031 0.25995818 1.2320001
-0.23397577 0.25597835 1.2334547
-0.12208767 0.25809532 1.2333335
-0.11523376 0.25550574 1.2348237
-0.10577922 0.25694564 1.2346668
-0.095520139 0.25543588 1.2360001
-0.084403485 0.25351414 1.2348573
-0.074975811 0.25491792 1.2335001
-0.065990359 0.25492677 1.234286
-0.054647692 0.25502083 1.2340002
-0.045382574 0.25480139 1.2346668
-0.033952992 0.25408822 1.2346668
-0.023830106 0.25197166 1.2335002
-0.015001327 0.25073475 1.2340001
-0.0062514222 0.25162739 1.2340002
0.0053489334 0.25139987 1.2320002
0.013939644 0.25051305 1.2346668
0.036812704 0.25194404 1.2346668
0.044621915 0.25167197 1.2333335
0.050279975 0.25139987 1.2320001
0.12664469 0.25006959 1.2360001
-0.66410559 0.26685584 1.2342223
-0.65791881 0.26637688 1.2320001
-0.54024225 0.26209775 1.2320001
-0.53598052 0.2633169 1.2348573
-0.52508885 0.26329535 1.2336
-0.51548207 0.26345119 1.2333335
-0.50424695 0.26194954 1.2346668
-0.49262637 0.26223323 1.2360001
-0.48393869 0.26231048 1.233
-0.47611472 0.2632364 1.2340002
-0.46749681 0.26209778 1.2320001
-0.45379102 0.26466453 1.2340001
-0.44432965 0.26670513 1.2360001
-0.4332636 0.26209775 1.2320001
-0.42516264 0.2623814 1.2333335
-0.41454697 0.26159179 1.2346668
-0.40610561 0.26144996 1.2340001
-0.39475131 0.26209775 1.2320002
-0.38589317 0.26166591 1.2333335
-0.37554145 0.26202363 1.2333335
-0.36544237 0.26295221 1.2331431
-0.35584718 0.26286605 1.2336
-0.34982026 0.26209775 1.2320001
-0.33505791 0.26183864 1.2328001
-0.32573962 0.26144996 1.2340001
-0.31502438 0.26252323 1.2340001
-0.30508858 0.26183864 1.2328001
-0.29470342 0.26160058 1.2354287
-0.28265032 0.26177385 1.233
-0.2715348 0.26080218 1.2360001
-0.26938826 0.26080218 1.2360001
-0.2522161 0.26080218 1.2360001
-0.24390303 0.26106128 1.2352002
-0.23894972 0.26144996 1.2340001
-0.10953938 -0.17027409 1.2490001
-0.10411664 -0.16702044 1.2490001
-0.0986939 -0.16810499 1.2490001
-0.11170848 -0.15509042 1.2490001
-0.10953938 -0.15725951 1.2490001
-0.16043328 -0.11090354 1.24
-0.15404233 -0.112262 1.2444445
-0.14597322 -0.11237189 1.2483335
-0.12255397 -0.11387758 1.2490001
-0.1613562 -0.10598132 1.24
-0.15442029 -0.10510957 1.2420455
-0.14498398 -0.10525937 1.2455791
-0.13744763 -0.10323721 1.2485558
-0.13476968 -0.098114431 1.2416668
-0.1254047 -0.098377831 1.245
-0.31126538 -0.081341125 1.2490001
-0.30584264 -0.081341125 1.2490001
-0.31126538 -0.078087479 1.2490001
-0.30548114 -0.078810513 1.2490001
-0.3926065 0.13990673 1.2490001
-0.38935286 0.13990673 1.2490001
-0.40128291 0.14641404 1.2490001
-0.39439943 0.14527163 1.2473752
-0.38538504 0.14349166 1.2424999
-0.37793341 0.14105207 1.24
-0.41104382 0.15617497 1.2490001
-0.4047986 0.15493825 1.2478002
-0.39638636 0.15272203 1.243
-0.41476232 0.16438656 1.2490001
-0.40571889 0.16299039 1.2451251
-0.39946806 0.16151001 1.24
0.094752535 0.20996301 1.24
0.096202649 0.21504799 1.242
0.10070148 0.21656409 1.247
0.65837467 0.21729608 1.245
0.66783953 0.21847703 1.2425001
0.67414886 0.21781014 1.243
0.094906352 0.22657546 1.24
0.67863071 0.2222521 1.2425001
0.68109637 0.22016332 1.2490001
0.038639389 0.233652 1.2476667
0.04475677 0.2348306 1.2451
0.050708495 0.2373611 1.2425001
0.093586795 0.23640679 1.2460001
0.40614447 0.23873648 1.2472857
0.41646656 0.23968519 1.2490001
0.45514473 0.23949328 1.248
0.4640469 0.23942932 1.2476667
0.47533754 0.23851718 1.2461429
0.48382106 0.23812175 1.2465
0.49578059 0.2394933 1.248
0.50615692 0.23953167 1.2482001
0.51500165 0.2378087 1.2460002
0.52291465 0.23612157 1.2416668
0.53411156 0.23870629 1.2476667
-0.34416336 0.24763855 1.2490001
-0.077002935 0.24836157 1.2490001
-0.022702577 0.24972834 1.245
-0.0086486004 0.24972834 1.245
0.029189026 0.24972834 1.245
0.03789667 0.24904495 1.247
0.045373771 0.24824697 1.2484287
0.052595429 0.24549158 1.2454547
0.089368872 0.24226502 1.24
0.094473168 0.24684609 1.2453636
0.10483649 0.24878047 1.2446001
0.11567503 0.24756618 1.245
0.12452863 0.24777658 1.2450908
0.13477023 0.24819975 1.244125
0.14283419 0.24860415 1.243
0.15510519 0.24811481 1.2456001
0.16478962 0.24640328 1.244
0.17530079 0.24801715 1.2436668
0.18533781 0.24727744 1.2455455
0.19510734 0.24813174 1.2439091
0.20465045 0.24691543 1.2432857
0.21618409 0.24771538 1.2436
0.2248584 0.24864379 1.245
0.2355236 0.24593632 1.2447274
0.24470638 0.24553461 1.244
0.25428271 0.24563764 1.2440001
0.26500523 0.24517393 1.2456667
0.27447885 0.24638221 1.2445
0.28210413 0.24657194 1.24
0.29391262 0.2461925 1.2490001
0.31853071 0.2445661 1.2435
0.32516766 0.24453075 1.2452857
0.3352657 0.24441803 1.2455002
0.34533206 0.24330576 1.2441111
0.35406357 0.241861 1.2458571
0.36576009 0.24287646 1.2450001
0.37544167 0.24278539 1.2443846
0.38450149 0.24206355 1.2426666
0.39459237 0.24107973 1.245
0.40409717 0.24030519 1.2410001
0.41573703 0.24131346 1.2425001
0.42524666 0.24169835 1.2434286
0.43499652 0.24181466 1.2446251
0.44475651 0.24275592 1.2462221
0.45216203 0.24065374 1.2428001
0.46837902 0.24011154 1.24
0.47483945 0.24011156 1.24
0.48129982 0.24011154 1.24
0.50498796 0.24011154 1.24
-0.52318835 0.25932133 1.2454001
-0.51624501 0.25920707 1.2490001
-0.47376269 0.25949275 1.24
-0.46407208 0.25949275 1.24
-0.41378939 0.25901964 1.2451429
-0.40497863 0.25872731 1.2415
-0.39946806 0.25949275 1.24
-0.34380183 0.25053066 1.2490001
-0.33078724 0.25920707 1.2490001
-0.32510042 0.2593703 1.2438573
-0.31878906 0.25934991 1.2445
-0.3004199 0.25920707 1.2490001
-0.29609558 0.25934991 1.2445
-0.28632078 0.25920707 1.2490001
-0.27547526 0.25920707 1.2490001
-0.25178933 0.25934991 1.2445
-0.24346054 0.25834861 1.2428
-0.23797631 0.25353405 1.2446001
-0.12309493 0.2548233 1.2435
-0.11249115 0.25480813 1.2416668
-0.10464502 0.25570029 1.2425001
-0.094320253 0.2545298 1.2438333
-0.085119464 0.25237739 1.24475
-0.074939221 0.25217116 1.2456431
-0.064803816 0.25355458 1.2461112
-0.055134829 0.25405264 1.245
-0.04511654 0.25424334 1.2446249
-0.034963157 0.25411806 1.2453334
-0.027473722 0.252875 1.2456001
-0.0010767333 0.25087887 1.24
0.0053836671 0.25087887 1.24
0.014086394 0.25098395 1.2476667
0.024764869 0.25087887 1.24
0.034945786 0.25133932 1.2446667
0.045140527 0.25139681 1.24525
0.050606467 0.25087887 1.24
-0.68001181 0.26571435 1.2490001
-0.67431253 0.26591048 1.2431667
-0.66634291 0.26410237 1.2414286
-0.54219639 0.26081809 1.2463334
-0.5348801 0.26195505 1.2423332
-0.52471507 0.26163757 1.2416667
-0.51536131 0.26213041 1.2454616
-0.50714141 0.26164621 1.24
-0.49330282 0.26259571 1.2445
-0.48276684 0.26201421 1.2438
-0.47382781 0.26227924 1.243
-0.46668836 0.2609576 1.247
-0.45332798 0.26545495 1.24525
-0.44590321 0.26563969 1.2446001
-0.43556926 0.26359615 1.2472001
-0.42389664 0.26240861 1.2453334
-0.4175359 0.26109266 1.2425001
-0.40162155 0.26164621 1.24
-0.39543957 0.2619094 1.2446667
-0.38362524 0.2610589 1.2436249
-0.37469086 0.26137233 1.2445714
-0.36607945 0.26156908 1.2425715
-0.35443851 0.26259574 1.2445
-0.34314919 0.26250884 1.2482001
-0.33517224 0.26137233 1.2445714
-0.32107928 0.26053908 1.245
-0.31460685 0.26115417 1.2422222
-0.30539247 0.26152304 1.2452857
-0.29375827 0.26081586 1.24375
-0.28535083 0.26112413 1.2432222
-0.27705163 0.2618992 1.2463334
-0.25576848 0.26153883 1.2463334
-0.24972834 0.26053908 1.245
-0.12195568 -0.17095573 1.2540001
-0.11760013 -0.17095573 1.2540001
-0.13009457 -0.16726445 1.2590001
-0.12432623 -0.16467623 1.2576845
-0.11546967 -0.1644884 1.2544999
-0.10613474 -0.16288513 1.2539999
-0.095863834 -0.16456202 1.2586429
-0.085818693 -0.16453137 1.2590001
-0.12195569 -0.15680017 1.2540001
-0.11588902 -0.15695572 1.2540002
-0.10562234 -0.15788905 1.2540001
-0.090558052 -0.15711494 1.2565
-0.08728487 -0.15711494 1.2565
-0.12342453 -0.11252943 1.2547145
-0.11741308 -0.11413338 1.2589999
-0.10997789 -0.11215568 1.2540001
-0.14046681 -0.10997789 1.2540001
-0.13465941 -0.10649344 1.2540001
-0.1255254 -0.10554614 1.25525
-0.11685748 -0.10320945 1.25775
-0.10604347 -0.10167055 1.2590001
-0.13175569 -0.099088997 1.2540001
-0.32371947 -0.082839228 1.25525
-0.31643143 -0.082537867 1.2540001
-0.32432264 -0.076124549 1.2575716
-0.31531143 -0.074511185 1.2539999
-0.30528244 -0.074779481 1.2553334
-0.32086352 -0.067233749 1.2590001
-0.31418157 -0.065853722 1.2550714
-0.30706698 -0.067511186 1.2540001
-0.42308065 0.14852333 1.2590001
-0.41460532 0.14838319 1.2565
-0.40724489 0.14700015 1.2540002
-0.4248254 0.15520331 1.2566923
-0.4162671 0.15415573 1.2540001
-0.43367663 0.16558255 1.2589999
-0.42509365 0.16458631 1.2552501
-0.41595602 0.16442239 1.2539999
-0.44385207 0.17382383 1.2590001
-0.43467534 0.17146696 1.25775
0.66796458 0.21973957 1.2590001
0.67384779 0.21897694 1.25775
0.68491185 0.21725075 1.2559999
0.036805466 0.23868893 1.2590001
0.04137782 0.23846692 1.2540001
0.094733432 0.23846692 1.2540001
0.36841908 0.23941775 1.2590001
0.37497848 0.23941775 1.2590001
0.39902958 0.23941775 1.2590001
0.40409088 0.23918003 1.25775
0.4143348 0.23941775 1.2590001
0.43642652 0.23894233 1.2565
0.44494531 0.23941775 1.2590001
0.45514995 0.23903742 1.257
0.462437 0.23941775 1.2590001
0.47611052 0.23816283 1.257
0.48382482 0.23575586 1.256143
0.49454319 0.23853044 1.2581668
0.50455469 0.2386571 1.2550001
0.51549631 0.23754019 1.25775
0.52500391 0.23685443 1.2570001
0.53533733 0.23837197 1.2573334
0.54606926 0.23859784 1.2589999
0.552082 0.23941775 1.2590001
-0.090377875 0.24935582 1.2540001
-0.084933423 0.24935582 1.2540001
-0.075594783 0.24859545 1.2556667
0.036327597 0.24680293 1.2568572
0.04455569 0.24389187 1.2547895
0.051177833 0.24500026 1.2540001
0.096881583 0.24506418 1.2571249
0.10444835 0.24856101 1.2573333
0.11455922 0.24685091 1.2565
0.12610891 0.24677774 1.2556667
0.13515587 0.24742442 1.25525
0.1456044 0.24864049 1.257
0.15438403 0.24821526 1.2565
0.16464069 0.24553986 1.2590001
0.17610399 0.24640234 1.2562222
0.18462853 0.24532443 1.2556667
0.19544572 0.24621272 1.2554287
0.20511943 0.2471242 1.2565001
0.21552816 0.24750656 1.2556667
0.22606133 0.24714217 1.2556667
0.23530692 0.24512285 1.2565
0.24682181 0.24409308 1.25775
0.25480026 0.24500026 1.2540001
0.26405585 0.24500026 1.2540001
0.27585679 0.24605182 1.2556667
0.28471282 0.24637744 1.2573334
0.29517257 0.24652377 1.2590001
0.30501163 0.24553986 1.2590001
0.3158887 0.24528711 1.2573334
0.32550731 0.2432362 1.256143
0.33521968 0.24240699 1.2574999
0.34443334 0.24306452 1.2552501
0.35967323 0.24160421 1.2590001
0.36506557 0.24083661 1.2550001
0.37457818 0.24064469 1.2540001
0.38437819 0.24064469 1.2540001
0.3952671 0.24064469 1.2540001
0.4039782 0.24064469 1.2540001
0.42632478 0.24096453 1.2556667
0.43337822 0.24064469 1.2540001
0.44544229 0.24128437 1.2573334
0.45188937 0.24064469 1.2540001
0.46822271 0.24064469 1.2540001
0.49544495 0.24064469 1.2540001
0.53900057 0.24064469 1.2540001
0.54615611 0.24157804 1.2540002
-0.53021735 0.25690946 1.2590001
-0.5255084 0.25838852 1.2573335
-0.42854685 0.25909591 1.2590001
-0.34499273 0.25722182 1.2590001
-0.33489332 0.25763828 1.2590001
-0.32404727 0.25803483 1.2565
-0.31479692 0.25838852 1.2573335
-0.30466431 0.25817722 1.2575715
-0.294687 0.25804123 1.256
-0.28487501 0.25868434 1.257
-0.27768084 0.25909591 1.2590001
-0.25491735 0.25856146 1.2581667
-0.24510781 0.25538939 1.256143
-0.12790811 0.25690946 1.2590001
-0.1104164 0.25690946 1.2590001
-0.1021273 0.25622636 1.2556667
-0.095734544 0.25366607 1.2567272
-0.08457046 0.2515336 1.2540001
-0.070918962 0.25094181 1.2565
-0.066190302 0.25130627 1.2565001
-0.05553339 0.25371137 1.2540001
-0.044501413 0.25305867 1.2567778
-0.03514649 0.25213277 1.2569999
-0.027261328 0.25186792 1.2556667
-0.0032681176 0.25186795 1.2556667
0.0054470557 0.2517342 1.255
0.015281364 0.25203508 1.2565
0.024023963 0.25228581 1.25775
0.031703718 0.25035006 1.2590001
0.10385701 0.25035006 1.2590001
0.14758629 0.25035006 1.2590001
0.15414567 0.25035006 1.2590001
-0.6830883 0.26675838 1.2573334
-0.67426908 0.26512778 1.2565
-0.5039798 0.26346883 1.2590001
-0.49086103 0.26346883 1.2590001
-0.48758134 0.26346883 1.2590001
-0.47475606 0.2624225 1.2540001
-0.46372753 0.26299244 1.2578888
-0.45493481 0.26370189 1.257
-0.4456118 0.26397172 1.2567776
-0.43445638 0.26285633 1.2575715
-0.42532045 0.26068029 1.2540001
-0.40233156 0.26059061 1.2556667
-0.39495969 0.26185244 1.2565
-0.38481754 0.26128238 1.2590001
-0.37497848 0.26128241 1.2590001
-0.36417267 0.26204249 1.2556667
-0.35533527 0.26268408 1.25525
-0.34670007 0.26193392 1.256143
-0.33736429 0.2609365 1.2573335
-0.3277559 0.26024473 1.2540001
-0.31468922 0.26024473 1.2540001
-0.30597812 0.26024473 1.2540001
-0.2940003 0.26024473 1.2540001
-0.28202251 0.26024473 1.2540001
-0.27374208 0.26109535 1.2559999
-0.26377732 0.26050413 1.25525
-0.25516325 0.26024473 1.2540001
-0.083836839 -0.17349352 1.2680001
-0.074871168 -0.17286436 1.2679999
-0.068485104 -0.17330475 1.268
-0.026425121 -0.17066224 1.268
-0.093877956 -0.16582181 1.2630001
-0.084209636 -0.16586012 1.2641908
-0.075421691 -0.16570753 1.2679999
-0.067163847 -0.16680858 1.268
-0.042059984 -0.16669847 1.268
-0.035894122 -0.16801973 1.268
-0.029728262 -0.16846015 1.268
-0.096510045 -0.15902223 1.263
-0.082578503 -0.15965179 1.268
-0.078174315 -0.15965177 1.268
-0.094690017 -0.12001409 1.268
-0.11296062 -0.11264727 1.263
-0.10476486 -0.11324933 1.2662143
-0.096231475 -0.11450886 1.268
-0.11447912 -0.10654912 1.2630002
-0.10391662 -0.10598764 1.2644707
-0.095575355 -0.10493281 1.2675833
-0.091386877 -0.095791064 1.268
-0.088083737 -0.096892111 1.268
-0.33010823 -0.074575946 1.263
-0.3279148 -0.072382532 1.263
-0.33141506 -0.068264894 1.268
-0.32643658 -0.064434208 1.2663333
-0.32480878 -0.058355477 1.268
-0.43501088 0.14808367 1.2670001
-0.42705694 0.14673914 1.263
-0.44151974 0.15744969 1.268
-0.43510479 0.15462868 1.2648423
-0.45032811 0.16625807 1.268
-0.4447802 0.16599061 1.2660002
-0.43904763 0.16523689 1.263
-0.45032811 0.17286435 1.268
-0.44416556 0.17218271 1.263
0.67487335 0.21755455 1.2646667
0.68349642 0.21702689 1.2655001
0.69202089 0.21605089 1.263
0.335114 0.23785786 1.2670001
0.34132448 0.23892714 1.268
0.40628624 0.23892716 1.268
0.41179147 0.23892714 1.268
0.44482285 0.23892714 1.268
0.45433185 0.23814201 1.2638334
0.46464172 0.23892714 1.268
0.47690997 0.23735647 1.2655001
0.48474362 0.23414652 1.263
0.49513984 0.236505 1.265143
0.50596511 0.23650315 1.2651429
0.51510704 0.23544559 1.2643638
0.52522993 0.23539063 1.26675
0.53572065 0.23712164 1.26425
0.54503763 0.23532285 1.266
0.029728262 0.24993759 1.268
0.034870856 0.24437669 1.2648749
0.098337889 0.24237183 1.263
0.10461254 0.24548629 1.2655001
0.11467014 0.24528919 1.2667501
0.12612109 0.24675862 1.263
0.13542874 0.2477355 1.268
0.14458619 0.24854653 1.2646668
0.15499924 0.24778342 1.2660002
0.16593459 0.24614602 1.2655001
0.1749249 0.24533978 1.2670001
0.18589151 0.24456522 1.263
0.1963378 0.24470572 1.2660002
0.20489687 0.24740988 1.2663335
0.21250202 0.2477355 1.268
0.22394601 0.24700285 1.26425
0.23425874 0.24494095 1.2665716
0.24505365 0.24394827 1.2655001
0.25533387 0.24435958 1.2638334
0.2664533 0.24553341 1.268
0.27605212 0.244351 1.2651429
0.28529775 0.24379404 1.266125
0.29440361 0.24546856 1.2644286
0.30518898 0.24425673 1.26425
0.31403252 0.24403641 1.2651429
0.32499197 0.24202578 1.2655001
0.33475643 0.24036856 1.2640001
0.3456341 0.24139395 1.2636251
0.35568085 0.24261168 1.26425
0.3677496 0.24112923 1.268
0.37616986 0.24017841 1.263
0.3864674 0.24112925 1.268
0.39433536 0.24055874 1.2650001
0.42542955 0.24074891 1.266
0.43319851 0.24017841 1.263
0.44635898 0.24017841 1.263
0.46609965 0.24017841 1.263
0.47110447 0.24049535 1.2646668
-0.52745825 0.25823581 1.2655001
-0.4550325 0.25962582 1.26425
-0.43319848 0.25991911 1.263
-0.40518519 0.25874597 1.268
-0.39669418 0.25933254 1.2655001
-0.38055664 0.25991911 1.263
-0.35198653 0.25848871 1.26675
-0.3437202 0.25806293 1.2646668
-0.33497664 0.25814912 1.2640002
-0.32412952 0.25719613 1.2665715
-0.31560051 0.25690588 1.265143
-0.30598074 0.25772569 1.263
-0.2950449 0.25823581 1.2655001
-0.28494793 0.25854191 1.2670001
-0.27489465 0.25874597 1.268
-0.26428053 0.25944987 1.2650001
-0.25329196 0.2576853 1.2655001
-0.24785534 0.25443557 1.263
-0.12527619 0.25603807 1.2655001
-0.11491697 0.2551156 1.2657777
-0.10613474 0.25669619 1.2648182
-0.062631585 0.2527436 1.2655001
-0.054948136 0.25384033 1.2655001
-0.042940821 0.25213969 1.268
-0.036191266 0.25114545 1.263
-0.026395816 0.25189114 1.2667501
-0.014257166 0.25333887 1.263
-0.0033031402 0.25213969 1.268
0.0055052335 0.25213969 1.268
0.015028825 0.25180829 1.2663335
0.026716884 0.25147688 1.2646668
-0.68487424 0.26611695 1.2646668
-0.67934579 0.26535225 1.268
-0.50251412 0.2650035 1.2663335
-0.49497929 0.26398963 1.26675
-0.48556158 0.26315016 1.268
-0.47510165 0.26259965 1.268
-0.46372128 0.26153028 1.2655001
-0.45233518 0.26164672 1.2650001
-0.44504255 0.26153028 1.2655001
-0.43844929 0.26153028 1.2655001
-0.42830718 0.26094806 1.268
-0.41069043 0.26094806 1.268
-0.40420762 0.26118097 1.2670001
-0.39475477 0.26133621 1.2663333
-0.3864674 0.26094806 1.268
-0.3754569 0.26094806 1.268
-0.36463445 0.26151443 1.26675
-0.35580134 0.26172435 1.2646668
-0.27416062 0.26094806 1.268
-0.26535225 0.26094806 1.268
-0.065166682 -0.18003677 1.2720001
-0.0550051 -0.18047857 1.2720002
-0.044519339 -0.18113163 1.2738752
-0.063988529 -0.1747351 1.2720002
-0.055226002 -0.17451417 1.2720001
-0.045293357 -0.17454909 1.2722501
-0.036869563 -0.17358221 1.2755716
-0.027662929 -0.17264594 1.2745001
-0.07345058 -0.16402122 1.2720001
-0.064614423 -0.16526382 1.2720001
-0.055182472 -0.16598459 1.2726668
-0.047494359 -0.16567801 1.2720003
-0.091675162 -0.12039268 1.2720001
-0.088361606 -0.12039268 1.2720001
-0.072076008 -0.12086593 1.2770001
-0.065318637 -0.12067663 1.2750001
-0.055277016 -0.120511 1.2732501
-0.049898777 -0.12086593 1.2770001
-0.10051132 -0.11376556 1.2720001
-0.092411511 -0.11487009 1.2720002
-0.085095577 -0.11493846 1.2727499
-0.075270988 -0.11512652 1.2748127
-0.065230288 -0.1149845 1.27325
-0.055317994 -0.11506628 1.2741878
-0.048789915 -0.11532161 1.2770001
-0.034374714 -0.11199503 1.2770001
-0.027696576 -0.11243983 1.27575
-0.092116974 -0.10669664 1.2720002
-0.085060716 -0.1049452 1.2721999
-0.075254984 -0.10513041 1.2745003
-0.065217905 -0.10500841 1.2729999
-0.056312602 -0.10614129 1.2752144
-0.041027881 -0.10312414 1.2770001
-0.033820283 -0.10645072 1.2770001
-0.026021887 -0.10767779 1.2751251
-0.082998924 -0.097388074 1.2745001
-0.075402595 -0.098688692 1.2770001
-0.06542284 -0.098688692 1.2770001
-0.041027881 -0.094253242 1.2770001
-0.33246052 -0.062957644 1.2720001
-0.33135599 -0.058539562 1.2720001
-0.32730609 -0.057066869 1.2720001
-0.45285323 0.14800568 1.2720001
-0.4444558 0.1459789 1.2741053
-0.43800038 0.14747861 1.2770001
-0.46239531 0.15856722 1.2770001
-0.45458832 0.1552193 1.2750002
-0.4466995 0.15431723 1.2720002
-0.47320673 0.16771534 1.2770001
-0.46449095 0.16516609 1.2757503
-0.45576018 0.16474253 1.2733334
-0.44788289 0.16070767 1.2720001
-0.47265232 0.1743685 1.2770001
-0.46378598 0.17479132 1.2725883
-0.4562912 0.17434002 1.2729093
-0.47237509 0.18074445 1.2770001
-0.46461305 0.18074445 1.2770001
0.67862332 0.21622804 1.2770001
0.68511856 0.21594438 1.2753334
0.6937778 0.21622805 1.2770002
0.70190948 0.21844575 1.2770001
0.33215982 0.23925565 1.2736667
0.34468639 0.23925565 1.2736669
0.3744323 0.23968086 1.2720001
0.3965227 0.23968084 1.2720001
0.40394652 0.23904306 1.2745001
0.4340764 0.23968086 1.2720001
0.44644403 0.23851931 1.2736669
0.45506227 0.2374718 1.2720001
0.46573231 0.23717903 1.2740002
0.47454691 0.23727237 1.2745003
0.48259518 0.23493953 1.2732501
0.49787891 0.23618755 1.2770001
0.50400227 0.23484077 1.2748574
0.5142417 0.23277253 1.2745003
0.52394551 0.23312826 1.2741431
0.53342283 0.23461631 1.2745001
0.54447001 0.23511377 1.276
0.55221313 0.2317521 1.2770001
-0.0011088616 0.24949388 1.2770001
0.0048050676 0.24949388 1.2770002
0.029880654 0.24789658 1.2745001
0.032031082 0.24741249 1.2720001
0.10272036 0.24299441 1.2720001
0.12481077 0.24630797 1.2720002
0.13552749 0.24780798 1.2748573
0.14587599 0.24774149 1.2751251
0.15485372 0.24674979 1.2720002
0.16383713 0.24630797 1.2720001
0.17630899 0.24505845 1.2770002
0.18445484 0.24409893 1.2720002
0.19439553 0.24409893 1.2720001
0.20542407 0.246639 1.276
0.21543221 0.2478966 1.2745
0.22554025 0.24655002 1.2732501
0.23366158 0.24473861 1.2753334
0.24409895 0.24409895 1.2720001
0.25534472 0.24384728 1.2730001
0.26586956 0.24481857 1.2757502
0.27352849 0.24473861 1.2753334
0.28408134 0.24208008 1.2730001
0.29513523 0.2438473 1.2730001
0.30484751 0.24409893 1.2720001
0.31460524 0.24315527 1.2757502
0.32447389 0.2414149 1.2753334
0.35448951 0.24204858 1.27575
0.36299026 0.2423653 1.2745
0.37146866 0.24062298 1.2770001
0.38255727 0.24062298 1.2770002
0.39586365 0.24062298 1.2770001
0.41804087 0.24062298 1.2770001
0.42580289 0.24117741 1.2770001
0.43134719 0.24062298 1.2770001
0.44021809 0.24062298 1.2770001
-0.5256508 0.25876391 1.2753334
-0.49566117 0.25836477 1.2770001
-0.46038121 0.25896347 1.2745001
-0.45460162 0.257577 1.2731113
-0.44865605 0.25779495 1.2720002
-0.41168684 0.25896347 1.2745001
-0.40467346 0.25760904 1.2742729
-0.39560911 0.25873345 1.274143
-0.38561007 0.25916308 1.2736667
-0.37553683 0.25956219 1.2720001
-0.36356968 0.25792751 1.2748574
-0.35704538 0.25715184 1.2741431
-0.3470737 0.25614706 1.2770001
-0.33409503 0.25637743 1.2734287
-0.32438591 0.25574586 1.275
-0.31487966 0.25654909 1.2753334
-0.30604583 0.25836477 1.2770001
-0.29606608 0.25836477 1.2770001
-0.28452942 0.25796014 1.2750002
-0.27556819 0.25896347 1.2745001
-0.26280022 0.25836477 1.2770001
-0.25293508 0.25624865 1.2720001
-0.12370624 0.25514412 1.2720001
-0.11487008 0.25293508 1.2720001
-0.10566574 0.25330326 1.2720002
-0.061976857 0.25343221 1.2745001
-0.055338886 0.25343221 1.2745
-0.045372151 0.25287777 1.2745001
-0.035416279 0.25121883 1.2745001
-0.023958765 0.25179094 1.2736669
-0.015481732 0.25318363 1.2732501
-0.0055295466 0.25200388 1.2740002
0.0055330205 0.2511203 1.274
0.0154915 0.25232333 1.2745001
0.024322234 0.25207695 1.2732501
-0.69303858 0.26723567 1.2770001
-0.68701148 0.26618934 1.2720001
-0.52231377 0.26254296 1.27575
-0.51352233 0.26527724 1.2740002
-0.50439048 0.26357111 1.274778
-0.49579534 0.26283801 1.2745001
-0.48538309 0.26221099 1.274143
-0.47494364 0.26177126 1.2720001
-0.4683165 0.26177126 1.2720001
-0.44354469 0.26058251 1.2770001
-0.41661522 0.26129577 1.2740002
-0.38255727 0.26058251 1.2770001
-0.37146866 0.26058251 1.2770001
-0.36925095 0.26058251 1.2770001
-0.26834452 0.26058251 1.2770001
-0.033694871 -0.18440929 1.2850001
-0.026312364 -0.18387346 1.2855716
-0.033396095 -0.17699933 1.2819999
-0.026939521 -0.17744462 1.2820001
-0.073471427 -0.16141449 1.2820001
-0.044528134 -0.12133916 1.2820001
-0.035644941 -0.12216162 1.2828335
-0.05009415 -0.11391782 1.2820001
-0.044157077 -0.11453626 1.2819998
-0.035004064 -0.11602052 1.2819998
-0.027830085 -0.11688635 1.2820001
-0.052097924 -0.1039732 1.2819999
-0.044750784 -0.10471535 1.2819999
-0.034806162 -0.10456692 1.2819999
-0.025360653 -0.10284117 1.2838751
-0.018998265 -0.1016966 1.2870001
-0.083815873 -0.094991326 1.2870001
-0.074252367 -0.094803706 1.2845
-0.064629838 -0.094712377 1.28325
-0.054601885 -0.095826454 1.2832499
-0.044482067 -0.095187515 1.2825881
-0.034591258 -0.09503486 1.2851253
-0.026109919 -0.096007273 1.2870001
-0.018998265 -0.099461511 1.2870001
-0.031261954 -0.087084934 1.28575
-0.027157417 -0.087429598 1.2853334
-0.4746266 0.1578346 1.2855
-0.46517894 0.15567568 1.2836666
-0.45975298 0.15325099 1.2820001
-0.48368809 0.16569634 1.2864444
-0.47579214 0.16346347 1.2825555
-0.46865863 0.16141449 1.2820001
-0.48538461 0.17567834 1.2862858
-0.47839919 0.17560783 1.2820001
-0.49060225 0.18886511 1.2870001
-0.48261985 0.18535285 1.2870002
-0.47762632 0.18464951 1.2861669
0.67794085 0.21818787 1.2820001
0.68568295 0.21473816 1.2840002
0.69404387 0.21424825 1.284143
0.70414352 0.21509041 1.285125
0.33773625 0.23742056 1.2836668
0.34620628 0.23933873 1.2820001
0.35246044 0.2386879 1.2845001
0.36767232 0.23803709 1.2870001
0.37737593 0.23933873 1.2820001
0.38145581 0.2386879 1.2845001
0.41299844 0.23933873 1.2820001
0.42718834 0.2386879 1.2845001
0.43647951 0.23868792 1.2845001
0.44451118 0.2390784 1.2830001
0.4586398 0.23711231 1.2820001
0.46581885 0.23525237 1.2840002
0.47514725 0.23422642 1.2845
0.48401245 0.23363405 1.2853334
0.49283737 0.23580199 1.2870001
0.5042811 0.23488592 1.2820001
0.51541317 0.2326595 1.2820001
0.52517134 0.23150341 1.2830001
0.53540194 0.23370412 1.2836668
0.5465433 0.23480533 1.2840002
0.55541992 0.23133183 1.2870001
-0.0022329192 0.24872845 1.2845001
0.0044625821 0.24897051 1.2857502
0.027938627 0.24921255 1.2870001
0.031228306 0.24649769 1.2845001
0.10798073 0.24601795 1.2820001
0.11407267 0.24633777 1.2836668
0.12573572 0.24633853 1.2860001
0.13501196 0.24547611 1.285
0.14447938 0.24547128 1.284143
0.1541943 0.24596527 1.2836668
0.16539666 0.24697745 1.2870001
0.17143331 0.24601795 1.2820001
0.18496868 0.24402924 1.2832501
0.1941549 0.24297243 1.2842222
0.20610414 0.24516758 1.2853335
0.21452364 0.24649625 1.2845001
0.22398843 0.24605335 1.2847778
0.23445977 0.24506128 1.2857502
0.24697745 0.24474236 1.2870001
0.25302279 0.24410848 1.2836668
0.26485819 0.24474238 1.2870001
0.27559945 0.24436203 1.2850001
0.28497398 0.24250728 1.2870001
0.29545391 0.24327783 1.2840002
0.30592617 0.24353468 1.2830001
0.31511065 0.24293539 1.2853334
0.32345635 0.24203619 1.2845001
0.33414596 0.24027218 1.2870001
0.3561506 0.24115418 1.2857502
0.36545774 0.24119984 1.2853333
0.37240562 0.24070317 1.2853335
0.38728306 0.24070317 1.2853334
0.39298806 0.24078937 1.2850002
0.40790394 0.24250728 1.2870001
0.41796184 0.24027218 1.2870001
0.42328343 0.24091865 1.2845001
0.43248993 0.24027219 1.2870001
-0.50446689 0.25811401 1.2831112
-0.49574658 0.2582632 1.2820001
-0.46346366 0.2578921 1.2820001
-0.41491702 0.25876462 1.2845001
-0.40631923 0.25714996 1.2820001
-0.39073437 0.25937638 1.2820001
-0.38467979 0.25856075 1.2853334
-0.37439287 0.2586773 1.2848573
-0.36548996 0.25712132 1.2832501
-0.34576815 0.25765145 1.2845001
-0.33861613 0.2581529 1.2870001
-0.30217239 0.2579506 1.2860001
-0.29514235 0.2579526 1.2847778
-0.28609258 0.25710413 1.2840002
-0.27605698 0.25789663 1.284143
-0.26502892 0.25861171 1.2851251
-0.25507137 0.25529313 1.285
-0.13399608 0.25597066 1.2847779
-0.12480143 0.25517213 1.2832501
-0.096848696 0.25492358 1.2820001
-0.070131809 0.25269717 1.2820001
-0.064687364 0.25318995 1.2845001
-0.054676343 0.25328851 1.2850002
-0.044643916 0.25223669 1.2853335
-0.037996531 0.25144762 1.2870001
-0.012269116 0.25207242 1.2845001
-0.0061356435 0.25151581 1.2845001
0.0033396101 0.25047076 1.2820001
0.015453729 0.25184363 1.284143
0.024164995 0.25170135 1.2845001
-0.70020491 0.26828203 1.2820001
-0.69568604 0.26733103 1.2860001
-0.6861726 0.26932836 1.2870001
-0.52270484 0.26079294 1.2853335
-0.51679069 0.26300114 1.282909
-0.50539428 0.26160279 1.2820001
-0.49537554 0.26160279 1.2820001
-0.48646986 0.2638292 1.2820001
-0.47272155 0.26262307 1.2870001
-0.46754542 0.26160279 1.2820001
-0.44366539 0.26038799 1.2870001
-0.43391082 0.26228204 1.2853333
-0.42500854 0.26241904 1.2860001
-0.41907939 0.26038799 1.2870001
-0.3944934 0.26038799 1.2870001
-0.30732489 0.26038799 1.2870001
-0.27156344 0.26038799 1.2870001
-0.023541385 -0.18496802 1.291
-0.074273765 -0.16092649 1.296
-0.075399123 -0.15867576 1.296
-0.083276644 -0.092279524 1.296
-0.078548349 -0.092011422 1.29225
-0.034751568 -0.090802491 1.291
-0.023221096 -0.094005413 1.291
-0.019057313 -0.097528599 1.291
-0.035872586 -0.088560455 1.291
-0.50078523 0.15642504 1.296
-0.49564847 0.15772146 1.2943333
-0.48700243 0.15710273 1.291
-0.49420539 0.16510883 1.2934999
-0.48786727 0.16299608 1.2910001
-0.5040006 0.17796765 1.2960001
-0.49548888 0.17527288 1.2939167
-0.48876402 0.17599988 1.291
-0.51300347 0.18504135 1.2960001
-0.50534642 0.18475078 1.2949997
-0.49540544 0.18514103 1.2912942
-0.4882035 0.18580879 1.291
-0.51203883 0.19018584 1.296
-0.5097881 0.19131121 1.296
0.70630056 0.20832956 1.291625
0.6829012 0.21789652 1.2934999
0.69839442 0.2141145 1.291
0.7042737 0.21257694 1.2928183
0.55714613 0.22980876 1.291
0.68045813 0.22084062 1.291
0.33648264 0.23970169 1.296
0.34415263 0.23877691 1.291
0.35478279 0.23939344 1.2943333
0.36355835 0.2390081 1.29225
0.37358481 0.23851173 1.2919999
0.38510498 0.23869668 1.293
0.39650187 0.23970169 1.296
0.40400425 0.23970169 1.296
0.41638321 0.23970169 1.296
0.42633376 0.23864464 1.2943333
0.43495637 0.23779812 1.2930001
0.44431633 0.23789296 1.2943333
0.45557088 0.23900811 1.2922499
0.4646621 0.23597437 1.291
0.47755381 0.23205081 1.291
0.4820379 0.23205081 1.291
0.49436909 0.23653488 1.291
0.50318444 0.23699293 1.2934999
0.51203883 0.23520024 1.296
0.53800333 0.23362118 1.2934999
0.54588145 0.2351042 1.293
0.55388397 0.23159976 1.2938572
-0.26319671 0.24883378 1.2920001
-0.25820792 0.24923974 1.2910001
-0.04147768 0.2499871 1.291
-0.010089166 0.2499871 1.291
-0.0067261104 0.2499871 1.291
0.0033746331 0.24838474 1.2943333
0.016089639 0.24955961 1.2926667
0.024906581 0.2492822 1.2919999
0.031510081 0.24645385 1.296
0.10663714 0.24581997 1.2926667
0.12535499 0.24565348 1.29475
0.13452221 0.24326098 1.291
0.14461137 0.24370937 1.291
0.15357952 0.24550302 1.291
0.16767865 0.24645385 1.296
0.17538357 0.24621615 1.29475
0.18615313 0.24363612 1.293
0.1941196 0.24181283 1.29225
0.20343113 0.24388908 1.2943333
0.21547356 0.24469057 1.2941251
0.22295415 0.24429256 1.2934999
0.23264997 0.24538666 1.2943333
0.24491499 0.24491325 1.295
0.25486019 0.24363783 1.2930001
0.26558498 0.24420312 1.296
0.27507153 0.24363783 1.293
0.28436503 0.24326098 1.2910001
0.29618314 0.24273756 1.2930001
0.30466342 0.2426067 1.2935001
0.31479579 0.24171905 1.29475
0.32572487 0.24204619 1.2934999
0.33182144 0.24101895 1.291
0.35984689 0.24101895 1.291
0.36208892 0.24101895 1.291
0.39347744 0.24101895 1.291
0.4035666 0.24101895 1.291
0.41220611 0.24148569 1.2934999
0.42486596 0.24101895 1.291
-0.49810585 0.25820792 1.2910001
-0.47265121 0.25995818 1.296
-0.44001576 0.25770745 1.296
-0.43426546 0.25851211 1.2937777
-0.42415196 0.25920597 1.2922499
-0.41813985 0.25895524 1.291
-0.39086765 0.25833136 1.2934999
-0.38338828 0.25671321 1.291
-0.37554115 0.25671321 1.2910001
-0.33395272 0.25603515 1.2924286
-0.32525218 0.2557154 1.291625
-0.31338912 0.25773913 1.2947501
-0.30663154 0.25563484 1.2935002
-0.29471937 0.25454178 1.2925001
-0.28528631 0.25531286 1.2943332
-0.27349696 0.25533473 1.2934999
-0.26471722 0.25461069 1.2926667
-0.25727373 0.25391066 1.291
-0.13469587 0.25442457 1.2926667
-0.1280414 0.25496393 1.2934999
-0.11703745 0.25545672 1.296
-0.1069092 0.25545672 1.296
-0.097528599 0.25671321 1.291
-0.083276644 0.25545672 1.296
-0.072866194 0.25447118 1.291
-0.065211177 0.25296178 1.29475
-0.055715598 0.25201684 1.2918334
-0.046655767 0.25127375 1.29475
-0.03597787 0.25183642 1.29475
-0.016482126 0.2528775 1.2943333
0.013492381 0.25127375 1.29475
-0.70378304 0.26751906 1.2926667
-0.695252 0.26591343 1.2934999
-0.68769634 0.26602146 1.2926667
-0.51678944 0.26231828 1.291
-0.48577347 0.26364335 1.2919999
-0.47577092 0.26257122 1.29225
-0.46970668 0.26119727 1.291
-0.4517704 0.26119727 1.291
-0.44448873 0.261848 1.2919999
-0.43271309 0.26119727 1.291
-0.42710802 0.26119727 1.2910001
-0.38114625 0.26119727 1.291
-0.50473547 0.15918006 1.3047502
-0.51220959 0.16821644 1.3060001
-0.50457579 0.16517144 1.3028752
-0.52165997 0.17464268 1.3060001
-0.51526839 0.17499565 1.3027503
-0.50582188 0.1737638 1.3013849
-0.52405399 0.18434504 1.3060001
-0.51808113 0.18459326 1.3010001
-0.55001104 0.19845758 1.3060001
-0.54603112 0.19935736 1.3030002
-0.52052593 0.19165333 1.3060001
-0.51627368 0.19091959 1.3010001
-0.5442543 0.20191841 1.3020002
0.70515871 0.20826237 1.3035002
0.68496221 0.21887037 1.3060001
0.69928533 0.21351363 1.3010001
0.70244062 0.21152487 1.3026669
0.55593944 0.22861049 1.3024287
0.5625385 0.22863609 1.3035002
0.68346953 0.22029184 1.3010001
0.035155345 0.23928314 1.3060001
0.30505767 0.23928314 1.3060001
0.31479675 0.23864631 1.3050002
0.32433641 0.23928314 1.3060001
0.36601532 0.23824254 1.3038573
0.37567672 0.23752207 1.3041251
0.38408136 0.23769109 1.3035002
0.39427048 0.23905413 1.3047502
0.40560287 0.23850425 1.3052859
0.41570908 0.23831809 1.3053751
0.42493397 0.2379164 1.3026669
0.43463907 0.23656136 1.3035002
0.44341096 0.23701507 1.3060001
0.45500916 0.23844711 1.3035002
0.46519744 0.23712622 1.3035002
0.47538212 0.23429762 1.3035002
0.48537055 0.23247889 1.3060001
0.49819845 0.23610766 1.3010001
0.50529599 0.23678821 1.3047501
0.51306605 0.23595658 1.3043336
0.54590988 0.23369138 1.3043336
0.550978 0.23212114 1.3040003
-0.042928666 0.24966408 1.3010001
-0.019278737 0.24835549 1.3060001
-0.0045188069 0.24966408 1.3010001
0.017744971 0.24803567 1.3043336
0.024899751 0.24674603 1.3035001
0.031931397 0.24389608 1.3040001
0.11567242 0.24835549 1.3060001
0.1256422 0.24674605 1.3035002
0.13608521 0.24381933 1.3060001
0.14365882 0.24319702 1.3026669
0.15506871 0.24674822 1.3035002
0.16541295 0.24698375 1.3047502
0.17571372 0.24490103 1.303143
0.1832069 0.24434972 1.3040003
0.19995721 0.24288587 1.3010001
0.2061325 0.24350673 1.3043336
0.21546824 0.24381933 1.3060001
0.22549836 0.24408452 1.3050002
0.23511325 0.24461491 1.3030002
0.24583733 0.24357216 1.3026669
0.25563967 0.24244098 1.3026669
0.26588628 0.24325924 1.3030002
0.27608588 0.24261895 1.3020002
0.28372055 0.24259655 1.3035002
0.2944034 0.24235201 1.3030002
0.30503219 0.2413113 1.3026669
0.3143599 0.24085766 1.3022501
0.32371339 0.241842 1.3035002
0.33308855 0.24132004 1.3047502
0.35133722 0.24062647 1.3010001
0.39652529 0.24062647 1.3010001
0.40556291 0.24062647 1.3010001
0.41121143 0.24062647 1.3010001
0.45301038 0.24062647 1.3010001
-0.69290048 0.25969592 1.3060001
-0.47629821 0.25969592 1.3060001
-0.43351153 0.25806475 1.3035002
-0.42400944 0.25847977 1.3031431
-0.41652691 0.25919878 1.3035002
-0.39351302 0.25856188 1.3060001
-0.38409856 0.25644228 1.3010001
-0.3531411 0.25878868 1.3060001
-0.34376255 0.25838539 1.3022501
-0.32313347 0.25676793 1.3026669
-0.31622529 0.25486517 1.3032223
-0.28370723 0.25272888 1.3051668
-0.27448684 0.25262132 1.3026669
-0.2699987 0.25418288 1.3010001
-0.14288947 0.2562938 1.3060001
-0.13746099 0.25340816 1.3040003
-0.12478841 0.25551859 1.3035001
-0.11409033 0.25552621 1.3045716
-0.10390589 0.2551215 1.3035001
-0.09504728 0.25458702 1.3030837
-0.086344376 0.25450656 1.3026668
-0.074197106 0.25362951 1.3031431
-0.064246997 0.251643 1.3045716
-0.05432988 0.25127351 1.3035001
-0.047629818 0.25062358 1.3060001
-0.033744134 0.25250265 1.3040003
-0.02535351 0.25466868 1.3035002
-0.015694754 0.25099498 1.3045717
0.011340434 0.25062358 1.3060001
-0.71164697 0.26691324 1.3043334
-0.70515221 0.26523256 1.3035002
-0.69430435 0.26347232 1.3022501
-0.51853305 0.26096109 1.3010001
-0.50011313 0.26196402 1.3060001
-0.49444291 0.2642321 1.3060001
-0.48432109 0.26357618 1.3050002
-0.47970036 0.26196402 1.3060001
-0.4524833 0.26196402 1.3060001
-0.44623217 0.26096112 1.3010001
