# .PCD v0.7 - Point Cloud Data file format
VERSION 0.7
FIELDS x y z
SIZE 4 4 4
TYPE F F F
COUNT 1 1 1
WIDTH 1554
HEIGHT 1
VIEWPOINT 0 0 0 1 0 0 0
POINTS 1554
DATA ascii
0.48692924 0.23025337 1.4490001
0.49196208 0.23025335 1.4490001
-0.78260976 0.24786836 1.4490001
-0.18495762 0.24786836 1.4490001
-0.17440562 0.24550824 1.4450002
-0.16562852 0.24362612 1.4450002
-0.15648007 0.24530925 1.4460002
-0.14634632 0.24674927 1.4454001
-0.13156553 0.24433598 1.4430001
-0.12527186 0.24354929 1.4447144
-0.11714555 0.24465381 1.4467502
-0.10679719 0.24584863 1.4470003
-0.093012825 0.24383974 1.4475002
-0.086335778 0.2443438 1.4480002
-0.075492904 0.24535193 1.4490001
-0.064774074 0.24383807 1.4464287
-0.054449715 0.24333566 1.4470003
-0.046039905 0.24358575 1.4460001
-0.035364963 0.24403588 1.4441999
-0.024565523 0.24369293 1.4455717
-0.015054294 0.24333437 1.4445
-0.0055549769 0.24354929 1.4447144
0.0045943521 0.24350064 1.4430002
0.011323935 0.24031907 1.4490001
0.10901144 0.24182998 1.4430001
0.11426573 0.24107453 1.4460001
0.12204686 0.24031907 1.4490001
-0.78327501 0.25545034 1.4479094
-0.77513433 0.25528097 1.447154
-0.76591957 0.25614184 1.4460001
-0.75493515 0.25554791 1.4450001
-0.73485577 0.25722206 1.4450001
-0.72850651 0.25793409 1.4490001
-0.78475893 0.26116428 1.4460001
-0.73102295 0.26045051 1.4490001
-0.72850651 0.26045051 1.4490001
0.56854129 0.20846513 1.455
0.62034172 0.20846513 1.455
0.76942587 0.20846513 1.455
0.77321613 0.20846513 1.455
0.78585041 0.20846513 1.455
0.79671586 0.20391679 1.455
0.50663346 0.21688795 1.4550002
0.51547742 0.2122554 1.455
0.52516365 0.21351883 1.4550002
0.5369556 0.21267655 1.4550002
0.54327273 0.21099198 1.455
0.55843389 0.21099198 1.455
0.56348753 0.2122554 1.455
0.57359493 0.21099198 1.455
0.58370233 0.21099198 1.455
0.59507316 0.21099198 1.455
0.60139036 0.21099198 1.455
0.61528802 0.21099198 1.455
0.62034172 0.21099198 1.455
0.75805503 0.21351883 1.455
0.76310873 0.21099198 1.455
0.4030326 0.22867993 1.455
0.45483303 0.22867993 1.455
0.48894548 0.22867993 1.455
0.49602064 0.22665845 1.455
0.50157976 0.22109938 1.455
-0.16298182 0.23752391 1.455
-0.15792812 0.23878734 1.455
0.011370826 0.23878734 1.455
0.12507908 0.23752391 1.455
0.13392305 0.23626049 1.455
0.14403045 0.23626049 1.455
0.15287443 0.23626049 1.455
0.16045497 0.23878734 1.455
0.17561609 0.2362605 1.4550002
0.18403892 0.2362605 1.4550002
0.20214801 0.23626049 1.455
0.21857253 0.23373364 1.455
0.23626049 0.23626049 1.455
0.24510446 0.23752391 1.455
0.25142157 0.23878734 1.455
0.26405585 0.23752391 1.455
0.27669013 0.2362605 1.4550002
0.28427064 0.23626049 1.455
0.29185119 0.23373364 1.455
0.30953914 0.23626049 1.455
0.31459284 0.2362605 1.4550002
0.32596368 0.23373364 1.455
0.33859789 0.23373364 1.455
0.34617847 0.23626049 1.455
0.35502243 0.23878734 1.4550002
0.36386639 0.23499706 1.455
0.37355265 0.23204908 1.4550002
0.38450235 0.23120677 1.4550002
0.39545202 0.23120677 1.455
0.4080863 0.23120677 1.455
0.41440341 0.23120677 1.455
0.4232474 0.23183849 1.455
0.43335479 0.23373364 1.455
0.45104274 0.23120677 1.455
-0.19204061 0.24889474 1.455
-0.18066978 0.24636789 1.455
-0.17435266 0.24384104 1.455
-0.15413785 0.24257761 1.455
-0.1444516 0.2463679 1.4550002
-0.13771333 0.24636789 1.455
-0.11244483 0.24636789 1.455
-0.1061277 0.24636789 1.455
-0.097283728 0.24434641 1.455
-0.085912906 0.24257761 1.455
-0.07833235 0.24384104 1.455
-0.041693028 0.24384104 1.455
-0.03495476 0.24384104 1.4550002
-0.025268501 0.24194589 1.455
-0.015161101 0.24131419 1.455
-0.0046325587 0.24215648 1.4550002
0.0050536999 0.24320932 1.455
0.11497167 0.24131419 1.455
0.35754928 0.24131419 1.455
-0.79216748 0.25773871 1.455
-0.78585041 0.25394842 1.455
-0.77447957 0.25268501 1.455
-0.76639366 0.25344309 1.455
-0.74163049 0.25647527 1.455
-0.73404998 0.25900212 1.455
-0.72899622 0.25900212 1.455
0.57323027 0.20763674 1.4670001
0.59752709 0.20932478 1.4610001
0.60133302 0.20932478 1.4610001
0.61655664 0.20932478 1.4610001
0.62205756 0.20791635 1.4630002
0.76752418 0.20932478 1.4610001
0.77006149 0.20932478 1.4610001
0.78562891 0.20848076 1.4640001
0.79392546 0.20642504 1.4635717
0.80087864 0.20212716 1.4640001
0.50380665 0.21731545 1.4635717
0.51358354 0.21356572 1.4640001
0.52883327 0.21229708 1.4640001
0.53536403 0.21186206 1.4610001
0.55425805 0.21229708 1.4640001
0.56697565 0.21102324 1.4640001
0.57705182 0.21018443 1.4670001
0.5853709 0.21124077 1.4655001
0.59326017 0.21215209 1.4630002
0.60765016 0.21102324 1.4640001
0.61336946 0.21166018 1.4640001
0.76558089 0.21188289 1.4670002
0.78341472 0.21018443 1.4670001
0.79105777 0.21018443 1.4670001
0.011417715 0.22962295 1.4610001
0.3750158 0.22882061 1.4640001
0.3983514 0.22962295 1.4610001
0.40553403 0.22815374 1.4617501
0.41625556 0.22866517 1.4630002
0.42499277 0.22962295 1.4610002
0.43006727 0.22962295 1.4610001
0.45620844 0.22841944 1.4655001
0.46432042 0.22708566 1.4610001
0.47769189 0.22801827 1.4670001
0.48400468 0.22908805 1.4630002
0.4952735 0.2244968 1.4640001
0.50147033 0.22207366 1.4670002
-0.16144748 0.23899052 1.4640001
-0.15668294 0.23820902 1.4670001
-0.14903986 0.23820902 1.4670001
-0.0038059051 0.23977202 1.4610001
0.0068714693 0.23801208 1.4658002
0.013230051 0.23433502 1.4610002
0.11798306 0.23977202 1.4610001
0.12498843 0.2369951 1.4658002
0.13475144 0.23517939 1.4640001
0.14461242 0.23457555 1.4634001
0.1556201 0.23618582 1.4650002
0.16599756 0.23671028 1.4630002
0.17445321 0.2353977 1.4622
0.1847638 0.23508094 1.4634001
0.19543283 0.23660539 1.4634001
0.20508905 0.23566133 1.4670001
0.21566796 0.23469748 1.4610001
0.22581704 0.23469748 1.4610001
0.2378808 0.23618582 1.4650002
0.24661796 0.23644805 1.4640001
0.25486615 0.23633565 1.4644288
0.2637836 0.23644805 1.4640001
0.27402517 0.23469748 1.4610001
0.2844393 0.23358709 1.4640002
0.29410338 0.23342849 1.4644288
0.30320376 0.23469749 1.4610002
0.31846127 0.23566133 1.4670001
0.32436594 0.23332378 1.4630002
0.33443043 0.23184136 1.4622
0.34577465 0.23390555 1.4640001
0.35529712 0.23656042 1.4635717
0.36458728 0.23379391 1.4644288
0.3750158 0.23136309 1.4640001
0.38366961 0.23096453 1.4655001
0.39361811 0.23056595 1.4670002
0.41654733 0.23056595 1.4670001
0.43476671 0.23263693 1.4640001
0.45036542 0.23469748 1.4610001
0.48788264 0.23056595 1.4670001
-0.19362444 0.24839978 1.4670001
-0.18674117 0.24772249 1.4630002
-0.1757578 0.24341384 1.4646001
-0.16814753 0.24075671 1.4670001
-0.15297429 0.24195588 1.4640001
-0.14534694 0.24386518 1.4648185
-0.13411452 0.24407548 1.4640001
-0.12813213 0.24484657 1.4610001
-0.11163989 0.24484657 1.4610001
-0.10423908 0.24407548 1.4640001
-0.094981782 0.24127424 1.4650002
-0.084190995 0.24137774 1.4646001
-0.074962132 0.24299833 1.4632502
-0.066059336 0.24221465 1.4630002
-0.05581994 0.24230929 1.4610001
-0.04576464 0.24280684 1.4640001
-0.035594724 0.24153301 1.4640001
-0.026217243 0.24106722 1.4658002
-0.015286141 0.24075671 1.4670001
-0.004834359 0.24137774 1.4646001
0.0038137201 0.24153301 1.4640001
0.10827683 0.2433044 1.4670001
0.11321764 0.24212347 1.4650002
-0.79543418 0.25499564 1.4610001
-0.77513599 0.25372702 1.4610001
-0.75687885 0.25779733 1.4625001
-0.74638033 0.25753292 1.4610002
-0.73655987 0.25779733 1.4625001
-0.73246092 0.26113823 1.4670001
-0.72863936 0.26113823 1.4670001
0.57514846 0.20763329 1.473
0.62289989 0.20763329 1.473
0.77638644 0.20848599 1.473
0.78491342 0.20848599 1.473
0.79429317 0.20592788 1.473
0.8019675 0.20336975 1.473
0.48987809 0.21871841 1.473
0.49499431 0.2168912 1.4730002
0.50266862 0.21552077 1.473
0.51290107 0.21530759 1.473
0.52824974 0.21360219 1.473
0.53848219 0.21104409 1.473
0.56790042 0.21104409 1.473
0.58452815 0.2110441 1.473
0.59987682 0.21104409 1.473
0.61650455 0.21104409 1.473
0.76615399 0.21232313 1.473
0.28522927 0.22895086 1.473
0.29034549 0.22895086 1.473
0.42592531 0.22895086 1.473
0.48732001 0.2268191 1.473
0.49426344 0.22420008 1.4730002
-0.15476567 0.23918329 1.473
-0.14837039 0.23790424 1.473
-0.10360346 0.23918329 1.473
-0.095929131 0.23918329 1.473
-0.084843986 0.23918329 1.473
-0.074185193 0.23918329 1.473
-0.031976376 0.23918329 1.473
-0.025581101 0.23918329 1.473
-0.014922309 0.23918329 1.473
-0.0046898685 0.23833059 1.473
0.0038371652 0.23726471 1.473
0.11767306 0.23918329 1.473
0.13430078 0.23406707 1.473
0.15732376 0.23406707 1.473
0.16371904 0.23662518 1.473
0.17267244 0.23406707 1.473
0.18461029 0.23491977 1.473
0.19825353 0.23662518 1.473
0.20422247 0.23662518 1.473
0.21232313 0.23662518 1.473
0.23406707 0.23662518 1.473
0.2417414 0.23662518 1.473
0.25453195 0.23406707 1.473
0.2656171 0.23747788 1.473
0.27627587 0.23406707 1.473
0.28395021 0.23406707 1.473
0.2929036 0.23150896 1.473
0.30569416 0.23406707 1.473
0.31409937 0.23516341 1.4730002
0.32487997 0.23214848 1.473
0.3355388 0.23150896 1.473
0.34534487 0.23150896 1.473
0.35557729 0.23406707 1.473
0.36197257 0.23406707 1.473
0.37220502 0.23150896 1.473
0.39011177 0.23150896 1.473
0.44447166 0.23598565 1.473
0.45321187 0.23406707 1.473
-0.19313733 0.24685763 1.473
-0.18473209 0.24539585 1.4730002
-0.17778865 0.2417414 1.473
-0.14325416 0.2417414 1.473
-0.13941699 0.24685763 1.473
-0.11255684 0.24429952 1.473
-0.10488251 0.24238093 1.473
-0.083138578 0.2417414 1.473
-0.072906137 0.2417414 1.473
-0.062673695 0.2417414 1.473
-0.054999366 0.2417414 1.473
-0.046045981 0.2417414 1.473
0.11255684 0.2417414 1.473
-0.76103777 0.25709006 1.473
-0.75272393 0.25645053 1.473
-0.74441004 0.25581101 1.473
-0.73545665 0.25879547 1.473
-0.72266608 0.25818643 1.4730002
-0.71669716 0.25794277 1.473
-0.72394514 0.26220629 1.473
0.50710493 0.20774528 1.4860001
0.56931406 0.20947674 1.48
0.57641214 0.207242 1.4824001
0.58696431 0.20642275 1.4832728
0.59285325 0.20688947 1.4836
0.61362994 0.20904386 1.4815
0.62413204 0.20804283 1.4820001
0.63097793 0.2051646 1.4860001
0.76979488 0.20947674 1.48
0.77475798 0.20843787 1.4836
0.78432965 0.20703557 1.4840001
0.79393333 0.20616145 1.4825715
0.80192322 0.20433621 1.48
0.81311083 0.20231126 1.4840001
0.48933798 0.21891293 1.483
0.49479911 0.21399716 1.4821818
0.50479084 0.2111865 1.4830002
0.51276821 0.21376052 1.48
0.52538943 0.21376196 1.483
0.53590059 0.21204703 1.48
0.5434823 0.21147333 1.4820001
0.56904143 0.21290666 1.4860001
0.59758699 0.21204701 1.48
0.60435998 0.21089965 1.4840001
0.62065518 0.21032597 1.4860001
0.76748949 0.21247423 1.483
0.77033502 0.21161631 1.4860001
0.32387617 0.22774562 1.4860001
0.34968305 0.22839078 1.4860001
0.35226375 0.22839078 1.4860001
0.45377073 0.22839078 1.4860001
0.46065259 0.22839078 1.4860001
0.48626667 0.22492549 1.4832728
0.49220607 0.22618347 1.48
-0.15421601 0.23774968 1.48
-0.14422411 0.2382316 1.483
-0.13548605 0.23871353 1.4860001
-0.1053077 0.23769264 1.485
-0.098840311 0.23561671 1.4860001
-0.085592777 0.23871353 1.4860001
-0.076130256 0.23871353 1.4860001
-0.040000644 0.23871352 1.4860001
-0.034194101 0.23806834 1.4860001
-0.025754767 0.23694126 1.483
-0.014700537 0.23800461 1.4848001
-0.0055784634 0.23651288 1.4830002
0.0056972597 0.23434728 1.4817144
0.10967918 0.23871352 1.4860001
0.11619724 0.23781185 1.4836
0.12370624 0.23667179 1.4840001
0.13032468 0.23613283 1.4860001
0.14522007 0.23517941 1.48
0.15314101 0.23549722 1.4820001
0.16258326 0.23613283 1.4860001
0.17520653 0.23517941 1.48
0.18968047 0.23613283 1.4860001
0.19573103 0.23565611 1.483
0.2051646 0.23613283 1.4860001
0.21032597 0.23613283 1.4860001
0.22550619 0.23581502 1.4840001
0.23460674 0.23589447 1.4845001
0.24526016 0.23581502 1.4840001
0.25564429 0.2345285 1.4824001
0.2654089 0.23448494 1.4837501
0.27388519 0.23420306 1.4836
0.28475463 0.2322837 1.4812001
0.2976647 0.23151736 1.4840001
0.3051914 0.23243417 1.483
0.31549332 0.2317903 1.483
0.32412177 0.23092596 1.4824001
0.33447725 0.23027201 1.4815
0.34545904 0.23073833 1.4845001
0.3554132 0.2317903 1.4830002
0.36442733 0.2317903 1.483
0.37397382 0.231324 1.48
0.38734788 0.23034975 1.4820001
0.39484507 0.23097147 1.4860001
0.40258712 0.23097147 1.4860001
0.4279494 0.23003887 1.48
0.4365381 0.2317903 1.483
0.44563422 0.23504464 1.4824001
0.45275015 0.23245361 1.4826666
-0.20293646 0.24728675 1.4848001
-0.19791055 0.24674562 1.48
-0.18355595 0.24225183 1.4824001
-0.1777105 0.24209221 1.483
-0.14173529 0.24205697 1.4812001
-0.13403399 0.24246761 1.4826666
-0.12533727 0.24423932 1.4830002
-0.11501051 0.24271408 1.4834287
-0.10666607 0.24096251 1.48
-0.093814731 0.24031994 1.48
-0.083533667 0.24031994 1.48
-0.064389519 0.24144965 1.483
-0.055484764 0.24129421 1.4860001
-0.04571341 0.24209222 1.483
-0.03726887 0.24031994 1.48
-0.016706733 0.24031994 1.48
0.1069102 0.24271557 1.4834287
0.11309174 0.24031994 1.48
-0.77420604 0.25935903 1.4860001
-0.76619911 0.25883543 1.483
-0.74194741 0.25935903 1.4860001
-0.73678607 0.25935906 1.4860001
-0.72572529 0.25667033 1.4824001
-0.71614057 0.25419766 1.4860001
-0.20305108 0.25060099 1.48
-0.19919567 0.25060099 1.48
-0.73381114 0.26088208 1.48
0.80310678 0.19914965 1.4990001
0.50475436 0.20891032 1.4943335
0.54538369 0.2095627 1.4990001
0.57572532 0.20836875 1.4966668
0.58313102 0.20695944 1.4990001
0.60092002 0.20869496 1.4990001
0.61470938 0.20836876 1.4966668
0.62408811 0.20765574 1.4960001
0.63093448 0.20599298 1.4920001
0.77489442 0.20793667 1.4948001
0.78531945 0.20429441 1.4943335
0.79462087 0.20326054 1.4948002
0.8051213 0.20257741 1.4955001
0.81398499 0.20230258 1.4966668
0.82263124 0.20175292 1.4990001
0.48661229 0.21924965 1.4976001
0.49343991 0.21433942 1.4960001
0.50137913 0.2111752 1.4920001
0.51563025 0.21247077 1.4920001
0.52203119 0.21296614 1.4955001
0.53501713 0.21426776 1.4955001
0.54410112 0.21167058 1.4955001
0.55514264 0.21336624 1.4937501
0.56488472 0.21296614 1.4955001
0.57137764 0.21167058 1.4955001
0.6051411 0.21167058 1.4955001
0.61567181 0.21216597 1.4990001
0.31593093 0.22870198 1.4948001
0.32136583 0.22794011 1.4943335
0.33554831 0.22931294 1.4920001
0.34720832 0.22931294 1.4920001
0.35466903 0.22794013 1.4943335
0.36405051 0.22931294 1.4920001
0.42105484 0.22931294 1.4920001
0.43401039 0.22931294 1.4920001
0.44766292 0.22837196 1.4943335
0.45592344 0.22763555 1.4937501
0.46481889 0.22829467 1.4966668
0.48437139 0.2246553 1.4955002
-0.18785524 0.23967737 1.4920001
-0.15244345 0.23622257 1.4920001
-0.14587931 0.23656805 1.4920001
-0.13473755 0.23773403 1.4920001
-0.12696423 0.23967737 1.4920001
-0.11154979 0.23736435 1.4937501
-0.10234872 0.23449516 1.4920001
-0.094575398 0.23751812 1.4920001
-0.08617986 0.23703045 1.4940001
-0.075318366 0.23829022 1.4955001
-0.044618443 0.23869155 1.4966668
-0.035030596 0.2365893 1.4943335
-0.02331996 0.23449516 1.4920001
-0.016873803 0.23648989 1.4948001
-0.0073414696 0.23363146 1.4920001
0.10648459 0.238938 1.4955001
0.11427918 0.23634082 1.4955001
0.12481532 0.2353203 1.4972501
0.13472714 0.23696008 1.4966668
0.14512804 0.23609233 1.4966668
0.1561958 0.23559535 1.4990001
0.16499117 0.2361917 1.4962001
0.17517731 0.2348619 1.4943335
0.18743497 0.23559535 1.4990001
0.19567864 0.23559535 1.4990001
0.20565781 0.23559535 1.4990001
0.21540694 0.23671238 1.4962001
0.22483581 0.23609233 1.4966668
0.2342937 0.23559535 1.4990001
0.24473734 0.23589353 1.4976001
0.25423086 0.23411939 1.4937501
0.26553285 0.23299207 1.4990001
0.27562225 0.23272006 1.4972501
0.28372619 0.23190407 1.4920001
0.30445504 0.23190406 1.4920001
0.31108996 0.23038881 1.4990001
0.33712262 0.23038881 1.4990001
0.34363079 0.23038881 1.4990001
0.37355563 0.23129797 1.4948001
0.38698363 0.23114643 1.4955001
0.39179114 0.23038881 1.4990001
0.40480745 0.23169044 1.4990001
0.41782379 0.23038881 1.4990001
0.42476583 0.23038881 1.4990001
0.4355315 0.23076762 1.4972501
0.44533548 0.23184128 1.4940001
0.46728578 0.23038881 1.4990001
0.4750956 0.23038881 1.4990001
0.4803021 0.23038881 1.4990001
-0.18613334 0.24080187 1.4990001
-0.17230859 0.24226849 1.4920001
-0.16971749 0.24226849 1.4920001
-0.12369987 0.24177961 1.4943335
-0.11714685 0.24080187 1.4990001
-0.06089101 0.24226849 1.4920001
-0.053674147 0.24153519 1.4955001
-0.04545074 0.24153519 1.4955001
0.1028289 0.24080187 1.4990001
-0.77186757 0.25902471 1.4990001
-0.76600587 0.25735056 1.4943335
-0.75104147 0.25902471 1.4990001
-0.74351901 0.25665373 1.4978335
-0.73470092 0.25601825 1.4966668
-0.72417778 0.25408721 1.4955001
0.79639542 0.19746421 1.506
0.80424166 0.19746421 1.506
0.50869918 0.2079259 1.506
0.54793048 0.2079259 1.506
0.57931554 0.2079259 1.506
0.62639308 0.20531048 1.506
0.63423938 0.2079259 1.506
0.7780875 0.2079259 1.506
0.78462601 0.20465663 1.506
0.79508775 0.20007963 1.506
0.80511349 0.20007965 1.506
0.81644696 0.20182326 1.506
0.48646814 0.21707986 1.506
0.49235284 0.21381059 1.506
0.51785314 0.21054132 1.506
0.52569944 0.21315673 1.506
0.53485346 0.21446444 1.506
0.54269969 0.21054132 1.506
0.55577677 0.21141313 1.506
0.56362307 0.21141313 1.506
0.57277703 0.21054132 1.506
0.60808516 0.21054132 1.506
0.61505967 0.21054134 1.506
0.77372849 0.21228492 1.506
0.31515813 0.22884926 1.506
0.34654316 0.22884926 1.506
0.40539011 0.22884926 1.506
0.41846722 0.22884926 1.506
0.42500576 0.22884926 1.506
0.43415976 0.22884926 1.506
0.44331369 0.22884926 1.506
0.4563908 0.22623384 1.506
0.46946791 0.22884926 1.506
0.47600648 0.22884926 1.506
0.48254502 0.22754155 1.506
-0.13207871 0.23931094 1.506
-0.12684788 0.23931094 1.506
-0.1176939 0.23931094 1.506
-0.094155125 0.23669551 1.506
-0.085001156 0.23669551 1.506
-0.071924053 0.23931094 1.506
-0.035308171 0.23669551 1.506
-0.01438481 0.23582372 1.506
-0.0047949371 0.23582372 1.506
0.0013077101 0.23669551 1.506
0.10592452 0.23800322 1.506
0.11429385 0.23460317 1.506
0.12161703 0.23408009 1.506
0.13730955 0.23669551 1.506
0.14515582 0.23582372 1.506
0.15404825 0.23460317 1.506
0.16520737 0.2349519 1.506
0.17131002 0.23669551 1.506
0.18307941 0.23669551 1.506
0.19484879 0.23669551 1.506
0.20400277 0.23408009 1.506
0.21577215 0.2349519 1.506
0.22492611 0.2353878 1.506
0.2353878 0.23408009 1.506
0.24584949 0.23408009 1.506
0.25500345 0.23408011 1.506
0.27592683 0.23146468 1.506
0.28508079 0.23146468 1.506
0.29292703 0.23146468 1.506
0.30992728 0.23146468 1.506
0.3779282 0.23146468 1.506
0.38446677 0.23146468 1.506
0.39754385 0.23146468 1.506
0.40408239 0.23146468 1.506
0.41454408 0.23146468 1.506
-0.065385506 0.24192636 1.506
-0.058846951 0.24192636 1.506
0.10069367 0.24192636 1.506
-0.77285665 0.2567471 1.506
-0.76762581 0.25761887 1.506
-0.75847185 0.25761887 1.506
-0.74461013 0.25500345 1.506
-0.73571771 0.25291112 1.506
-0.72447133 0.25369573 1.506
-0.78331828 0.2602343 1.506
-0.7780875 0.2602343 1.506
0.79519194 0.19825093 1.5120001
0.80744582 0.19825092 1.5120001
0.81589776 0.19870985 1.5155001
0.82569301 0.19916876 1.5190001
0.83360696 0.19916876 1.5190001
0.50810003 0.20875429 1.5120001
0.54738432 0.20972075 1.5190001
0.55269372 0.20923752 1.5155001
0.56453133 0.20972075 1.5190001
0.57480121 0.20914088 1.5148001
0.60788196 0.20875429 1.5120001
0.61313367 0.20875429 1.5120001
0.62453318 0.20667204 1.5160002
0.63432151 0.20564584 1.5162001
0.64235222 0.20708275 1.5190001
0.77800846 0.20819712 1.5143335
0.78359449 0.20676467 1.5166668
0.79149628 0.2023761 1.5166668
0.81794918 0.20087677 1.5120001
0.82451379 0.20087677 1.5120001
0.83107841 0.20087677 1.5120001
0.41245747 0.21784139 1.5143335
0.4862439 0.21548602 1.5155001
0.49726236 0.21235876 1.5190001
0.50440043 0.21203254 1.5166668
0.52728939 0.21258162 1.5143335
0.53776234 0.21554177 1.5166668
0.54414463 0.21252589 1.5155001
0.55529833 0.21235874 1.5190001
0.56192976 0.21138012 1.5120001
0.5711202 0.21138012 1.5120001
0.11422405 0.229761 1.5120001
0.23818862 0.22897387 1.5155001
0.24351326 0.22906099 1.5131668
0.27833903 0.229761 1.5120001
0.31378788 0.229761 1.5120001
0.35489416 0.22739805 1.5137501
0.36499178 0.229761 1.5120001
0.37549514 0.229761 1.5120001
0.385573 0.22897387 1.5155001
0.3952193 0.2287112 1.5150001
0.40546438 0.22587149 1.5141001
0.41526076 0.22502598 1.5143337
0.42431775 0.22405066 1.5157695
0.43557945 0.22634195 1.5155001
0.44427603 0.22673854 1.5137501
0.45164448 0.22713517 1.5120001
0.46431175 0.22650059 1.5148001
0.47615522 0.22442707 1.5162003
0.4828524 0.22292377 1.5140002
-0.13260493 0.23763853 1.5120001
-0.12534827 0.23697945 1.5150001
-0.11653867 0.2370234 1.5148001
-0.072210602 0.23763853 1.5120001
-0.065794915 0.23818862 1.5155001
-0.055397931 0.2387387 1.5190001
-0.044639282 0.23763853 1.5120001
-0.014442121 0.23343718 1.5120001
0.10527371 0.23687164 1.5155001
0.1145389 0.23197718 1.5162001
0.124754 0.23371419 1.5163751
0.13564411 0.23573804 1.5166668
0.14398357 0.2350127 1.5120001
0.1543228 0.23346271 1.5190001
0.16699818 0.23449603 1.5143335
0.17225389 0.23449604 1.5143335
0.18729776 0.2361007 1.5190001
0.19526298 0.23434842 1.5150001
0.20541035 0.23322131 1.5150001
0.21512561 0.2340827 1.5162001
0.22476767 0.2329825 1.5137501
0.2342377 0.23160577 1.5155001
0.24420314 0.23238684 1.5120001
0.25465989 0.23186612 1.5143335
0.26561916 0.23186612 1.5143335
0.2727181 0.23121524 1.5172501
0.28490365 0.23082471 1.5190001
0.29803285 0.23238684 1.5120001
0.30793142 0.23292477 1.5155001
0.34425858 0.23082471 1.5190001
0.37063855 0.23082471 1.5190001
-0.12560269 0.24026439 1.5120001
-0.065646008 0.24026437 1.5120001
-0.055211022 0.24054246 1.5137501
0.09683241 0.24175508 1.5172501
0.10109484 0.24026437 1.5120001
-0.81138456 0.25864524 1.5120001
-0.80404496 0.25836465 1.5155001
-0.79465157 0.25736472 1.5182223
-0.78516102 0.25604981 1.5164546
-0.77554291 0.25511295 1.5163751
-0.76501065 0.25675717 1.5163751
-0.75477505 0.25553316 1.5143335
-0.74594373 0.25237086 1.5137501
-0.73680139 0.25203407 1.5143335
-0.72509962 0.25398013 1.5155001
-0.79431665 0.26127109 1.5120001
0.81703657 0.19730705 1.5250001
0.83160281 0.19730705 1.5250001
0.61443263 0.20790072 1.5250001
0.62370223 0.20701793 1.5250001
0.63959265 0.2052523 1.5250001
0.64488947 0.20613512 1.5250001
0.65151048 0.20657651 1.5250001
0.77907598 0.20701793 1.5250001
0.78578526 0.20419292 1.5250001
0.79055238 0.2052523 1.5250001
0.47803923 0.21849439 1.5250001
0.48399818 0.21650806 1.5250001
0.49657816 0.21143195 1.5250001
0.50187498 0.21054913 1.5250001
0.51776546 0.21054913 1.5250001
0.5257107 0.21054915 1.5250001
0.53542161 0.21231475 1.5250001
0.54424965 0.21143195 1.5250001
0.55749172 0.21054913 1.5250001
0.23438488 0.22908805 1.5250001
0.27675956 0.22908805 1.5250001
0.31781 0.22908805 1.5250001
0.32310686 0.22908805 1.5250001
0.34826681 0.22908805 1.5250001
0.35091522 0.22908805 1.5250001
0.38402045 0.22710174 1.5250001
0.3946141 0.22643963 1.5250001
0.40388355 0.22555682 1.5250001
0.43301612 0.22379121 1.5250001
0.44758242 0.22643963 1.5250001
0.45508629 0.22643964 1.5250001
0.46744555 0.22643963 1.5250001
0.4722127 0.22326152 1.5250001
-0.12315138 0.23703329 1.5250001
0.095343001 0.23968172 1.5250001
0.10637807 0.23526768 1.5250001
0.12315138 0.23173647 1.5250001
0.13109663 0.23438488 1.5250001
0.14433871 0.23438488 1.5250001
0.15493238 0.23438488 1.5250001
0.16287763 0.23438488 1.5250001
0.17611971 0.23570909 1.5250001
0.18494777 0.23615049 1.5250001
0.19598284 0.23239857 1.5250001
0.20392808 0.23173647 1.5250001
0.21452175 0.23173647 1.5250001
0.22379121 0.23173647 1.5250001
0.26219326 0.23173647 1.5250001
0.29132584 0.23173647 1.5250001
0.30456793 0.23438488 1.5250001
0.31251317 0.23173647 1.5250001
0.33767313 0.23438488 1.5250001
0.34164575 0.23173647 1.5250001
-0.81173974 0.25822064 1.5250001
-0.80417281 0.25519386 1.5250002
-0.79509252 0.25216711 1.5250002
-0.78591764 0.25093746 1.5250001
-0.77572125 0.25345349 1.5250001
-0.76539242 0.25424802 1.5250001
-0.75744724 0.25292379 1.5250001
-0.74464649 0.25115818 1.5250001
-0.72434199 0.25557223 1.5250001
0.64813703 0.19911839 1.539
0.81812632 0.19821271 1.5320001
0.82862043 0.19881651 1.5366668
0.83614391 0.19697379 1.5348001
0.47841868 0.20980932 1.539
0.48576868 0.20914114 1.539
0.49445504 0.20980932 1.539
0.50380963 0.20980933 1.539
0.53588235 0.20980932 1.539
0.54523689 0.20980932 1.539
0.55541432 0.20825489 1.5360001
0.56457341 0.20811857 1.5350002
0.57387269 0.20851134 1.5334001
0.58532786 0.20980932 1.539
0.61858332 0.20619445 1.5320001
0.62754697 0.20488977 1.5355
0.63454676 0.20353387 1.5320001
0.64462256 0.20254929 1.5346251
0.65358275 0.20343076 1.5337501
0.79551148 0.20353387 1.5320001
0.47583559 0.21621004 1.5363076
0.48413229 0.21383731 1.5333999
0.49353641 0.21151559 1.5320001
0.50816953 0.21151559 1.5320001
0.51216036 0.21151559 1.5320001
0.52280265 0.21151559 1.5320001
0.53477526 0.21151559 1.5320001
0.54231358 0.21240245 1.5320001
0.20847295 0.22718206 1.539
0.21248204 0.22851843 1.539
0.31939125 0.22851843 1.539
0.32473671 0.22851843 1.539
0.35537356 0.22817197 1.5366668
0.36215493 0.22851843 1.539
0.38488168 0.22622097 1.5355
0.39536312 0.22387819 1.5360001
0.40399772 0.22399572 1.5355
0.41347137 0.22210388 1.539
0.43500376 0.22481845 1.5320001
0.44433892 0.2255033 1.5366668
0.45528108 0.22617236 1.5376
0.46612772 0.22372964 1.5354999
0.47199431 0.22132906 1.5355
0.089536458 0.23920934 1.539
0.095455393 0.23759758 1.5360001
0.10324501 0.23503716 1.5362
0.1109183 0.23386388 1.539
0.12799624 0.23333202 1.5355
0.13620086 0.23482199 1.5348001
0.14416483 0.23359795 1.53725
0.15393692 0.23397051 1.5362
0.16551629 0.23359795 1.53725
0.17579693 0.23439638 1.5337501
0.1845066 0.23439628 1.5350002
0.19449191 0.23183477 1.5362
0.20556165 0.23092827 1.53725
0.21515477 0.23119116 1.539
0.22515683 0.23049013 1.5343335
0.23368703 0.2301396 1.5320001
0.26552939 0.23084065 1.5366668
0.27199543 0.23066539 1.5355
0.28601164 0.2301396 1.5320001
0.29639569 0.23183477 1.5362
0.30532858 0.23199564 1.5355
0.31356561 0.23084065 1.5366668
0.32858083 0.2301396 1.5320001
0.33561367 0.23173277 1.5337501
0.34438556 0.23092827 1.53725
0.36582884 0.2301396 1.5320001
0.3791317 0.2301396 1.5320001
-0.81117356 0.24990027 1.539
-0.80371541 0.2495214 1.5366668
-0.79506803 0.24876362 1.5320001
-0.78621793 0.2496161 1.53725
-0.7733199 0.24933195 1.5355
-0.76840991 0.24990027 1.539
-0.83389175 0.25791845 1.539
-0.82498276 0.25702757 1.539
-0.81473291 0.254372 1.5337501
-0.80482352 0.25142419 1.5320001
-0.78220856 0.25142419 1.5320001
-0.77451515 0.25269398 1.5343335
-0.76445222 0.2517114 1.5337501
-0.75560284 0.25142419 1.5320001
-0.74411774 0.25396785 1.5366668
-0.73900986 0.25524572 1.539
-0.83522815 0.26059121 1.539
-0.82720995 0.26059121 1.539
0.47790983 0.20807873 1.5460001
0.48596451 0.20807873 1.5460001
0.53563493 0.20807873 1.5460001
0.54503202 0.20807873 1.5460001
0.55308664 0.20807873 1.5460001
0.5772506 0.20807873 1.5460001
0.58262038 0.20807873 1.5460001
0.60812682 0.20807873 1.5460001
0.61618149 0.20807873 1.5460002
0.62155128 0.20807873 1.5460001
0.64482033 0.201814 1.5460002
0.80412358 0.20270894 1.5460002
0.82291776 0.20002407 1.5460001
0.40407544 0.21747583 1.5460001
0.46851274 0.21747583 1.5460001
0.47311538 0.21421561 1.5460002
0.51415581 0.2107636 1.5460001
0.53384495 0.21076362 1.5460002
0.59470242 0.21076362 1.5460002
0.60141468 0.2107636 1.5460001
0.20270896 0.22955781 1.5460002
0.21523842 0.22776791 1.5460002
0.22955781 0.22955781 1.5460001
0.23492759 0.22955781 1.5460002
0.24029736 0.22955781 1.5460001
0.2752009 0.22955781 1.5460001
0.28459799 0.22955781 1.5460001
0.29533753 0.22955781 1.5460001
0.30473465 0.22955781 1.5460002
0.31413174 0.22955781 1.5460001
0.32621375 0.22955781 1.5460001
0.3315835 0.22955781 1.5460001
0.34500796 0.22955781 1.5460001
0.35485253 0.22866285 1.5460002
0.36917192 0.22955781 1.5460001
0.37722659 0.22955781 1.5460001
0.38796613 0.22418804 1.5460001
0.39512584 0.22239813 1.5460002
0.40497041 0.22150317 1.5460002
0.41213012 0.22150315 1.5460001
0.43763655 0.22418804 1.5460001
0.44166386 0.22418804 1.5460001
0.45374587 0.22418804 1.5460001
0.46582788 0.22239813 1.5460002
0.088601261 0.23627004 1.5460001
0.095313482 0.23492759 1.5460002
0.10471058 0.23492759 1.5460001
0.11947746 0.2322427 1.5460001
0.13558678 0.23492759 1.5460001
0.14364144 0.2322427 1.5460001
0.17451763 0.23358515 1.5460001
0.18928452 0.2322427 1.5460001
0.19196941 0.2322427 1.5460001
0.22150315 0.2322427 1.5460001
0.33963817 0.2322427 1.5460001
0.37856904 0.2322427 1.5460001
-0.78264451 0.24835202 1.5460001
0.087258816 0.24029736 1.5460001
-0.84260696 0.25819665 1.5460002
-0.83410478 0.25551173 1.5460002
-0.82694507 0.2537218 1.5460001
-0.81754804 0.25103691 1.5460001
-0.79069912 0.25103691 1.5460001
-0.77861714 0.25103691 1.5460001
-0.76519275 0.25103691 1.5460001
-0.75042588 0.2537218 1.5460001
-0.74774098 0.2537218 1.5460001
-0.73968631 0.25640669 1.5460001
0.83203787 0.1982327 1.5530001
0.84147751 0.19688417 1.5530001
0.4841193 0.20902087 1.5530001
0.49490747 0.20902087 1.5530001
0.50299859 0.20902088 1.5530002
0.53536314 0.20902087 1.5530001
0.54480278 0.20699808 1.5530001
0.55514145 0.20632383 1.5530002
0.58660692 0.20767234 1.5530001
0.59469807 0.20902088 1.5530002
0.60355985 0.20786501 1.5530002
0.61627442 0.20767234 1.5530001
0.62706256 0.20632383 1.5530002
0.63380516 0.20497531 1.5530001
0.64054781 0.20362678 1.5530001
0.40860209 0.21980904 1.5530001
0.46685821 0.21765141 1.5530001
0.47153312 0.21261692 1.5530002
0.51648384 0.2117179 1.5530001
0.52592343 0.2117179 1.5530001
0.60818326 0.2117179 1.5530001
0.61088032 0.2117179 1.5530001
0.20632382 0.22790016 1.5530001
0.21980904 0.22790016 1.5530001
0.30476591 0.22790016 1.5530001
0.31555408 0.22790016 1.5530001
0.32769078 0.22790016 1.5530001
0.34657007 0.22790016 1.5530001
0.3546612 0.22790018 1.5530002
0.36410087 0.22790016 1.5530001
0.38567722 0.22655165 1.5530001
0.39376834 0.22250608 1.5530001
0.40860209 0.22250608 1.5530001
0.4477092 0.22520313 1.5530001
0.45660946 0.22358489 1.5530001
0.46344197 0.22340509 1.5530002
0.087653913 0.23329425 1.5530001
0.093047999 0.23329425 1.5530002
0.10248765 0.23329425 1.5530001
0.11597286 0.23329425 1.5530001
0.12541252 0.23329425 1.5530002
0.13485217 0.23329425 1.5530001
0.14833739 0.23329425 1.5530001
0.15508001 0.23329425 1.5530002
0.16451964 0.23329425 1.5530001
0.17665635 0.23329425 1.5530002
0.18474749 0.23329425 1.5530002
0.19688417 0.23059721 1.5530001
0.21980904 0.23059721 1.5530001
0.22520313 0.23059723 1.5530002
0.24543095 0.23059721 1.5530001
0.25487059 0.23329425 1.5530001
0.26116371 0.23419327 1.5530002
0.27914399 0.23059721 1.5530001
0.28588659 0.23059721 1.5530001
0.33713043 0.23059721 1.5530001
0.34477207 0.23059723 1.5530002
0.36814642 0.23059721 1.5530001
0.37488902 0.23194572 1.5530001
0.38163164 0.23059721 1.5530001
-0.83473492 0.248128 1.5530001
-0.81720412 0.24947652 1.5530001
-0.79158223 0.24947652 1.5530001
-0.78439015 0.24947652 1.5530002
-0.77539998 0.24947652 1.5530001
-0.84498376 0.25541002 1.5530001
-0.83473492 0.2521736 1.5530002
-0.82664382 0.2521736 1.5530002
-0.77000588 0.25217357 1.5530001
-0.76730883 0.25217357 1.5530001
-0.75382364 0.25217357 1.5530001
-0.74438393 0.25487059 1.5530001
0.64885342 0.1991262 1.5600001
0.84485948 0.19731463 1.5617501
0.46943405 0.2081838 1.567
0.47326255 0.20877688 1.5646667
0.48848355 0.2081838 1.567
0.49499285 0.20877688 1.5646667
0.50617236 0.2081838 1.567
0.51393229 0.2089463 1.5640002
0.53506702 0.20905994 1.5600002
0.5436253 0.20599543 1.5628
0.55501854 0.20545359 1.5628
0.56622279 0.2072538 1.5600001
0.57563293 0.20771879 1.5635
0.58649707 0.20703846 1.5635
0.59464294 0.20635812 1.5635002
0.60369551 0.2043464 1.5631113
0.61558795 0.20648608 1.5630002
0.6256237 0.20582071 1.5656
0.63540447 0.20455264 1.56525
0.64674413 0.20168301 1.5658334
0.65156263 0.20183541 1.5600001
0.82766062 0.20183541 1.5600001
0.8368172 0.20001972 1.567
0.84225988 0.20001972 1.567
0.39867875 0.21906921 1.567
0.40502542 0.21809061 1.5600001
0.45650336 0.21632947 1.5650911
0.46470281 0.21380845 1.5637693
0.4732666 0.21149418 1.5646667
0.48031947 0.21090515 1.567
0.52522188 0.21090515 1.567
0.53202522 0.21090515 1.567
0.16464208 0.22995465 1.567
0.1891343 0.22995465 1.567
0.19457702 0.22995465 1.5670002
0.20213324 0.22926983 1.5623335
0.21809061 0.22621821 1.5600001
0.22562189 0.2290175 1.56525
0.23392835 0.22850388 1.5617501
0.24628279 0.22995465 1.5670002
0.27757838 0.22995465 1.567
0.28541878 0.22969784 1.56525
0.29583997 0.22858858 1.5614001
0.30369925 0.22716609 1.5628
0.31383017 0.22745965 1.5623335
0.32447577 0.22808033 1.5635002
0.33528474 0.22719325 1.5646669
0.3445389 0.22652119 1.5638183
0.35366654 0.22740304 1.5635
0.36536604 0.2273691 1.5642
0.3754088 0.22795933 1.5640002
0.3842119 0.22717527 1.5635002
0.39491221 0.22236542 1.5646667
0.40367082 0.2207998 1.5600001
0.41636759 0.22179058 1.567
0.42044961 0.22179058 1.567
0.44530267 0.22310334 1.5635002
0.45369142 0.22171542 1.5610002
0.46327323 0.2207998 1.5600001
0.088444091 0.232676 1.567
0.095893703 0.23280211 1.5642
0.10588978 0.2335109 1.5635
0.1124318 0.23434581 1.5600001
0.13606784 0.232676 1.567
0.142233 0.23434581 1.5600001
0.15511733 0.232676 1.567
0.16439693 0.23232953 1.5646667
0.17416683 0.232676 1.567
0.18463588 0.23215631 1.5635
0.1923532 0.23163661 1.5600001
0.25562501 0.23280211 1.5642
0.26453805 0.23198307 1.5623335
0.27267778 0.23198307 1.5623335
-0.82321042 0.24900414 1.567
-0.79390448 0.24863337 1.5646667
-0.78665155 0.24863337 1.5646667
-0.85286987 0.25212169 1.56525
-0.84689444 0.25291401 1.5617501
-0.83536518 0.25088212 1.5617501
-0.82630599 0.25060099 1.5600001
-0.81729579 0.25116324 1.5635
-0.80416095 0.25172549 1.5670002
-0.78160423 0.25060099 1.5600001
-0.7757864 0.25135067 1.5646667
-0.76656097 0.25212473 1.56525
-0.75518316 0.25233245 1.5623335
-0.74837309 0.25308618 1.567
0.84465563 0.19817972 1.5740001
0.85968995 0.19817972 1.5740001
0.86242348 0.19817972 1.5740001
0.4646973 0.20911378 1.5740001
0.50296646 0.20911378 1.5740001
0.52620137 0.20911378 1.5740001
0.53576863 0.20911378 1.5740001
0.54260242 0.20638026 1.5740001
0.55080295 0.20364675 1.5740001
0.56583726 0.20638026 1.5740001
0.57403779 0.20638026 1.5740001
0.5849719 0.20638026 1.5740001
0.59453917 0.20364675 1.5740001
0.60137296 0.20364675 1.5740001
0.61367375 0.20364675 1.5740001
0.6246078 0.20364675 1.5740001
0.63417512 0.20364675 1.5740001
0.64374244 0.20227998 1.5740001
0.83782184 0.20091324 1.5740001
0.86379027 0.20091324 1.5740001
0.45604119 0.2145808 1.5740001
0.22688162 0.22824837 1.5740001
0.2337154 0.22824837 1.5740001
0.26378405 0.22824837 1.5740001
0.29521945 0.22756499 1.5740001
0.30478677 0.22551486 1.5740001
0.31435406 0.22551486 1.5740001
0.32118782 0.22551486 1.5740001
0.33485541 0.2246037 1.5740001
0.34578943 0.22278135 1.5740001
0.35535675 0.22551486 1.5740001
0.36355728 0.22551486 1.5740001
0.3785916 0.22551486 1.5740001
0.38624546 0.22387473 1.5740002
0.39225918 0.22278135 1.5740001
0.44829619 0.22004783 1.5740001
0.096128568 0.23098189 1.5740001
0.10524026 0.23234865 1.5740001
0.11526315 0.2337154 1.5740001
0.12574162 0.2337154 1.5740001
0.13257541 0.2337154 1.5740001
0.1448762 0.2337154 1.5740001
0.15307674 0.23098189 1.5740001
0.16537756 0.23098189 1.5740001
0.17494486 0.23098189 1.5740001
0.18451217 0.23098189 1.5740001
0.24191594 0.23098189 1.5740001
0.25558352 0.23098189 1.5740001
0.26515079 0.23098189 1.5740001
0.27471811 0.23098189 1.5740001
-0.79681915 0.24738297 1.5740001
-0.85968995 0.25011647 1.5740001
-0.84055537 0.25011647 1.5740001
-0.83372164 0.25011647 1.5740001
-0.82962132 0.25011647 1.5740001
-0.81595373 0.25285 1.5740001
-0.7858851 0.25011647 1.5740001
-0.77221751 0.25011647 1.5740001
-0.76675051 0.25216663 1.5740001
-0.75718319 0.25148323 1.5740001
-0.71208024 0.25558349 1.5740001
-0.70797998 0.25421673 1.5740001
0.84429353 0.19906108 1.5810001
0.85684443 0.19730878 1.5890001
0.86569107 0.19680977 1.5850003
0.87202203 0.19592899 1.5890001
0.46518528 0.20782256 1.5850002
0.4746449 0.20834704 1.5890001
0.50923061 0.20782256 1.585
0.51473588 0.2064428 1.585
0.52421397 0.20542945 1.5854446
0.53521651 0.20677093 1.5863334
0.54391336 0.20517068 1.5858002
0.55051982 0.20506996 1.585
0.5643307 0.20558748 1.5890001
0.5746448 0.20601512 1.5870001
0.58416384 0.20592959 1.5874001
0.59449619 0.20481119 1.5830001
0.60434437 0.20282792 1.5890001
0.61551207 0.20296858 1.5858002
0.62484062 0.20323257 1.585
0.63415796 0.20221245 1.5842001
0.64460534 0.2016633 1.5842001
0.82786906 0.20558748 1.5890001
0.83583254 0.20462434 1.5858002
0.30677146 0.21846545 1.5890001
0.31045088 0.2193853 1.5890001
0.3932378 0.2193853 1.5890001
0.4373908 0.2193853 1.5890001
0.44534501 0.21843906 1.5878574
0.4546997 0.21452689 1.5846363
0.5010848 0.21004376 1.5810001
0.16611303 0.22926345 1.5810001
0.17984138 0.22926345 1.5810001
0.18580163 0.22846374 1.585
0.194774 0.22857797 1.5844289
0.20331073 0.22862367 1.5842001
0.2114166 0.22926345 1.5810001
0.22766398 0.22766398 1.5890001
0.23397243 0.22709088 1.5850002
0.24398214 0.22886357 1.5830002
0.25488973 0.22926347 1.5810001
0.26495719 0.22926345 1.5810001
0.27868551 0.22926345 1.5810001
0.28603134 0.22873029 1.5836668
0.29555964 0.22536789 1.585
0.30495957 0.22253907 1.5820001
0.31488591 0.22393145 1.5870001
0.32612428 0.22577901 1.5874002
0.33417854 0.22530776 1.5870001
0.3451674 0.22322969 1.5836668
0.35419145 0.22377211 1.5810001
0.36402836 0.22502121 1.5850002
0.37604827 0.22452235 1.5863334
0.38536114 0.2229602 1.5850002
0.39638031 0.22158565 1.585
0.40151647 0.22214486 1.5890001
0.41807386 0.22214486 1.5890001
0.42451286 0.22306471 1.5890001
0.43573505 0.22490442 1.5890001
0.44329891 0.22434473 1.5868182
0.095085107 0.23081994 1.5870001
0.10560265 0.23095208 1.5863335
0.11527699 0.23302786 1.5842001
0.12593049 0.23190622 1.585
0.13476476 0.2314806 1.5836668
0.14513445 0.23216163 1.5858002
0.15689568 0.23121634 1.585
0.16484296 0.23095207 1.5863335
0.17523228 0.23042354 1.5890001
0.21662574 0.23042354 1.5890001
0.24422136 0.23042354 1.5890001
0.25736967 0.23121634 1.585
0.27423096 0.23081993 1.5870001
-0.86431819 0.24911182 1.585
-0.81269145 0.2497405 1.5890001
-0.80310857 0.24756792 1.5810001
-0.79512125 0.24818547 1.5826002
-0.77405757 0.2497405 1.5890001
-0.76577884 0.2497405 1.5890001
-0.7216258 0.2497405 1.5890001
-0.71472692 0.2497405 1.5890001
-0.70388526 0.24932139 1.5863335
-0.86076754 0.25122881 1.5810001
-0.85579431 0.25165257 1.5836668
-0.84154791 0.25122881 1.5810001
-0.83200836 0.25250006 1.5890001
-0.82924879 0.25250006 1.5890001
-0.81477803 0.25186443 1.585
-0.80859983 0.25122881 1.5810001
-0.78449923 0.25186443 1.585
-0.77290612 0.25122881 1.5810001
-0.76741481 0.25122881 1.5810001
-0.75643218 0.25122881 1.5810001
-0.72209382 0.25493488 1.5870001
-0.7154218 0.2536796 1.5826001
-0.70504886 0.25240555 1.5810002
0.85507566 0.19817799 1.5960001
0.87724942 0.19540627 1.5960001
0.45871967 0.20926486 1.5960001
0.46564898 0.20787901 1.5960001
0.47257829 0.20649314 1.5960001
0.5072248 0.20926486 1.5960001
0.51692581 0.20372143 1.5960001
0.52524102 0.20279752 1.5960001
0.53553599 0.20213757 1.5960001
0.54408866 0.20205839 1.5960001
0.55295813 0.20372142 1.5960001
0.56496894 0.20649314 1.5960001
0.57236022 0.20649314 1.5960001
0.59730566 0.20372142 1.5960001
0.60839254 0.2009497 1.5960001
0.62640876 0.2009497 1.5960001
0.6347239 0.2009497 1.5960001
0.64719665 0.2009497 1.5960001
0.82597256 0.20233557 1.5960001
0.83151603 0.20372142 1.5960001
0.84676051 0.20187363 1.5960001
0.43793178 0.21758002 1.5960001
0.44486111 0.21527027 1.5960001
0.45502409 0.21296048 1.5960001
0.095624343 0.2286669 1.5960001
0.12749913 0.2286669 1.5960001
0.13165671 0.2286669 1.5960001
0.14274359 0.2286669 1.5960001
0.17877595 0.2286669 1.5960001
0.18570524 0.22658812 1.5960001
0.19609919 0.22520225 1.5960001
0.20372142 0.22728103 1.5960001
0.22589518 0.2286669 1.5960001
0.23421034 0.22589518 1.5960001
0.24668309 0.2286669 1.5960001
0.25222653 0.2286669 1.5960001
0.26608515 0.2286669 1.5960001
0.27486226 0.2286669 1.5960001
0.28548717 0.22728103 1.5960001
0.29518819 0.22404739 1.5960001
0.30211747 0.22035174 1.5960001
0.31597608 0.22173759 1.5960001
0.32429123 0.22450933 1.5960001
0.34646499 0.22312346 1.5960001
0.35755187 0.22312346 1.5960001
0.36448118 0.22450933 1.5960001
0.37187243 0.22497128 1.5960001
0.39219838 0.22035174 1.5960001
0.42823076 0.22312346 1.5960001
0.43377417 0.22173761 1.5960001
0.11502638 0.23143862 1.5960001
0.12334155 0.23143862 1.5960001
0.13581428 0.23143862 1.5960001
0.14690116 0.23143862 1.5960001
0.15475439 0.23143862 1.5960001
0.16214563 0.23143862 1.5960001
0.22035174 0.23143862 1.5960001
-0.812114 0.24806894 1.5960001
-0.80241299 0.24806894 1.5960001
-0.71233207 0.24806894 1.5960001
-0.7067886 0.24806894 1.5960001
-0.86061907 0.2536124 1.5960001
-0.84398878 0.25084066 1.5960001
-0.83428776 0.25222653 1.5960001
-0.82597256 0.2536124 1.5960001
-0.81904328 0.25084066 1.5960001
-0.78023922 0.25084066 1.5960001
-0.77330989 0.25084066 1.5960001
-0.76222301 0.25084066 1.5960001
-0.73034823 0.2563841 1.5960001
-0.72757649 0.2536124 1.5960001
0.64446747 0.19904719 1.603
0.82681143 0.19904719 1.603
0.85325825 0.19904719 1.603
0.46490741 0.20739882 1.603
0.51362526 0.20739882 1.603
0.57765442 0.20461494 1.603
0.58461416 0.20461494 1.603
0.59435767 0.20461494 1.603
0.60549319 0.20275901 1.603
0.61384481 0.20183106 1.603
0.62498033 0.20183106 1.603
0.83599824 0.20238784 1.603
0.84490657 0.20322299 1.603
0.43567669 0.21760635 1.603
0.44522145 0.21217118 1.603
0.45460707 0.21129625 1.603
0.4830026 0.2101827 1.603
0.098827623 0.22966984 1.603
0.10578732 0.22966984 1.603
0.11413895 0.22966984 1.603
0.1266664 0.22781393 1.603
0.13640997 0.22966984 1.603
0.14522557 0.22966985 1.603
0.15589711 0.22966984 1.603
0.17399231 0.22966985 1.603
0.18512779 0.22549403 1.603
0.19487137 0.22410208 1.603
0.20600688 0.22688596 1.603
0.21157464 0.22966984 1.603
0.23523758 0.22688596 1.603
0.24544513 0.22688596 1.603
0.25472474 0.22827789 1.603
0.26307636 0.22874188 1.603
0.27699575 0.22781393 1.603
0.28395543 0.22688596 1.603
0.29230708 0.22410208 1.603
0.3187539 0.2213182 1.603
0.32153776 0.2213182 1.603
0.33267328 0.22271013 1.603
0.34380877 0.22410208 1.603
0.35494429 0.22410208 1.603
0.36886367 0.22410208 1.603
0.38556695 0.22131822 1.603
0.39113468 0.2213182 1.603
0.42732507 0.2213182 1.603
0.43010896 0.2213182 1.603
-0.84351468 0.24915697 1.603
-0.72380793 0.24915697 1.603
-0.71545631 0.24706906 1.603
-0.70710468 0.24776503 1.603
-0.86856955 0.25194085 1.603
-0.85604209 0.25194085 1.603
-0.83562702 0.25194085 1.603
-0.82681143 0.25194085 1.603
-0.79201293 0.25194085 1.603
-0.78783715 0.25333279 1.603
-0.76974189 0.25194085 1.603
-0.73262358 0.25286883 1.603
0.83595324 0.19809984 1.618
0.84521544 0.19692971 1.6150001
0.85391849 0.19594088 1.6156667
0.86280644 0.19781417 1.6156667
0.88549423 0.19444501 1.6110001
0.44580585 0.20888671 1.6145
0.45515704 0.20748174 1.6145
0.46384048 0.20700568 1.61625
0.47524017 0.20748174 1.6145
0.48611733 0.20933954 1.618
0.49314213 0.20933954 1.618
0.50625515 0.20840292 1.618
0.51347506 0.20763271 1.6156667
0.52826619 0.20371969 1.618
0.54335243 0.20025787 1.6127501
0.55515587 0.20257348 1.6145
0.56058037 0.20371969 1.618
0.5757705 0.20593393 1.6133335
0.58434409 0.20319088 1.6138
0.5958178 0.20187405 1.6145
0.60422933 0.20187405 1.6145
0.61540329 0.20139191 1.61625
0.62390268 0.20283833 1.6110001
0.63589281 0.20073591 1.6166
0.6434871 0.20004056 1.6110001
0.65887487 0.20283833 1.6110001
0.83653331 0.20004056 1.6110001
0.84520626 0.20060013 1.6110001
0.85192096 0.20004056 1.6110001
0.3217366 0.21776932 1.618
0.38469338 0.21962495 1.6110001
0.42945769 0.21962495 1.6110001
0.43498418 0.21527033 1.6150835
0.44158137 0.21216422 1.6110001
0.48821089 0.21123163 1.6110001
0.49583364 0.2133566 1.6150001
0.50414109 0.2114611 1.6127501
0.096802674 0.22867879 1.6156667
0.10537225 0.22900903 1.618
0.115207 0.22900903 1.618
0.12504175 0.22807239 1.618
0.13608897 0.22867879 1.6156667
0.14471123 0.22900903 1.618
0.17843035 0.22900903 1.618
0.18351936 0.22647929 1.6133335
0.19164725 0.22522049 1.6110001
0.2149594 0.22900903 1.618
0.22760406 0.22900903 1.618
0.23429458 0.22680549 1.6156667
0.24560267 0.22665389 1.61625
0.25626719 0.22680551 1.6156667
0.26523647 0.22694558 1.6133335
0.27477413 0.2266424 1.6145
0.28537256 0.22522049 1.6110001
0.29720491 0.22290595 1.6145
0.30628201 0.22057925 1.618
0.3104969 0.22057925 1.618
0.32617599 0.22290191 1.6145
0.33539921 0.2247657 1.6127501
0.34272683 0.22522049 1.6110001
0.37684509 0.22367746 1.6133335
0.38384265 0.22104011 1.61625
0.3947947 0.22057925 1.618
0.42548248 0.22220346 1.6145
0.093725301 0.23081604 1.6110001
0.11890523 0.23081604 1.6110001
0.121703 0.23081604 1.6110001
0.15247847 0.23081604 1.6110001
0.16542402 0.23131749 1.6145
0.21822608 0.23081604 1.6110001
0.22382161 0.23081604 1.6110001
-0.86545742 0.24867852 1.618
-0.85281277 0.24867854 1.618
-0.83876312 0.24867852 1.618
-0.82330859 0.24867852 1.618
-0.76008517 0.24867852 1.618
-0.75446534 0.24774188 1.618
-0.74511516 0.24814059 1.6145
-0.73479593 0.24867854 1.618
-0.72479784 0.24673866 1.6145
-0.71689689 0.24551404 1.6156667
-0.70733106 0.24840955 1.61625
-0.69545686 0.24586859 1.618
-0.87683177 0.25112578 1.6156667
-0.86545151 0.25187704 1.6145
-0.85331988 0.25040042 1.6110001
-0.844383 0.25148845 1.618
-0.83554077 0.2516439 1.6145
-0.82394332 0.25040042 1.6110001
-0.8043589 0.25179932 1.6110001
-0.79466885 0.25217232 1.6152
-0.78337562 0.25040042 1.6110001
-0.77778006 0.25040042 1.6110001
-0.76340753 0.25388277 1.615375
-0.75526822 0.2546998 1.6180001
-0.74474239 0.2533406 1.6135455
-0.73461127 0.25094444 1.6145
-0.70465827 0.25076312 1.6133335
0.59723794 0.19907932 1.626
0.60429752 0.19907932 1.626
0.61418092 0.19907932 1.6260002
0.6480667 0.19907932 1.626
0.65089053 0.19907932 1.626
0.8443222 0.19625549 1.626
0.85608816 0.19343168 1.6260002
0.86550087 0.19531421 1.6260002
0.44475165 0.20755078 1.626
0.45510566 0.20660952 1.6260002
0.4645184 0.20472696 1.6260002
0.4772256 0.20755078 1.626
0.49840423 0.20755078 1.626
0.50405192 0.20755079 1.6260002
0.51393527 0.20613886 1.626
0.52523053 0.20472695 1.626
0.53511393 0.20472695 1.626
0.56617594 0.20472696 1.6260002
0.57323545 0.20755078 1.626
0.58500141 0.20284441 1.6260002
0.5930022 0.20190313 1.626
0.63112378 0.20190313 1.626
0.31767976 0.21884605 1.626
0.32050359 0.21884605 1.626
0.33321077 0.21743415 1.626
0.37980381 0.21884605 1.626
0.38545144 0.21884605 1.6260002
0.3910991 0.21884605 1.626
0.42780873 0.21884605 1.626
0.43345639 0.21461034 1.626
0.44192785 0.21037459 1.626
0.49558043 0.21037459 1.626
0.50264001 0.21037459 1.626
0.094597973 0.22731751 1.626
0.10871708 0.22731751 1.626
0.11577663 0.22731751 1.626
0.12424809 0.22661155 1.626
0.13554336 0.22731751 1.626
0.14542674 0.22731751 1.6260002
0.17931257 0.22731751 1.626
0.18496023 0.22543499 1.6260002
0.19531423 0.22449371 1.6260002
0.20755078 0.22731751 1.626
0.22731751 0.22731751 1.626
0.23296516 0.22731751 1.626
0.24143662 0.22731751 1.626
0.26638037 0.22355244 1.6260002
0.27532244 0.22449371 1.6260002
0.28379393 0.22449371 1.6260002
0.29508919 0.2244937 1.626
0.30356064 0.2230818 1.626
0.31767976 0.22166988 1.626
0.32473934 0.22166988 1.626
0.33462271 0.22166988 1.6260002
0.34450606 0.2244937 1.626
0.35438943 0.22449371 1.6260002
0.37556809 0.22378774 1.626
0.42780873 0.22166988 1.626
0.091774151 0.23014134 1.626
0.10589325 0.23014134 1.626
0.15389819 0.23014134 1.6260002
0.17507684 0.23014134 1.626
0.21602224 0.23014134 1.626
0.2230818 0.23014134 1.626
-0.88526762 0.24990807 1.626
-0.8739723 0.24990807 1.626
-0.86408895 0.24990807 1.626
-0.85420561 0.24802554 1.6260002
-0.84479284 0.24990807 1.6260002
-0.83373284 0.24920213 1.626
-0.82455546 0.24708426 1.6260002
-0.81655473 0.24896681 1.6260002
-0.80055296 0.24990807 1.626
-0.79490536 0.24990807 1.6260002
-0.78784579 0.24990807 1.626
-0.76553768 0.2482138 1.626
-0.75537187 0.24708426 1.626
-0.74690044 0.24990807 1.626
-0.73560512 0.24708426 1.626
-0.70397836 0.24708426 1.626
-0.87679613 0.25273189 1.626
-0.83443886 0.25273189 1.626
-0.81184828 0.25273189 1.626
-0.80620068 0.25273189 1.6260002
-0.78078628 0.25273189 1.626
-0.77513862 0.25273189 1.6260002
-0.76666713 0.25273189 1.626
-0.74690044 0.25273189 1.626
0.84516567 0.19627517 1.6340002
0.85557061 0.19438337 1.6340001
0.86975914 0.19438337 1.6340001
0.87543458 0.19627517 1.6340002
0.88962317 0.19722109 1.6340001
0.89529866 0.19627517 1.6340002
0.44693986 0.20857194 1.6340001
