# .PCD v0.7 - Point Cloud Data file format
VERSION 0.7
FIELDS x y z
SIZE 4 4 4
TYPE F F F
COUNT 1 1 1
WIDTH 1489
HEIGHT 1
VIEWPOINT 0 0 0 1 0 0 0
POINTS 1489
DATA ascii
0.024230652 -0.20519856 1.023844
0.03207276 -0.20936386 1.026
0.041750338 -0.20874821 1.023
0.0088570006 -0.1904255 1.0200001
0.015698455 -0.19545735 1.0231668
0.02138184 -0.19867294 1.026
-0.003248001 -0.18165664 1.0205001
0.005217249 -0.18549098 1.0233914
0.012464274 -0.18873422 1.02525
-0.012421616 -0.17258222 1.021875
-0.0063559003 -0.17641711 1.0233464
0.00089091004 -0.17907292 1.026
-0.032350846 -0.16087243 1.02075
-0.023737628 -0.16263509 1.0210001
-0.016290108 -0.16664898 1.0234001
-0.053539593 -0.15128766 1.023375
-0.044125374 -0.15478379 1.0231668
-0.035734173 -0.15770654 1.0238001
-0.026474291 -0.15862985 1.024875
-0.063666724 -0.14418311 1.0212001
-0.057297211 -0.14749464 1.0238183
-0.077055901 -0.13905492 1.0200002
-0.43303624 0.15683553 1.0204287
-0.42547667 0.1567689 1.0200002
-0.41516408 0.1594729 1.026
-0.19154565 0.1594729 1.026
-0.18517156 0.1558425 1.0233752
-0.17492989 0.1528955 1.0217502
-0.16667572 0.15337503 1.0210001
-0.43281209 0.16149263 1.0200001
-0.42465907 0.16153805 1.0200002
-0.4147602 0.16476333 1.0220003
-0.40725189 0.16710246 1.0243125
-0.19353369 0.16495401 1.0234616
-0.18805653 0.16182314 1.0206001
-0.41066957 0.17153057 1.0200002
-0.40375957 0.17406276 1.0229095
-0.39899683 0.17886126 1.0222501
-0.19608879 0.17517062 1.0232309
-0.40122211 0.1815685 1.0200001
-0.39580813 0.18554069 1.0235298
-0.38932768 0.18976383 1.026
-0.19750154 0.18151033 1.0230001
-0.39380771 0.19480774 1.0221727
-0.39440745 0.20164524 1.023
0.44622526 0.24961373 1.023
0.45265341 0.24859703 1.0230001
0.54986084 0.24250728 1.023
0.55521119 0.24620974 1.0225714
0.56058431 0.2456997 1.0215001
0.035138197 0.25865176 1.0245
0.040090952 0.25925481 1.026
0.055236422 0.25925481 1.026
0.07750918 0.25925481 1.026
0.085912906 0.2595101 1.0200001
0.13744111 0.25931865 1.0245
0.15858199 0.25925481 1.026
0.1649951 0.25880554 1.0236925
0.17501314 0.25859195 1.0223079
0.18517105 0.25828993 1.0236001
0.19510929 0.25925481 1.026
0.20625088 0.25902933 1.0243334
0.21471453 0.25824037 1.023
0.22507286 0.25851542 1.0225003
0.23448937 0.25778967 1.0233333
0.24575536 0.25744137 1.0238571
0.25539821 0.25766313 1.0235455
0.26568976 0.25739485 1.0233333
0.27583134 0.25757927 1.0236
0.28462768 0.25694108 1.0226471
0.29511249 0.25693655 1.0223572
0.30487823 0.25486675 1.0232143
0.31507754 0.25522599 1.0224707
0.32547235 0.25565159 1.0230001
0.33477235 0.25652394 1.0226471
0.34413841 0.25508985 1.0225714
0.35608572 0.25477207 1.0235
0.36538276 0.2540001 1.0224545
0.3725743 0.25238737 1.02525
0.3870151 0.25298133 1.0222501
0.39447361 0.25144973 1.0218
0.40447029 0.25128376 1.0233001
0.41497076 0.25206271 1.0233333
0.42507112 0.25176442 1.0223078
0.43502983 0.25059167 1.0212001
0.44460708 0.25057629 1.0215
-0.47485504 0.26994574 1.026
-0.46259722 0.2695511 1.0245
-0.45503101 0.26839793 1.0235
-0.44628471 0.26925498 1.0245001
-0.43882269 0.26915643 1.023
-0.42897403 0.26777667 1.0200002
-0.41396219 0.26878422 1.024125
-0.40439072 0.26795173 1.0227274
-0.39560232 0.26769528 1.0215
-0.38596395 0.26804408 1.023
-0.37541047 0.2682147 1.0245
-0.36972767 0.26816392 1.026
-0.35735589 0.26935375 1.0237501
-0.34266782 0.26968265 1.0250001
-0.33460471 0.26845279 1.0233333
-0.325912 0.26981419 1.0255001
-0.31473634 0.26850232 1.0239
-0.30512652 0.26854396 1.0227001
-0.29756394 0.26994574 1.026
-0.2836498 0.26941955 1.024
-0.27430168 0.26822606 1.0204287
-0.26626837 0.26744756 1.0210001
-0.25468329 0.26809621 1.0232728
-0.24454157 0.26847154 1.0240909
-0.23626491 0.26787636 1.0243846
-0.22540024 0.26994574 1.026
-0.21387224 0.26770893 1.0220001
-0.20531361 0.26877972 1.0236001
-0.19510929 0.26994574 1.026
-0.18485992 0.269288 1.0235
-0.17509873 0.26895794 1.0236
-0.085283361 0.26678848 1.023
-0.075473368 0.26458594 1.0225
-0.065415606 0.26452851 1.0226666
-0.054995555 0.26622465 1.0227692
-0.045279071 0.26544744 1.0224
-0.03491699 0.26487944 1.0225
-0.026133362 0.26469094 1.0236
-0.0044311052 0.26331079 1.0210001
0.0053359084 0.2643424 1.0250001
0.01870911 0.26281846 1.026
0.025486717 0.26218385 1.0230001
0.0343633 0.26056141 1.0221429
0.04528309 0.26193947 1.0225714
0.055374179 0.26233345 1.0237058
0.064918235 0.26322582 1.024125
0.07486394 0.261089 1.0223333
0.084349476 0.26044139 1.0225
0.095106475 0.26042601 1.0236
0.10482001 0.26115906 1.0230002
0.11252662 0.26113459 1.0236
0.13679898 0.26027337 1.023
0.14487231 0.26266041 1.0225
0.15439357 0.26169792 1.0232308
0.16409546 0.26077744 1.0215001
0.19494085 0.26060942 1.022
0.20446934 0.26083344 1.0213333
0.2116823 0.26128152 1.0200001
-0.55476063 0.27354658 1.0219091
-0.47207811 0.2701385 1.0200001
-0.46144971 0.2701385 1.0200001
-0.45357999 0.27236581 1.0206925
-0.44668803 0.27328768 1.0200001
-0.42383873 0.27149314 1.024
-0.41627899 0.27058136 1.0200001
-0.35354543 0.27093303 1.023
-0.34698772 0.27096343 1.0220001
-0.33435178 0.2701385 1.0200001
-0.32537147 0.27069861 1.0210001
-0.31584063 0.2701385 1.0200001
-0.30455428 0.27061859 1.0208572
-0.29505926 0.27106547 1.0235
-0.28540576 0.27033713 1.02075
-0.25153881 0.2701385 1.0200001
-0.2446323 0.27033713 1.02075
-0.22529733 0.27053577 1.0215001
-0.20341578 0.2701385 1.0200002
-0.19523954 0.27066821 1.0220001
-0.18528758 0.27040336 1.0210001
0.037115 -0.42151853 1.0324
0.042103205 -0.42214257 1.0371251
0.035634581 -0.41457981 1.0338274
0.041762348 -0.41581172 1.038
0.029156899 -0.40372467 1.0300001
0.034216985 -0.40533203 1.0357598
0.028331924 -0.3947303 1.0316875
0.033996034 -0.39536363 1.0367142
0.02660219 -0.38439593 1.0325
0.032943498 -0.38664436 1.0383077
0.026144249 -0.37491047 1.0325385
0.031576943 -0.37576562 1.039
0.026759304 -0.36497739 1.0320001
0.033061258 -0.3644878 1.0376154
0.027998772 -0.35536361 1.0312001
0.034221929 -0.35524949 1.03705
0.028158514 -0.345671 1.0306923
0.034985494 -0.34491926 1.0367498
0.028918395 -0.33459875 1.0300001
0.034605481 -0.33502007 1.0365998
0.029156899 -0.32609221 1.0300001
0.035060532 -0.32476616 1.0371109
0.034978457 -0.31489027 1.0348749
0.040598925 -0.31306285 1.039
0.035992097 -0.30530873 1.0320528
0.044824012 -0.30388653 1.038739
0.051425308 -0.30494303 1.039
0.036711726 -0.29502073 1.0311249
0.044902071 -0.29468325 1.0360906
0.038179025 -0.28604484 1.0305002
0.044779547 -0.28527015 1.0367998
0.051876407 -0.28644797 1.039
0.038458485 -0.27547008 1.0300002
0.044491187 -0.27527303 1.0361112
0.038458485 -0.26473749 1.0300002
0.043684885 -0.26458582 1.0313336
0.038458485 -0.25579366 1.0300001
0.043692362 -0.25547621 1.0306818
0.038458485 -0.24506104 1.0300002
0.042815037 -0.24559826 1.030286
0.038458489 -0.2370116 1.0300001
0.042523872 -0.2361985 1.03
0.042230114 -0.22526592 1.0321177
0.036669716 -0.21018009 1.0300001
0.041588828 -0.21688798 1.0300001
0.028528597 -0.20174152 1.0312859
0.034968052 -0.20440874 1.0325001
0.040887538 -0.20488033 1.034875
0.017775528 -0.1924517 1.0308573
0.025390465 -0.1947924 1.0346286
0.034762733 -0.19482556 1.0364444
0.040481701 -0.19881013 1.036
0.0076139807 -0.18241918 1.0315001
0.015353452 -0.18504418 1.0354444
0.024433758 -0.18734206 1.0380526
0.032479141 -0.18765727 1.039
-0.0034858279 -0.17248733 1.0328333
0.0043277321 -0.17700733 1.0352857
0.012630777 -0.17953748 1.039
0.029772546 -0.17231989 1.039
0.033381339 -0.17186879 1.039
-0.020570816 -0.16009462 1.0300001
-0.014415783 -0.16408832 1.0334001
-0.007645024 -0.1675114 1.03625
-0.050979853 -0.15115079 1.0300001
-0.044266574 -0.15189381 1.031
-0.034590416 -0.15346435 1.0307058
-0.026044657 -0.15484022 1.0307502
-0.018946165 -0.15968911 1.039
-0.054812923 -0.1465511 1.0300002
-0.044955593 -0.14905977 1.0335455
-0.035782658 -0.14940731 1.0338572
-0.17592868 0.14886273 1.039
-0.42304334 0.15741149 1.0300002
-0.41529509 0.15849265 1.0341251
-0.20119023 0.15968911 1.039
-0.19429 0.15612517 1.0353333
-0.1855288 0.15248214 1.0342001
-0.17525487 0.15158379 1.0350001
-0.42259616 0.1605418 1.0300001
-0.41421318 0.1618204 1.0327275
-0.40480745 0.16452166 1.034179
-0.3962996 0.1679855 1.0351667
-0.20197347 0.16548626 1.0362729
-0.19718298 0.16313794 1.0316668
-0.40157813 0.17082722 1.0300001
-0.39523935 0.17514789 1.0320252
-0.38789037 0.17588374 1.0367501
-0.20396073 0.17493235 1.0368824
-0.19944748 0.17321226 1.0300001
-0.39229727 0.18316679 1.031
-0.38533905 0.18526505 1.0352106
-0.37922406 0.18615359 1.039
-0.20381695 0.18226317 1.034
-0.39100739 0.19595221 1.0304288
-0.38635889 0.19404869 1.0349615
-0.3789233 0.19036385 1.039
0.4090054 0.24954815 1.0375
0.41831091 0.24918737 1.036
0.42313105 0.24990894 1.039
0.4303486 0.24990894 1.039
0.44629729 0.24953295 1.0300001
0.45413536 0.24859641 1.0349091
0.46102336 0.24810454 1.039
0.55707252 0.24380109 1.03225
0.5644381 0.24406156 1.0349998
0.57109153 0.24269135 1.039
0.02780143 0.25922963 1.033
0.032197803 0.25847679 1.0300001
0.056346152 0.25847679 1.0300001
0.065765396 0.25945669 1.0375001
0.074681371 0.25849292 1.0342499
0.08495231 0.25979427 1.0352499
0.095057033 0.25998247 1.036
0.10671322 0.25938159 1.0377144
0.11064998 0.25998247 1.036
0.13556816 0.25943148 1.0370002
0.1426878 0.25971958 1.0367501
0.15678653 0.25942427 1.0368572
0.16433565 0.25769964 1.0316668
0.17545371 0.25794882 1.0326667
0.18574399 0.25685248 1.033375
0.19466433 0.25783712 1.0351428
0.20504791 0.25824028 1.0348001
0.2145016 0.25686395 1.0336001
0.22628379 0.25759542 1.033
0.23499507 0.25739604 1.0350769
0.24522619 0.25733501 1.0365455
0.25586632 0.25766489 1.0363333
0.2654244 0.25709173 1.0349091
0.27457491 0.25581086 1.0350627
0.28540954 0.25506997 1.0336
0.29469931 0.25566268 1.0325385
0.30462641 0.25453204 1.034875
0.31534916 0.25385454 1.0346667
0.32465991 0.25442374 1.0347501
0.33555159 0.25480396 1.0332502
0.3446089 0.25441471 1.0342858
0.35559112 0.2554082 1.0357001
0.36555296 0.25444412 1.0369
0.37317643 0.25346032 1.0377144
0.388174 0.25349373 1.034
0.39449617 0.25223118 1.0332143
0.40526393 0.25073805 1.0333334
0.41548187 0.25133407 1.033
0.42476052 0.25091022 1.0330002
0.43456441 0.25169715 1.0340002
0.44436404 0.25138608 1.034875
0.45118514 0.25025976 1.033
-0.56241173 0.26999348 1.033
-0.55898958 0.26920938 1.0300001
-0.49290106 0.26314121 1.039
-0.48428631 0.26717055 1.036
-0.4784393 0.26928991 1.0337501
-0.46238407 0.26785597 1.0340002
-0.45640761 0.26845741 1.034
-0.44324136 0.26965338 1.0340002
-0.43389654 0.26910397 1.035625
-0.42440882 0.26942199 1.0377144
-0.41419271 0.26812759 1.0347143
-0.40623677 0.26812908 1.0347145
-0.39426398 0.26892561 1.0335001
-0.38144726 0.26913241 1.0320001
-0.37497047 0.26856634 1.0334287
-0.35534054 0.26977572 1.0359999
-0.34441215 0.26860139 1.0340713
-0.33425757 0.2680811 1.0341539
-0.325003 0.26843932 1.0339376
-0.31538999 0.26776573 1.0347999
-0.30602193 0.26922545 1.0335001
-0.29915777 0.26960143 1.0315001
-0.28408378 0.26936612 1.0375
-0.27721488 0.26935709 1.034875
-0.26584426 0.26944575 1.0378001
-0.25474817 0.26819953 1.0330001
-0.24531847 0.26679754 1.0306667
-0.23417947 0.26655445 1.035647
-0.22832179 0.2678906 1.0356667
-0.21366499 0.26900059 1.0353334
-0.2040821 0.26855224 1.0353572
-0.19441348 0.26811641 1.0335624
-0.18466581 0.26776481 1.0331581
-0.17486222 0.26695201 1.0316502
-0.1690823 0.26640555 1.033
-0.092024229 0.2697573 1.039
-0.084642887 0.26652575 1.0363529
-0.074900709 0.26371109 1.0330001
-0.064350531 0.26369336 1.0317501
-0.055369075 0.26427466 1.033353
-0.044898767 0.26490578 1.0341668
-0.035688564 0.26458821 1.0349287
-0.026635518 0.26527333 1.0363001
-0.014606756 0.26563394 1.0384001
-0.0040958319 0.26480657 1.0353333
0.0057469639 0.26444784 1.0366924
0.015293086 0.26357803 1.0360001
0.024604904 0.26133633 1.0326667
0.045513574 0.26215705 1.0334287
0.054420013 0.26132473 1.0342001
0.06445428 0.26166064 1.033
0.07217066 0.26128432 1.0312002
0.085433871 0.26047021 1.0320002
0.094734192 0.26085678 1.0341251
0.10382032 0.26091549 1.0352499
0.11549623 0.26147744 1.0354545
0.12625684 0.26177645 1.0360001
0.13308059 0.26096597 1.0342001
0.14709656 0.26150313 1.0342001
0.15292938 0.26087195 1.0334287
-0.56379789 0.27350879 1.0350001
-0.55893433 0.27245551 1.0310001
-0.48028386 0.27099815 1.0300001
-0.47548309 0.27218765 1.0376364
-0.45069626 0.27077761 1.036
-0.44799751 0.27077761 1.036
-0.43055183 0.27088788 1.033
-0.42668492 0.27128187 1.0345
-0.36163652 0.27077761 1.036
-0.35379592 0.27094302 1.0315001
-0.34880951 0.27099815 1.0300001
-0.29409015 0.27113816 1.0343335
-0.28744918 0.27083275 1.0345
-0.27437598 0.27077761 1.036
-0.23179524 0.27137733 1.036
-0.22381239 0.27118191 1.0341251
0.046190992 -0.42415509 1.0430001
0.044810694 -0.41416079 1.0446001
0.038928948 -0.40467787 1.0426
0.042234704 -0.40563154 1.0459377
0.038485836 -0.39428684 1.0453001
0.0409506 -0.3951278 1.0480002
0.036732763 -0.38423979 1.0458335
0.0409506 -0.3885757 1.0480001
0.035901994 -0.37548432 1.0454092
0.0409506 -0.37401548 1.0480001
0.037824839 -0.36563519 1.0439092
0.041746475 -0.36439601 1.0476669
0.038906544 -0.35468292 1.0420001
0.042445537 -0.35416347 1.0468464
0.038906544 -0.34292048 1.0420001
0.044201646 -0.3445299 1.0461742
0.050050735 -0.34489506 1.0480001
0.038906544 -0.33206284 1.0420001
0.044723764 -0.3350926 1.0450001
0.045234986 -0.32520783 1.0450001
0.050050735 -0.3212347 1.0480001
0.045712005 -0.31501257 1.0447693
0.051378634 -0.31509626 1.04725
0.046172585 -0.30871564 1.0426
0.051573791 -0.30853796 1.0420001
0.04885938 -0.28229865 1.0420001
0.052176993 -0.28380668 1.0420001
0.017657341 -0.18063787 1.0427501
0.025709961 -0.18233106 1.0426
0.032104023 -0.18301134 1.0444001
0.005622806 -0.17305857 1.0442002
0.01510048 -0.17698699 1.0459377
0.025653496 -0.17673858 1.0454738
0.03244875 -0.17637745 1.0438
-0.013609823 -0.16128989 1.0450002
-0.0046133422 -0.16425356 1.0446087
0.0018161193 -0.16794828 1.0455002
-0.012740187 -0.15925233 1.0480001
-0.0045500668 -0.15925233 1.0480001
0.0027300401 -0.15925233 1.0480001
-0.18394463 0.14944434 1.0456002
-0.17824626 0.14929256 1.0420001
-0.4113484 0.15754542 1.0457501
-0.40524632 0.15753038 1.0460715
-0.39871585 0.15639231 1.0480002
-0.20309688 0.15697752 1.0465001
-0.19557656 0.15275989 1.0447
-0.18445283 0.15094385 1.0430001
-0.17824626 0.15110216 1.0420001
-0.40353608 0.16151369 1.0436155
-0.39461175 0.16474752 1.0454801
-0.38548586 0.16622704 1.0465002
-0.37947556 0.16835247 1.0480001
-0.21021308 0.16744246 1.0480001
-0.20672916 0.16430558 1.0445385
-0.38407546 0.17433046 1.0439655
-0.37695128 0.17556158 1.0469413
-0.21185957 0.17423347 1.0458573
-0.20849255 0.17436855 1.0420001
-0.38227943 0.18050827 1.0420001
-0.37579644 0.18469395 1.0447001
-0.21183079 0.1827399 1.0470002
-0.20916001 0.18290378 1.0427501
-0.3830958 0.19693913 1.0425454
-0.37712398 0.19523796 1.0448573
-0.38201892 0.20053725 1.0450001
0.45576864 0.24917912 1.0435001
0.4622868 0.24843365 1.0480001
0.56875837 0.24297357 1.0480001
0.57289618 0.24279968 1.04725
0.05881222 0.25967857 1.0420001
0.065669313 0.25933835 1.0455002
0.074621096 0.25935382 1.0480001
0.081432298 0.25967857 1.0420001
0.095065914 0.25926101 1.0447
0.10361847 0.25923452 1.0454286
0.11255738 0.2591553 1.0453751
0.13119648 0.25967857 1.0420001
0.14601697 0.25913352 1.0444547
0.15464669 0.25843167 1.0458573
0.16506192 0.25848767 1.0445002
0.17568664 0.25774327 1.04425
0.18456425 0.25715798 1.0450001
0.19476756 0.25637382 1.0432858
0.20454732 0.25715682 1.044625
0.21583742 0.25762957 1.046286
0.22534455 0.25756797 1.0453751
0.23612007 0.25632593 1.044143
0.24538842 0.25627658 1.0450001
0.25425604 0.25720578 1.0457501
0.26593816 0.25620177 1.0452728
0.27361855 0.25403467 1.0441
0.28324819 0.25570697 1.0455002
0.29590783 0.25591785 1.0467144
0.3043727 0.25461718 1.0445715
0.3130582 0.25449377 1.0430001
0.32504374 0.25418255 1.0462002
0.33523938 0.2544179 1.0447273
0.34481692 0.25346941 1.0450001
0.35409921 0.25465748 1.0453335
0.36384019 0.25374597 1.0444001
0.37442672 0.25258324 1.0456001
0.38653216 0.25556737 1.0474001
0.39476451 0.25273085 1.0432001
0.40470326 0.2513521 1.0450001
0.41751295 0.25087106 1.0430001
0.42647585 0.25044209 1.0450001
0.4360621 0.2511673 1.0455002
0.4448719 0.25107843 1.0445001
0.45227665 0.25025368 1.0480001
-0.49516404 0.26795074 1.0425
-0.48062223 0.2688936 1.0450001
-0.4772968 0.26950029 1.0450001
-0.46005604 0.26950029 1.0450001
-0.45369115 0.26859027 1.0450001
-0.44436482 0.26897711 1.0465001
-0.4355244 0.26894134 1.0458573
-0.42489019 0.26830271 1.0438751
-0.41468042 0.26768476 1.0450001
-0.40703648 0.26863572 1.0440001
-0.39835227 0.26950029 1.0450001
-0.36394769 0.26890239 1.0467144
-0.35501245 0.26846293 1.0441818
-0.34532011 0.26783419 1.0445715
-0.3337481 0.2669979 1.0435002
-0.32456586 0.26639998 1.0420001
-0.31645605 0.2675615 1.0427501
-0.30465108 0.26923871 1.0457501
-0.29461065 0.26791993 1.0459232
-0.28530192 0.2675862 1.0440769
-0.27836925 0.26892701 1.0456002
-0.25605938 0.26872659 1.0420001
-0.24409285 0.26768547 1.0450001
-0.224563 0.26843911 1.0447273
-0.21432553 0.26794928 1.0432001
-0.20551072 0.26707068 1.0426
-0.19454211 0.26641199 1.0450001
-0.18556306 0.26654926 1.045
-0.093058608 0.26747978 1.045
-0.085547917 0.26469338 1.0443333
-0.078717895 0.26329777 1.0420001
-0.062067602 0.26367551 1.0435001
-0.054666653 0.2627694 1.0434999
-0.044073474 0.26299524 1.0444001
-0.035546094 0.26249972 1.0447273
-0.024253016 0.26400253 1.0448002
-0.015709955 0.26472846 1.0454617
-0.0049916147 0.2644816 1.0455002
0.0054434086 0.26314685 1.0450001
0.013977215 0.26260293 1.0450001
0.021780405 0.2631458 1.0450001
0.047140948 0.26259327 1.044
0.053901102 0.26151302 1.0450001
0.087111205 0.26042619 1.0450001
0.091648243 0.26042619 1.0450001
0.11826555 0.26102942 1.0450001
0.12511787 0.26216331 1.0452144
-0.57239842 0.27209398 1.0480001
-0.56463575 0.27336383 1.0452728
-0.55873746 0.27473649 1.0456002
-0.49492744 0.27053621 1.0420001
-0.47476402 0.27072129 1.0437143
-0.46685901 0.2717675 1.0450001
-0.45380035 0.27059978 1.04575
-0.44523245 0.27040508 1.0450001
-0.42374927 0.27040508 1.0450001
-0.41892394 0.27053621 1.0420001
-0.4013159 0.27027395 1.0480001
-0.39482641 0.27124953 1.0465001
-0.38746336 0.2713151 1.0450001
-0.37052333 0.27131164 1.0450001
-0.36679047 0.2712383 1.0437144
-0.31213459 0.27027395 1.0480001
-0.30474746 0.27075762 1.0458573
-0.29559851 0.27049875 1.0428572
-0.27403992 0.27040508 1.0450001
-0.26390389 0.27027395 1.0480001
-0.23434407 0.27415541 1.0420001
-0.22348642 0.27053624 1.0420001
-0.21687061 0.27040508 1.0450001
0.048414797 -0.43025222 1.052
0.048449311 -0.4246161 1.0527501
0.050528318 -0.42168179 1.0580001
0.047992572 -0.41410258 1.0527501
0.05045668 -0.41603759 1.0565001
0.046583209 -0.40435067 1.0544376
0.050528318 -0.40698263 1.0580001
0.045161366 -0.39477703 1.0548502
0.050528318 -0.39412087 1.0580001
0.04477429 -0.384783 1.0540872
0.051447015 -0.38309652 1.0580001
0.045055341 -0.37551281 1.0524501
0.050289527 -0.37397298 1.0530001
0.046395514 -0.3656351 1.052
0.050265651 -0.36556706 1.0525001
0.046728365 -0.35590848 1.052
0.050825909 -0.3555204 1.0532858
0.048414797 -0.34803843 1.052
0.050241768 -0.34986541 1.052
0.008233103 -0.17197907 1.0535001
0.014652401 -0.17305608 1.0545002
0.022837166 -0.172649 1.052
-0.02107011 -0.16031605 1.0550001
-0.0027404602 -0.16168715 1.052
0.0039257356 -0.16554664 1.054143
0.01378045 -0.16995889 1.0580001
0.021130024 -0.16995889 1.0580001
-0.021690823 -0.15580897 1.0555
-0.015334691 -0.15646937 1.0548698
-0.0068570115 -0.15814456 1.0527501
-0.20211327 0.14974757 1.0580001
-0.19451682 0.14901671 1.0550001
-0.18689612 0.14823519 1.0528573
-0.41015553 0.15620622 1.052
-0.40284762 0.15711971 1.052
-0.39445651 0.15688294 1.0540001
-0.38426578 0.15759824 1.0580002
-0.37758434 0.15893453 1.0580001
-0.2120685 0.15744382 1.05725
-0.20544246 0.15465117 1.0538751
-0.19548616 0.15072531 1.052
-0.39399213 0.16134436 1.0527501
-0.38343623 0.16242525 1.0541668
-0.37524977 0.16531533 1.0564548
-0.36667985 0.1686158 1.0569092
-0.21379551 0.16500972 1.0550002
-0.37384087 0.1747241 1.0535002
-0.36501676 0.17527741 1.0557745
-0.3592104 0.17822716 1.0580001
-0.2157397 0.17569782 1.053875
-0.37204009 0.18528202 1.0543079
-0.3645035 0.18484683 1.0546367
-0.35868543 0.18439557 1.0580001
-0.22077809 0.18413442 1.0550001
-0.21589157 0.18509281 1.0535002
-0.37395886 0.19504467 1.0557061
-0.36686414 0.19321039 1.0568464
-0.3592104 0.19017021 1.0580001
-0.34584609 0.19384189 1.052
-0.37758434 0.20119457 1.0580001
0.44629133 0.24880584 1.0553751
0.45399362 0.24841237 1.0541
0.46458039 0.2482436 1.0566667
0.56910223 0.24390094 1.052
0.57653189 0.24328203 1.05725
0.58153498 0.24345462 1.0580001
0.068902254 0.25999117 1.0580001
0.070338473 0.25851673 1.052
0.0868866 0.25913298 1.0570002
0.09468402 0.25795248 1.053091
0.10421304 0.25915027 1.0567144
0.11655664 0.25862369 1.0545716
0.12439976 0.25868309 1.0560002
0.13394216 0.25962257 1.0565001
0.14574833 0.25839818 1.0556668
0.15396732 0.25645953 1.0538751
0.16512293 0.25856492 1.0550001
0.17538038 0.25745335 1.0544547
0.18379642 0.25653049 1.0545716
0.19670217 0.25720069 1.0556
0.20496114 0.25661415 1.0547001
0.21446489 0.25723752 1.0555003
0.22561586 0.25693089 1.0555003
0.23516726 0.25621235 1.0538001
0.24510771 0.256093 1.0542501
0.25525895 0.25617501 1.0544003
0.26392508 0.25599781 1.0533335
0.27443025 0.25431007 1.0535001
0.28568214 0.25546673 1.0545001
0.29457435 0.25471598 1.0543078
0.30497295 0.25453246 1.0540001
0.31558895 0.2554045 1.0555003
0.32480565 0.25452673 1.0556667
0.33528388 0.25391382 1.0545716
0.34415972 0.2531864 1.0537144
0.35563734 0.25275087 1.0554003
0.36429626 0.2523286 1.0550001
0.37411973 0.25216401 1.0560002
0.38530514 0.2550343 1.0565001
0.39423069 0.25405762 1.0562503
0.40386587 0.25204864 1.0546669
0.41657913 0.25196287 1.0561252
0.42481914 0.25089595 1.0553001
0.43567532 0.25068989 1.0546252
0.44323957 0.25057122 1.0537144
0.45804584 0.25009304 1.0550001
-0.57051063 0.26917812 1.0580001
-0.48254892 0.26848856 1.0565002
-0.47445592 0.26762336 1.0555003
-0.46674091 0.26887161 1.0550001
-0.45481944 0.26929832 1.0556
-0.44448799 0.26907393 1.0540001
-0.43467543 0.26804838 1.055231
-0.42560747 0.26689357 1.0558336
-0.41508365 0.26819038 1.056091
-0.40486494 0.2693584 1.0544001
-0.39656487 0.2693069 1.0554287
-0.37299973 0.26744437 1.0560002
-0.36490762 0.26634985 1.0532354
-0.35574952 0.26780239 1.0550001
-0.34519234 0.26773337 1.0563334
-0.33674249 0.26664239 1.0552502
-0.32976869 0.26765159 1.052
-0.31143817 0.26917812 1.0580001
-0.30512321 0.26762801 1.0548003
-0.29536289 0.26606306 1.0544002
-0.28498998 0.2676928 1.0562859
-0.27606803 0.26873735 1.0553751
-0.26125717 0.26947859 1.052
-0.25764284 0.2693584 1.0544001
-0.24938187 0.26947859 1.052
-0.2317712 0.26841486 1.0550001
-0.22454196 0.26773834 1.0547502
-0.21627426 0.26799306 1.05425
-0.20452821 0.26775676 1.0553001
-0.19475953 0.26621518 1.0550002
-0.18741412 0.26734075 1.0580001
-0.094582349 0.26621118 1.0545716
-0.08702524 0.26475054 1.0550001
-0.070739642 0.26734075 1.0580001
-0.065454319 0.26479003 1.0542501
-0.053712673 0.26416609 1.0556
-0.04637016 0.26327813 1.0540001
-0.032410368 0.26313421 1.0544001
-0.024516428 0.26193789 1.0543334
-0.013736166 0.2629438 1.0545001
-0.0050350316 0.2622098 1.0540001
0.0042527807 0.26245362 1.0558183
0.014648134 0.26211941 1.0542501
0.02476983 0.26376224 1.0562859
0.036288518 0.26412529 1.0580001
0.045304947 0.26303262 1.0562003
0.054420672 0.26153013 1.0543333
0.063030586 0.2603437 1.052
0.078559853 0.2603437 1.052
0.084954262 0.2603437 1.052
0.11875327 0.2603437 1.052
0.12484318 0.26064819 1.052
0.1352616 0.26046744 1.0525001
0.14159043 0.2603437 1.052
-0.57180709 0.27198255 1.0570002
-0.56553102 0.27234378 1.0536667
-0.48094815 0.27024704 1.0550001
-0.47477689 0.2707763 1.0535001
-0.46445853 0.27024704 1.0550002
-0.45648241 0.2707763 1.0535001
-0.44732931 0.2707763 1.0535001
-0.40674472 0.27116185 1.0550001
-0.39372241 0.27114171 1.0535001
-0.38823968 0.27259502 1.0570002
-0.37586656 0.27135527 1.0557501
-0.31360874 0.27024704 1.0550001
-0.2726059 0.27077627 1.0535002
-0.26737565 0.27067047 1.0538
-0.25284129 0.27024704 1.0550001
-0.24826086 0.27024704 1.0550001
0.052938104 -0.43348926 1.0660908
0.051886391 -0.42629883 1.0642858
0.05241533 -0.41362366 1.0642859
0.048828989 -0.40168753 1.0610001
0.052227911 -0.40479282 1.0637693
0.048828989 -0.39615971 1.0610001
0.052855201 -0.39492843 1.0651429
0.048828989 -0.3887893 1.0610001
0.051728833 -0.38483486 1.0616666
0.01566213 -0.17044082 1.0610001
0.0075157974 -0.16572565 1.0628573
0.01259959 -0.16687173 1.0617499
-0.38434517 0.14874898 1.064
-0.20284498 0.14912179 1.0666667
-0.19431813 0.14718087 1.0643749
-0.39307135 0.15383489 1.0651112
-0.38457066 0.15327308 1.0625217
-0.37454194 0.15628774 1.0650345
-0.36661348 0.15774365 1.0669091
-0.21467339 0.1563763 1.0656251
-0.20816939 0.15201531 1.0635999
-0.37312719 0.1621491 1.0610001
-0.36452088 0.16433515 1.0636251
-0.35598761 0.16664256 1.0671668
-0.34962228 0.16878316 1.0680001
-0.22164382 0.16785578 1.0680001
-0.2186245 0.16473311 1.0638335
-0.36022896 0.17320472 1.0610001
-0.35558873 0.1752497 1.06575
-0.34892675 0.17597038 1.068
-0.22136712 0.17382413 1.0666667
-0.2186572 0.17529088 1.0625
-0.35428035 0.18487264 1.0636773
-0.34846303 0.18501233 1.068
-0.2183485 0.18149643 1.0610001
-0.37312719 0.19930828 1.0610001
-0.36354387 0.19639519 1.0644739
-0.35534641 0.1938245 1.0655714
-0.34529448 0.19104031 1.0680001
-0.37363204 0.20190071 1.0656
-0.36813602 0.20116477 1.0643334
0.36521611 0.24891153 1.0630001
0.37326923 0.24880183 1.0674286
0.40897459 0.24946523 1.0680001
0.41737545 0.24937868 1.0650001
0.42460045 0.24917591 1.0644001
0.43464398 0.24918085 1.0635
0.44492134 0.24829873 1.0644546
0.4564414 0.24714135 1.063
0.46501517 0.24643344 1.0640714
0.47203642 0.2457557 1.0680001
0.57619601 0.24280792 1.0632222
0.58316106 0.24210437 1.0650002
0.037486821 0.25779167 1.066
0.045163441 0.25845769 1.0654546
0.050814867 0.25961778 1.064
0.08597488 0.25792131 1.0646365
0.09354946 0.256951 1.0631669
0.10709958 0.25943479 1.0632501
0.11509246 0.25817755 1.0649999
0.12537947 0.25710094 1.0650715
0.13422662 0.25865275 1.0646
0.14440703 0.2583074 1.0647
0.15550113 0.25732714 1.066
0.16613117 0.25855178 1.0643749
0.17442575 0.25707895 1.0644287
0.18399289 0.25648415 1.0648001
0.19363573 0.25849676 1.067
0.20496367 0.2563388 1.0642
0.21524559 0.25685161 1.0648
0.22464304 0.25543937 1.062
0.23496097 0.25556406 1.0647144
0.24610543 0.25533822 1.0634999
0.25565559 0.25515163 1.0650001
0.26520088 0.25488088 1.0641667
0.27795091 0.25664374 1.067
0.28627875 0.25508586 1.064375
0.29323316 0.25411212 1.0641668
0.3033236 0.25431311 1.0650001
0.31528306 0.25462782 1.06375
0.3250553 0.25364289 1.0653
0.33529326 0.25346518 1.0642729
0.34492928 0.25287291 1.0644001
0.35414466 0.25179252 1.0632857
0.36494315 0.25037873 1.064
0.37457597 0.25094706 1.0625
0.3854737 0.25220758 1.0639374
0.39450556 0.25218707 1.0632857
0.40492189 0.25111479 1.0627779
0.41403988 0.25109306 1.0635556
0.4296166 0.25037873 1.064
-0.57397097 0.26994139 1.0610001
-0.48368341 0.26717749 1.0610001
-0.47441754 0.2677671 1.0638573
-0.46596739 0.26991683 1.0633334
-0.45622668 0.26906568 1.06575
-0.44730633 0.2698676 1.0680001
-0.43669701 0.26625618 1.0610001
-0.41424334 0.26927799 1.0656668
-0.4058992 0.26950216 1.0634286
-0.39402735 0.26933667 1.0648571
-0.38372576 0.26892862 1.066125
-0.37804079 0.2680988 1.0610001
-0.36165953 0.26663262 1.0625
-0.35473242 0.26781839 1.0647779
-0.34527171 0.26690507 1.0617501
-0.33178237 0.2689411 1.0643334
-0.32459462 0.26910621 1.0650001
-0.31519958 0.26703689 1.0644999
-0.30658293 0.2659013 1.0648572
-0.28191832 0.2680988 1.0610001
-0.27448106 0.26924822 1.0643333
-0.26557088 0.26942074 1.0644166
-0.25586042 0.26959988 1.0648572
-0.2455204 0.26987815 1.067
-0.23562729 0.26894075 1.0658001
-0.22257119 0.26801282 1.0680001
-0.21436502 0.26824531 1.0652499
-0.20579676 0.26707643 1.0628
-0.19688764 0.26620713 1.0645001
-0.18443954 0.26823696 1.063375
-0.1768999 0.26801041 1.0652499
-0.094328791 0.26602465 1.0650001
-0.08412645 0.26594216 1.0646667
-0.075186603 0.26699781 1.0645834
-0.068783298 0.26619077 1.0656668
-0.054763395 0.26435846 1.0645
-0.045301072 0.26296026 1.0647143
-0.035571989 0.26278526 1.0652728
-0.026717748 0.26257098 1.0610001
-0.0153306 0.263212 1.0635999
0.00741904 0.26244855 1.0680001
0.015159297 0.2611483 1.0656154
0.024667688 0.26223224 1.06525
0.034966439 0.26244077 1.0653499
0.044070955 0.26144931 1.0630001
0.054549571 0.26095438 1.06475
0.064223886 0.26152706 1.06425
0.07576035 0.26146561 1.064
0.080943726 0.26068354 1.0633335
0.13911656 0.26072839 1.0610001
-0.58332205 0.27357709 1.0680001
-0.57714188 0.27289739 1.0617501
-0.45271426 0.27070466 1.064
-0.44994256 0.27070466 1.064
-0.39173645 0.27070466 1.064
-0.38512266 0.27216679 1.0625001
-0.32244343 0.27070466 1.064
-0.31753448 0.27142423 1.062
-0.25407434 0.27070466 1.064
-0.24564414 0.27119249 1.0635002
-0.5822314 -0.44088584 1.0780001
-0.57848716 -0.44088584 1.0780001
-0.56257409 -0.44088584 1.0780001
0.061780185 -0.44088584 1.0780001
-0.58527523 -0.43844876 1.0770001
-0.57848716 -0.43807766 1.0780001
0.057480037 -0.43451783 1.0723637
0.064426593 -0.4346571 1.0752631
0.073795184 -0.4340843 1.0777144
0.056503139 -0.42461959 1.0722632
0.065116517 -0.42542189 1.0743428
0.075378276 -0.42541358 1.0770664
0.056783795 -0.41472581 1.0720001
0.064516641 -0.4150205 1.0755384
0.072544903 -0.41584614 1.0780001
0.057165686 -0.40412459 1.0722001
0.062770277 -0.4058679 1.0753332
0.056843333 -0.39470217 1.0731429
-0.54010856 -0.23120765 1.0780001
-0.53445745 -0.23092169 1.0766667
-0.5513413 -0.22746339 1.0780001
-0.54104465 -0.22465521 1.0780001
-0.53457195 -0.22457208 1.0771111
-0.52803248 -0.22400813 1.074
-0.54104459 -0.21997489 1.0780001
-0.53407615 -0.21914284 1.0780001
-0.52887583 -0.21903883 1.0780001
-0.55227733 -0.20125362 1.0780001
-0.54450709 -0.20408769 1.076476
-0.53700376 -0.20336641 1.077143
-0.52700371 -0.20125362 1.0780001
-0.55392456 -0.19326992 1.0760001
-0.54470921 -0.19406024 1.0741559
-0.5361861 -0.19639339 1.0763476
-0.52644551 -0.19556208 1.0768573
-0.55435944 -0.18570106 1.0765882
-0.54545271 -0.18773931 1.077
-0.38257903 0.14924566 1.072
-0.37594408 0.14880395 1.0758572
-0.36454788 0.14845598 1.0767779
-0.35391781 0.14577353 1.076125
-0.21342245 0.14883408 1.0780001
-0.20403773 0.1472289 1.0754168
-0.19771169 0.14498501 1.0732858
-0.3808966 0.15086728 1.0725
-0.37413466 0.1512973 1.0722501
-0.36442316 0.15339918 1.0718635
-0.35626394 0.1560566 1.0739653
-0.34943646 0.1588338 1.076
-0.22209376 0.15698759 1.0761667
-0.21655275 0.15272589 1.0749376
-0.20983276 0.15014699 1.074
-0.35397902 0.16256563 1.0716925
-0.34750566 0.16542381 1.0750526
-0.22374244 0.16435085 1.0754001
-0.3452495 0.17529097 1.0737857
-0.339791 0.1787881 1.0780001
-0.22541526 0.17496724 1.0757694
-0.34503466 0.18449916 1.0738261
-0.339791 0.18440449 1.0780001
-0.2260593 0.18253234 1.0780001
-0.35081404 0.19314209 1.0745001
-0.34888014 0.19293037 1.0733335
0.58100361 0.23967564 1.074
0.59032947 0.23967564 1.074
0.25460923 0.24992892 1.0780001
0.37688014 0.24922904 1.077
0.38488618 0.24864508 1.0765001
0.39440969 0.249529 1.0774287
0.4090597 0.24992892 1.0780001
0.41630825 0.24853061 1.0756365
0.42467323 0.24674651 1.0739335
0.43554148 0.24797483 1.0736002
0.44444656 0.24762011 1.0753001
0.45603561 0.24730389 1.0740001
0.46435639 0.24550617 1.0733999
0.47199714 0.24532828 1.07425
0.57812577 0.24307691 1.0742
0.58440518 0.24177788 1.0734
0.59049273 0.24199063 1.076
0.013625192 0.25936007 1.0752001
0.029017964 0.25928956 1.0780001
0.032304462 0.25843495 1.0731667
0.055740349 0.25934833 1.0756668
0.068332627 0.25928956 1.0780001
0.077693254 0.25928956 1.0780001
0.084397539 0.25799972 1.0748572
0.095920011 0.25796533 1.0725
0.10491607 0.2592822 1.0744547
0.11468035 0.25733384 1.07375
0.12452461 0.25558293 1.0746666
0.13572052 0.25808603 1.0730001
0.14512891 0.25793526 1.0736667
0.15631217 0.25733948 1.0747499
0.16490076 0.25712955 1.0729001
0.17484432 0.25713587 1.0742222
0.18632764 0.25628641 1.07425
0.19477396 0.25709131 1.0751876
0.20491102 0.25660363 1.0746001
0.21499678 0.25553703 1.076154
0.22466466 0.25579363 1.0755556
0.23498546 0.25526494 1.0738751
0.24557915 0.25490767 1.0746667
0.25496501 0.25272658 1.0729334
0.26416641 0.25337955 1.075
0.275857 0.2561034 1.0758572
0.28501779 0.25498042 1.0749092
0.29419038 0.25351048 1.0755556
0.30514333 0.25496045 1.0746667
0.31572825 0.25343078 1.0745386
0.3252309 0.25228915 1.0738889
0.33559033 0.25230575 1.0743638
0.34562531 0.25203249 1.0754446
0.35454771 0.2526004 1.0757143
0.38501382 0.25016597 1.0710001
0.3947888 0.25095841 1.0728
0.4047679 0.2510657 1.0737143
0.41291335 0.25016597 1.0710001
-0.49147496 0.26951852 1.074
-0.4542681 0.26893127 1.0748572
-0.44657403 0.26893961 1.0766667
-0.43433338 0.26865017 1.0780001
-0.41163692 0.26872718 1.0733335
-0.40175873 0.26908433 1.076
-0.39530537 0.26850855 1.0737001
-0.38660347 0.26765141 1.074
-0.37559932 0.26815176 1.076
-0.36718193 0.26746643 1.0732501
-0.35438418 0.26765335 1.074
-0.34517032 0.26760349 1.0738001
-0.33518559 0.26889616 1.0752501
-0.3253603 0.26685783 1.0736251
-0.31609243 0.26343152 1.0720001
-0.30968502 0.26504573 1.0710001
-0.2840364 0.26911321 1.07425
-0.27515516 0.26880905 1.0749
-0.26513207 0.26730797 1.0732501
-0.25532287 0.26791459 1.0741251
-0.24509279 0.26693764 1.073222
-0.23498121 0.26841897 1.0745834
-0.22514321 0.26807123 1.0747501
-0.21502659 0.26682627 1.074154
-0.20535415 0.26718965 1.0742857
-0.19332421 0.26679289 1.0755556
-0.18456985 0.26705435 1.0742859
-0.17792249 0.26537037 1.0713751
-0.10015878 0.26303381 1.0780001
-0.095338054 0.26463857 1.0740001
-0.084842689 0.26477924 1.0737001
-0.075009927 0.26460344 1.0740716
-0.065448605 0.26585436 1.0751112
-0.055716321 0.26456153 1.0753334
-0.046067473 0.26290378 1.07175
-0.033698283 0.26350182 1.0780001
-0.026361734 0.26418748 1.0766001
-0.014010559 0.26273322 1.0755
-0.0049339323 0.26248497 1.0752144
0.004238402 0.26218072 1.0756924
0.014455145 0.2601926 1.074
0.025618548 0.26061755 1.072875
0.056521725 0.26061305 1.0742
0.065081455 0.26141298 1.0743079
0.075529121 0.26109943 1.0739001
-0.58608699 0.27370438 1.0758001
-0.47645625 0.2705223 1.0780001
-0.46550065 0.27056366 1.0752001
-0.45343459 0.27057397 1.0745001
-0.44784856 0.27057397 1.0745001
-0.42403671 0.27052233 1.0780001
-0.41530013 0.2705223 1.0780001
-0.40650192 0.27056366 1.0752001
-0.29205176 0.2705223 1.0780001
-0.28737146 0.2705223 1.0780001
-0.25388592 0.27062565 1.0710001
-0.57544339 -0.44113278 1.0816668
-0.56451619 -0.44121435 1.0817275
-0.55850768 -0.4421128 1.0810001
-0.59199953 -0.43610805 1.0847501
-0.58474177 -0.4364686 1.0844002
-0.57564527 -0.43667719 1.085
-0.56542718 -0.43882939 1.0843079
0.073529027 -0.42208788 1.0810001
0.068522789 -0.41019806 1.0810001
0.073082045 -0.41717109 1.0810002
-0.56023479 -0.2711423 1.0880001
-0.55439454 -0.27251646 1.0880003
-0.5488978 -0.27208704 1.0880001
-0.56023479 -0.26500145 1.0880001
-0.5545935 -0.26503545 1.0862
-0.54601032 -0.26413053 1.0863636
-0.56185436 -0.2552166 1.0880003
-0.55420363 -0.25514093 1.0849998
-0.54588902 -0.25532022 1.0859228
-0.5624097 -0.24411957 1.0873334
-0.55465233 -0.24482229 1.0849997
-0.54616535 -0.24448048 1.0854613
-0.53693104 -0.24342975 1.0880001
-0.56297934 -0.23428844 1.0835835
-0.55466169 -0.23508038 1.0830951
-0.54564351 -0.23528473 1.0838333
-0.53699708 -0.2341415 1.084143
-0.56309777 -0.22560373 1.0818422
-0.5548178 -0.22518335 1.0809999
-0.54677433 -0.22574973 1.0810001
-0.53644896 -0.22997375 1.0810001
-0.56190741 -0.2158559 1.0855557
-0.5548104 -0.21512088 1.0822728
-0.54536635 -0.21495503 1.0809999
-0.53522867 -0.2142041 1.0809999
-0.56260806 -0.20284137 1.0865
-0.55493945 -0.20632154 1.0819232
-0.54536629 -0.20932305 1.0810002
-0.5335809 -0.20640273 1.0810001
-0.52810907 -0.20534503 1.0818001
-0.56305194 -0.19553162 1.0838751
-0.55803835 -0.19712034 1.0810001
-0.54161167 -0.19054967 1.0810001
-0.53497851 -0.19280247 1.0810003
-0.5270623 -0.19101901 1.0810001
-0.55224985 -0.1840833 1.0810002
-0.54487222 -0.18392961 1.0810001
-0.53504097 -0.18491767 1.081
-0.52553779 -0.1851408 1.0831538
-0.5191201 -0.18183334 1.085
-0.55226272 -0.17605332 1.0813336
-0.54520988 -0.17568746 1.081
-0.53465545 -0.17501442 1.0818001
-0.52505022 -0.17541549 1.084515
-0.51606816 -0.17396584 1.0846189
-0.50969809 -0.17219774 1.0836668
-0.54480767 -0.16587523 1.0816152
-0.5348447 -0.16525805 1.0825133
-0.52488959 -0.16483286 1.0856922
-0.5153178 -0.16497466 1.0861536
-0.50851488 -0.16661119 1.0865
-0.53097874 -0.15840745 1.0846001
-0.52442008 -0.15957414 1.0874001
-0.51394224 -0.15966219 1.0880001
-0.36232597 0.14737093 1.0810001
-0.35437143 0.14781213 1.0854169
-0.22211723 0.14826445 1.0848001
-0.21503836 0.14602062 1.0831876
-0.20594962 0.14387903 1.0830002
-0.35353559 0.15289208 1.0835626
-0.34513322 0.15586859 1.0843846
-0.33916408 0.15871745 1.0880001
-0.22601303 0.15515247 1.0840911
-0.34284616 0.16451858 1.0817406
-0.33832428 0.16575056 1.0880002
-0.2314579 0.16656561 1.0862001
-0.22783805 0.16441631 1.0820001
-0.34155062 0.1734046 1.0818002
-0.33567914 0.17578524 1.0853
-0.32971659 0.17855713 1.0880001
-0.23319364 0.17569242 1.0855001
-0.22997375 0.17553098 1.0810002
-0.3430149 0.18727499 1.08375
-0.33516714 0.18353829 1.0839499
-0.32924423 0.18233611 1.0880001
-0.24024613 0.18183334 1.085
-0.23443344 0.18311051 1.0834547
-0.22872218 0.18523055 1.0810002
-0.35387796 0.19618168 1.0810001
-0.34532747 0.19294263 1.0860001
0.39601427 0.24897721 1.082
0.41472998 0.24865046 1.0855001
0.4272328 0.24749476 1.08375
0.43529788 0.24679704 1.0827501
0.44589397 0.24672435 1.0845002
0.45465598 0.24698909 1.0846251
0.46550116 0.24644291 1.0874001
0.47433859 0.24612562 1.0860001
0.58432198 0.24201883 1.0845001
0.59424567 0.24279992 1.0880001
-0.072745495 0.25980535 1.0880001
-0.010363558 0.25908896 1.085
-0.0054173144 0.25838235 1.085
0.0040859426 0.25873512 1.0848335
0.015109435 0.25968593 1.0875001
0.026260884 0.25871968 1.0857143
0.032853391 0.2581338 1.0810001
0.049057797 0.25944716 1.0865
0.055172741 0.25810835 1.0861669
0.064213127 0.25861737 1.0852858
0.075691655 0.25848567 1.0851113
0.083594956 0.25777492 1.085143
0.095921315 0.25861138 1.0830001
0.10540316 0.25804663 1.0838002
0.11552162 0.2564958 1.0856925
0.12419999 0.25452405 1.0856251
0.13535111 0.25752965 1.0840002
0.14512761 0.25802743 1.0853002
0.15374602 0.25797033 1.0862501
0.16637217 0.25739571 1.0874001
0.17550328 0.25610974 1.0840002
0.184559 0.25459516 1.0836431
0.19582115 0.25470239 1.0830002
0.20486999 0.25499615 1.0836365
0.21442921 0.25427505 1.085143
0.22445469 0.25463447 1.0861002
0.23407575 0.25437602 1.0845557
0.24459341 0.25463811 1.084778
0.25357419 0.2520723 1.084
0.26801372 0.25390762 1.0830001
0.27598423 0.25408071 1.0847501
0.28435749 0.25303108 1.0838574
0.29429632 0.25227958 1.0849003
0.30531564 0.2539573 1.0860002
0.31385976 0.25290933 1.0854446
0.32460877 0.25233215 1.0856669
0.33440909 0.25225481 1.0857146
0.34461027 0.25139728 1.0843334
0.35547766 0.25175598 1.085889
0.36480942 0.25357628 1.0856001
0.37248898 0.25241178 1.0860001
0.38640139 0.25035787 1.0880001
0.40712124 0.25112757 1.0848001
0.41096482 0.25035787 1.0880001
-0.48182082 0.26925281 1.0880001
-0.47457778 0.26925284 1.0880001
-0.46372649 0.26828462 1.0860001
-0.45460311 0.26716563 1.0839288
-0.44675928 0.26850846 1.0850002
-0.43647215 0.2692818 1.0866002
-0.42494866 0.26808637 1.086231
-0.4147056 0.26759493 1.0851251
-0.40504494 0.26814577 1.0843002
-0.39593008 0.26756564 1.0850002
-0.38563192 0.2690295 1.0858334
-0.37485066 0.26780865 1.0855557
-0.36513421 0.26854861 1.0851669
-0.35577655 0.26840168 1.0858334
-0.34379616 0.26797611 1.0847501
-0.33477631 0.26680884 1.0843638
-0.32598102 0.26662609 1.085
-0.31176639 0.26925281 1.0880001
-0.30326372 0.26925284 1.0880001
-0.29354587 0.26905364 1.0846668
-0.28388625 0.26839826 1.0845557
-0.27574509 0.26801586 1.0853002
-0.26284954 0.26623431 1.0834001
-0.25587818 0.26550931 1.0823752
-0.24396591 0.26657698 1.0848001
-0.23480092 0.26767057 1.0850002
-0.22508185 0.26710549 1.0835558
-0.21423917 0.26636076 1.0847778
-0.20406507 0.26714665 1.0842501
-0.19445911 0.26398155 1.0837059
-0.18639143 0.26334554 1.0828464
-0.17928566 0.26376581 1.0810001
-0.1010879 0.26358432 1.0880001
-0.094492033 0.26391909 1.0855001
-0.084785745 0.26346269 1.0849168
-0.074376918 0.26252949 1.0842146
-0.065000147 0.26395142 1.0848669
-0.055621531 0.26396787 1.0857003
-0.045788467 0.26417372 1.0861113
-0.034296274 0.26397103 1.0870001
-0.025110465 0.26386634 1.0856365
-0.015580603 0.26208964 1.0835558
-0.0040681418 0.2604844 1.0816668
0.0046933419 0.26001117 1.0810002
0.017859014 0.26033184 1.0823334
0.024405375 0.26001114 1.0810001
0.047987863 0.26065254 1.0836668
0.053567778 0.26033187 1.0823334
0.063829452 0.26001114 1.0810001
0.073685467 0.26001114 1.0810001
-0.59042239 0.27127516 1.0810001
-0.5871371 0.27268317 1.0810001
-0.49553615 0.27152121 1.0870001
-0.48182082 0.2711423 1.0880001
-0.47423232 0.27122533 1.0836252
-0.46678996 0.27064389 1.0860001
-0.4428066 0.27039465 1.085
-0.43244308 0.27039465 1.085
-0.42302164 0.27039465 1.085
-0.41360021 0.27039465 1.085
-0.40794736 0.27039465 1.085
-0.30238616 0.27144742 1.0862001
-0.29812968 0.27171192 1.0865
-0.2892375 0.27039465 1.085
-0.57239664 -0.44023198 1.095
-0.56669176 -0.44023198 1.095
-0.59513456 -0.43726632 1.0952001
-0.58377481 -0.43588409 1.0946001
-0.5742085 -0.4357529 1.0933077
-0.56731617 -0.4371272 1.0943751
-0.56443053 -0.30128387 1.098
-0.55902779 -0.30096608 1.098
-0.58286357 -0.29302084 1.098
-0.575028 -0.29243529 1.0969999
-0.56458378 -0.29411739 1.0967498
-0.5558905 -0.29370144 1.0961051
-0.58332366 -0.2877582 1.0966001
-0.57504106 -0.28524461 1.0972961
-0.56491041 -0.28502449 1.0956
-0.5557369 -0.28392348 1.0952272
-0.57110459 -0.27935499 1.098
-0.56636256 -0.27572662 1.0955834
-0.55426651 -0.27706915 1.0932857
-0.54629374 -0.27545142 1.097
-0.57110465 -0.26791382 1.098
-0.56591749 -0.26539916 1.0930771
-0.54446125 -0.26726055 1.0932666
-0.57305861 -0.25541115 1.0959002
-0.56722677 -0.25412712 1.0910001
-0.54325038 -0.25357828 1.0937499
-0.57376087 -0.24798298 1.0970001
-0.56698996 -0.24583776 1.0910001
-0.54269248 -0.24465521 1.0924547
-0.53757882 -0.24331498 1.0931667
-0.54283249 -0.23904842 1.0910001
-0.53754723 -0.23838463 1.09375
-0.57144582 -0.20347655 1.095
-0.56675595 -0.20681804 1.0932858
-0.57144582 -0.19872244 1.095
-0.52388549 -0.18473358 1.0910001
-0.52483284 -0.16010244 1.0910001
-0.51299089 -0.16057612 1.0910001
-0.50500745 -0.16264334 1.0928
-0.49673674 -0.16169527 1.0953752
-0.48866242 -0.16098294 1.0970001
-0.46432042 -0.16112967 1.098
-0.52407742 -0.15528424 1.0935382
-0.51443541 -0.15539549 1.0945832
-0.50505936 -0.1551514 1.0961999
-0.49570307 -0.15520339 1.0965598
-0.48819232 -0.15561888 1.0968001
-0.46527386 -0.15922281 1.098
-0.51008505 -0.14968851 1.098
-0.50372887 -0.1493707 1.098
-0.49448347 -0.14847507 1.0979999
-0.48847398 -0.1490529 1.098
-0.20936473 0.13926069 1.0910001
-0.3520512 0.14458166 1.0940001
-0.34977442 0.14778374 1.0952001
-0.33370051 0.14968851 1.098
-0.225106 0.14685403 1.095143
-0.21517199 0.14323579 1.0948334
-0.20841737 0.14115541 1.0910001
-0.34401512 0.15285945 1.0934166
-0.33490908 0.15516829 1.0952082
-0.32724202 0.15673365 1.0966001
-0.23194985 0.15685031 1.09475
-0.22795922 0.15144458 1.0923334
-0.33430043 0.16451399 1.0921197
-0.32577366 0.16482504 1.095857
-0.23525618 0.16513424 1.0942
-0.33172464 0.1729694 1.0915
-0.32532197 0.17481817 1.0950285
-0.3180643 0.17524044 1.0979999
-0.24099812 0.17526875 1.0970001
-0.23754981 0.17393482 1.0934002
-0.34009925 0.18852299 1.0910001
-0.33604348 0.18869731 1.09475
-0.32484278 0.18356463 1.0941999
-0.31809819 0.18251966 1.097625
-0.24055873 0.18160757 1.095
-0.34449014 0.19476166 1.0933573
-0.33846766 0.19163944 1.098
0.49292332 0.23931094 1.098
0.58826631 0.23931094 1.098
0.59017318 0.23931094 1.098
0.28231081 0.24915349 1.0910001
0.30845022 0.24771208 1.0930001
0.35538512 0.24905074 1.0933335
0.38995287 0.24884523 1.098
0.39185974 0.24884523 1.098
0.4079093 0.2486966 1.0940001
0.41455737 0.2474428 1.0935
0.42251885 0.2472588 1.0910001
0.4348062 0.24786967 1.0965002
0.44213364 0.24816534 1.095
0.4571746 0.2469316 1.0946001
0.46460494 0.2470452 1.0956668
0.47437572 0.24671346 1.0970001
0.48338902 0.24693839 1.098
0.49292332 0.24121779 1.098
0.58707416 0.24128813 1.0940001
0.59571218 0.24171039 1.0959167
0.60269678 0.24183908 1.0965
-0.074164346 0.25957522 1.095
-0.069410227 0.25957522 1.095
0.01614631 0.25838631 1.0940001
0.024914002 0.25791347 1.0930002
0.031262606 0.25862703 1.0910001
0.047799151 0.25862527 1.0936668
0.0540195 0.25599402 1.0914445
0.066298664 0.25829673 1.094625
0.075136453 0.25755104 1.0953001
0.084905885 0.25770551 1.0951428
0.096159965 0.25874382 1.0928334
0.10562778 0.25719348 1.0959094
0.1148397 0.25473356 1.0930002
0.12489095 0.2545175 1.0923334
0.13561553 0.25622615 1.0936999
0.14525037 0.25632218 1.0933001
0.15536948 0.25704324 1.0952727
0.16408628 0.25705844 1.0944166
0.17457472 0.25508088 1.0942726
0.19682078 0.25387031 1.095
0.20502605 0.25414667 1.0938573
0.21500401 0.25401366 1.095625
0.22457951 0.25305015 1.0928335
0.23503578 0.25431228 1.0945715
0.2447314 0.25328124 1.0938333
0.25282031 0.25243962 1.0954001
0.26788518 0.25363845 1.0940001
0.27586013 0.25193092 1.0932001
0.28414235 0.25091034 1.0935001
0.2935718 0.25199598 1.0965002
0.30558071 0.2514976 1.0942309
0.31441352 0.25143352 1.0947502
0.32626072 0.25143588 1.0954444
0.33454478 0.25096658 1.09375
0.3465949 0.25176197 1.0952858
0.35511637 0.2506718 1.0935001
0.36505422 0.25162467 1.0941538
0.37440357 0.25182137 1.0957499
0.38489956 0.25119829 1.0975715
0.39545622 0.25061509 1.0974001
0.4045487 0.25048754 1.0932859
-0.50081778 0.2694521 1.0965
-0.49462876 0.26920983 1.0963
-0.48392883 0.26750231 1.0952144
-0.47451916 0.26748475 1.0948824
-0.46574414 0.26661208 1.0946251
-0.45301798 0.26687682 1.09375
-0.44470942 0.26889756 1.0951113
-0.4345783 0.26860157 1.0943334
-0.4256835 0.26730078 1.0955
-0.41434202 0.26513779 1.0944285
-0.40641713 0.26682419 1.0951002
-0.39502513 0.26821285 1.0953335
-0.38437757 0.26734915 1.0957001
-0.37560472 0.26586732 1.0941668
-0.36489123 0.26664615 1.0939286
-0.35628101 0.26778397 1.0941429
-0.34402567 0.26638147 1.0952728
-0.3356761 0.26551571 1.0951113
-0.3299363 0.26718184 1.095
-0.31412068 0.26806274 1.09375
-0.30583712 0.26758832 1.0942501
-0.29500753 0.26746672 1.0935833
-0.28533933 0.26690978 1.0939
-0.27543449 0.26664412 1.09475
-0.26805562 0.26696998 1.0941429
-0.250067 0.26718184 1.095
-0.24450238 0.26661927 1.0956249
-0.23562248 0.26700297 1.0952501
-0.22416806 0.26623091 1.0954444
-0.21417688 0.26429078 1.0948572
-0.20559365 0.26470619 1.0936248
-0.19930682 0.26384485 1.0930001
-0.18454777 0.26444787 1.0955
-0.17970593 0.26528019 1.095
-0.10106358 0.2641001 1.098
-0.09429536 0.26235276 1.0947002
-0.084983543 0.26147228 1.0944287
-0.075525463 0.2612381 1.0940001
-0.065071747 0.26144552 1.0931112
-0.056064326 0.26258314 1.0943334
-0.044209965 0.26287973 1.0949166
-0.035505995 0.26253191 1.0943637
-0.024907883 0.26221085 1.0949
-0.016762886 0.26234204 1.0933335
0.010487731 0.26028639 1.098
0.037062205 0.26040405 1.0945001
0.043289397 0.26042086 1.0940001
-0.5944612 0.27462843 1.0962501
-0.49460331 0.27137291 1.0932859
-0.48720044 0.27175447 1.0930001
-0.47651792 0.27188993 1.0910001
-0.30788931 0.27188993 1.0910001
-0.60186356 -0.44008264 1.1090001
-0.59556609 -0.44105205 1.1066002
-0.57875198 -0.44200858 1.1090001
-0.60371667 -0.43770319 1.1078572
-0.59494287 -0.43748057 1.107643
-0.58451593 -0.43592039 1.1060002
-0.57336056 -0.43650442 1.1064446
-0.57393706 -0.31200606 1.1090001
-0.56632084 -0.31331921 1.1090002
-0.58067799 -0.30526519 1.1090001
-0.57518733 -0.30497071 1.1055999
-0.56567329 -0.30723304 1.1045336
-0.55880469 -0.30251849 1.1046001
-0.59405112 -0.29414099 1.1070001
-0.585244 -0.2956298 1.103091
-0.57509893 -0.29585713 1.1020002
-0.55518782 -0.29339451 1.103
