# .PCD v0.7 - Point Cloud Data file format
VERSION 0.7
FIELDS x y z
SIZE 4 4 4
TYPE F F F
COUNT 1 1 1
WIDTH 1543
HEIGHT 1
VIEWPOINT 0 0 0 1 0 0 0
POINTS 1543
DATA ascii
-0.12774399 0.23871352 1.4860001
-0.10624233 0.23694386 1.483
-0.095658503 0.23721074 1.4820001
-0.072259232 0.23871352 1.4860001
-0.032258585 0.23871352 1.4860001
-0.025489405 0.23761909 1.4824001
-0.015214589 0.23748849 1.4848001
-0.005577595 0.23678236 1.4820001
0.0056980043 0.23448351 1.4825715
0.0115662 0.23517941 1.48
0.099356443 0.23871352 1.4860001
0.10658236 0.23819737 1.4860001
0.11544095 0.23733215 1.4842857
0.12370624 0.23667179 1.4840001
0.13376561 0.23613283 1.4860001
0.14414473 0.23336354 1.4848001
0.15571128 0.23549722 1.4820001
0.16258326 0.23613283 1.4860001
0.17531087 0.23589447 1.4845001
0.18574288 0.23549722 1.4820001
0.1945796 0.2349548 1.4840001
0.2046634 0.23504464 1.4824001
0.21548736 0.23613283 1.4860001
0.22406648 0.23565611 1.483
0.23389427 0.23517941 1.48
0.24431427 0.23607484 1.4824001
0.2544564 0.23517941 1.48
0.26613349 0.23651288 1.4830002
0.27409983 0.23549722 1.4820001
0.28629887 0.23176964 1.4812001
0.29943606 0.23003887 1.48
0.30566525 0.23140688 1.4817144
0.31657001 0.23163489 1.4820001
0.32417792 0.23027202 1.4815
0.33447725 0.23027201 1.4815
0.34545904 0.23073833 1.4845001
0.35565844 0.23140688 1.4817144
0.36484987 0.23214126 1.4817144
0.37344414 0.23243548 1.483
0.38549697 0.23078497 1.4848001
0.39613542 0.23097149 1.4860001
0.40129679 0.23097147 1.4860001
0.42753175 0.23050517 1.483
0.4348166 0.23091458 1.4815
0.44561306 0.23485069 1.4825715
0.45395046 0.23241876 1.4832728
0.46581396 0.23097149 1.4860001
0.47935474 0.23003887 1.48
0.48449528 0.23003887 1.48
-0.20172368 0.24731581 1.4860001
-0.19791055 0.24674562 1.48
-0.18331516 0.24313377 1.4815
-0.17161568 0.24129421 1.4860001
-0.16578221 0.24031994 1.48
-0.15550114 0.24031994 1.48
-0.1435494 0.24169987 1.4817144
-0.1333316 0.24184054 1.4825715
-0.12842882 0.24354319 1.4840001
-0.11396354 0.24337994 1.483
-0.10795121 0.24031994 1.48
-0.083646558 0.24064469 1.4820001
-0.074694037 0.24080709 1.483
-0.065718941 0.24096946 1.4840001
-0.051405333 0.24289021 1.48
-0.044572942 0.24347894 1.4836
-0.035983734 0.24096251 1.48
-0.0012851334 0.24031994 1.48
0.10741675 0.24120608 1.4815
0.11309174 0.24031994 1.48
-0.77033502 0.25677833 1.4860001
-0.7643134 0.25591812 1.4860001
-0.75565839 0.25574154 1.48
-0.74501348 0.2572889 1.4825715
-0.73389411 0.25749317 1.4812001
-0.7268362 0.25792843 1.4815
-0.20176594 0.25060099 1.48
-0.19919567 0.25060099 1.48
0.50893801 0.2095627 1.4990001
0.51154125 0.2095627 1.4990001
0.54283684 0.2085841 1.4920001
0.55059022 0.2095627 1.4990001
0.57397485 0.20907339 1.4955001
0.5920679 0.20469743 1.4920001
0.60005224 0.2095627 1.4990001
0.61827505 0.2095627 1.4990001
0.62259048 0.20882875 1.4937501
0.77752995 0.20679705 1.4955001
0.78501791 0.20481883 1.4948002
0.79497278 0.20259596 1.4970001
0.80401391 0.20273644 1.4966668
0.81091654 0.20175292 1.4990001
0.82132959 0.20175292 1.4990001
0.48638779 0.21842155 1.4960001
0.49343339 0.21280853 1.4962001
0.51637441 0.21240981 1.4934001
0.52513731 0.21332677 1.4962001
0.5358963 0.21323691 1.4943335
0.54024577 0.2111752 1.4920001
0.55665755 0.21323286 1.4943335
0.56488168 0.21210244 1.4955001
0.5972501 0.2111752 1.4920001
0.60464638 0.21280611 1.4962001
0.61470944 0.21226758 1.4966668
0.6231612 0.2111752 1.4920001
0.30531874 0.22931294 1.4920001
0.31531185 0.22794011 1.4943335
0.32167256 0.22828332 1.4937501
0.34720832 0.22931294 1.4920001
0.35382921 0.22766554 1.4948001
0.36360288 0.22854923 1.4955001
0.38650677 0.22931294 1.4920001
0.39773488 0.22931294 1.4920001
0.42235041 0.22931294 1.4920001
0.43530595 0.22931294 1.4920001
0.44826144 0.22931294 1.4920001
0.4554987 0.22787829 1.4962001
0.46309146 0.22829467 1.4966668
0.48426864 0.22507872 1.495182
-0.1639289 0.23832075 1.4943335
-0.15528134 0.2359758 1.4920001
-0.14609319 0.23731402 1.4955001
-0.13732865 0.23708627 1.4920001
-0.11297755 0.23893799 1.4955001
-0.093495622 0.23764244 1.4955001
-0.085163824 0.23819579 1.4935557
-0.075801335 0.23700814 1.4948002
-0.043322891 0.23869154 1.4966668
-0.035530984 0.23834518 1.4934001
-0.025289124 0.23671353 1.4937501
-0.015577032 0.23634081 1.4955001
-0.0053768442 0.23459478 1.4950001
0.0012955534 0.23449516 1.4920001
0.10509989 0.23745704 1.4943335
0.11400869 0.23449516 1.4920001
0.12539053 0.23559535 1.4990001
0.13580358 0.23559535 1.4990001
0.14545149 0.23374361 1.4955001
0.15441602 0.2348619 1.4943335
0.16462974 0.23589353 1.4976001
0.17311701 0.23646311 1.4990001
0.18483171 0.23559535 1.4990001
0.19363718 0.23522863 1.4966668
0.20631514 0.2348619 1.4943335
0.21557245 0.23504525 1.4955001
0.22631632 0.23463462 1.4962001
0.23570698 0.23385099 1.4950001
0.24493639 0.23379342 1.4970001
0.25388122 0.23385099 1.4950001
0.26401156 0.23441458 1.4948001
0.27562833 0.2353203 1.4972501
0.28407678 0.23336783 1.4972501
0.33972588 0.23038881 1.4990001
0.34363079 0.23038881 1.4990001
0.37467495 0.23103821 1.4960001
0.38398135 0.23038881 1.4990001
0.39569604 0.23038881 1.4990001
0.40498266 0.23076762 1.4972501
0.41391885 0.23038881 1.4990001
0.42433196 0.23038881 1.4990001
0.43214172 0.23038881 1.4990001
0.44489297 0.23125465 1.4950001
0.4685874 0.23038881 1.4990001
0.47509557 0.23038881 1.4990001
0.4803021 0.23038881 1.4990001
-0.12326802 0.24394292 1.4943335
-0.11673504 0.24254961 1.4937501
-0.092415854 0.24080187 1.4990001
-0.064938746 0.24153519 1.4955001
-0.053630587 0.24177961 1.4943335
-0.045950118 0.24168184 1.4948001
-0.77447081 0.25555369 1.4990001
-0.76484245 0.25408202 1.4940001
-0.75494641 0.25642145 1.4990001
-0.744672 0.25558439 1.4966668
-0.73534626 0.25402495 1.4941002
-0.72700709 0.25487256 1.4937501
0.54793048 0.2079259 1.506
0.60023892 0.2079259 1.506
0.6255213 0.2079259 1.506
0.63423938 0.2079259 1.506
0.7780875 0.20531048 1.506
0.78724146 0.20269506 1.506
0.79378003 0.20007965 1.506
0.80598533 0.20007965 1.506
0.81601107 0.20269506 1.506
0.82516503 0.20269506 1.506
0.48603225 0.21664397 1.506
0.49126309 0.21402854 1.506
0.50477606 0.21054132 1.506
0.51785314 0.21054132 1.506
0.52569944 0.21184903 1.506
0.53485346 0.21402854 1.506
0.54269969 0.21141313 1.506
0.55490494 0.21054134 1.506
0.56100762 0.21315673 1.506
0.57277703 0.21054132 1.506
0.60677743 0.21054132 1.506
0.61418784 0.21054134 1.506
0.32038897 0.22884926 1.506
0.34915859 0.22884926 1.506
0.37400505 0.22884926 1.506
0.38446674 0.22884926 1.506
0.39362073 0.22884926 1.506
0.40539008 0.22884926 1.506
0.41628766 0.22884926 1.506
0.42500576 0.22884926 1.506
0.43415976 0.22884926 1.506
0.44462141 0.22884926 1.506
0.45551896 0.22710566 1.506
0.46946791 0.22884926 1.506
0.47679111 0.22832619 1.506
0.48254502 0.22754155 1.506
-0.11507848 0.23800322 1.506
-0.094155118 0.23582372 1.506
-0.086308867 0.23669551 1.506
-0.066693209 0.23865707 1.506
-0.052308403 0.23931094 1.506
-0.04838527 0.23669551 1.506
-0.015692519 0.2353878 1.506
-0.0039231302 0.23408009 1.506
0.10505271 0.23756734 1.506
0.11507848 0.23408009 1.506
0.12423246 0.23669551 1.506
0.13469413 0.23669551 1.506
0.15430978 0.23408009 1.506
0.16520737 0.23408011 1.506
0.17479724 0.23582372 1.506
0.19746421 0.23408009 1.506
0.20400277 0.23408009 1.506
0.21446444 0.23408009 1.506
0.22361843 0.23408011 1.506
0.23473395 0.23211853 1.506
0.24584949 0.23146468 1.506
0.25500345 0.23146468 1.506
0.26441896 0.23303394 1.506
0.2746191 0.23408009 1.506
0.28115767 0.23408009 1.506
0.2959784 0.23146468 1.506
0.47731417 0.23146468 1.506
-0.74539471 0.24977262 1.506
-0.12423246 0.24192636 1.506
-0.064077795 0.24192636 1.506
-0.05753924 0.24192636 1.506
-0.81339562 0.25761887 1.506
-0.80816483 0.25761887 1.506
-0.78331828 0.2567471 1.506
-0.77285659 0.25238803 1.506
-0.76762581 0.25500345 1.506
-0.75454867 0.25500345 1.506
-0.74583066 0.25238806 1.506
-0.7362408 0.25238806 1.506
0.64499021 0.19389276 1.5190001
0.79654586 0.19848038 1.5137501
0.81514096 0.19916876 1.5190001
0.51836634 0.20972075 1.5190001
0.52111685 0.20923752 1.5155001
0.53419435 0.20972075 1.5190001
0.547436 0.20923752 1.5155001
0.55621821 0.20907645 1.5143335
0.56585038 0.20972076 1.5190001
0.58162355 0.20875429 1.5120001
0.60525614 0.20875429 1.5120001
0.61313367 0.20875429 1.5120001
0.62520933 0.20684299 1.5151112
0.63472265 0.20579171 1.5134001
0.64424711 0.20684114 1.5172501
0.65026617 0.20708275 1.5190001
0.78603035 0.20308168 1.5137501
0.79088539 0.20134176 1.5155001
0.80481994 0.20087677 1.5120001
0.819098 0.20180675 1.5190001
0.82529992 0.20193443 1.5166668
0.83492595 0.20180675 1.5190001
0.40831813 0.21925765 1.5120001
0.41404849 0.21819545 1.5137501
0.48532271 0.21607804 1.5155001
0.49594337 0.21235874 1.5190001
0.50253838 0.21235874 1.5190001
0.52385509 0.21138012 1.5120001
0.53603101 0.21230708 1.5155001
0.54223597 0.21138012 1.5120001
0.56586856 0.21138012 1.5120001
0.5711202 0.21138012 1.5120001
0.61838531 0.21138012 1.5120001
0.23238684 0.229761 1.5120001
0.24682897 0.229761 1.5120001
0.26551527 0.22871098 1.5137501
0.27567065 0.22818671 1.5190001
0.31378788 0.229761 1.5120001
0.32954293 0.229761 1.5120001
0.3466109 0.229761 1.5120001
0.35580134 0.22713517 1.5120001
0.36272454 0.22818671 1.5190001
0.37723354 0.22818671 1.5190001
0.3857941 0.22680314 1.5163751
0.39548072 0.22622864 1.5160002
0.40527898 0.22576633 1.5134001
0.41561091 0.22450082 1.5143337
0.42527363 0.22436547 1.5155001
0.43379852 0.22650059 1.5148001
0.44582143 0.22818671 1.5190001
0.45466238 0.22700144 1.5155001
0.46505857 0.22622864 1.5160002
0.47555056 0.22420236 1.5155003
0.48281059 0.2226117 1.5134001
-0.12337559 0.2370234 1.5148001
-0.11698513 0.23659761 1.5137501
-0.064333081 0.23763853 1.5120001
-0.055211022 0.23791358 1.5137501
-0.045952201 0.23763853 1.5120001
-0.035448842 0.23763853 1.5120001
-0.017943241 0.23413742 1.5120001
0.098924875 0.2387387 1.5190001
0.10515669 0.23659761 1.5137501
0.1156722 0.23396873 1.5137501
0.12530485 0.2361007 1.5190001
0.14310828 0.23501268 1.5120001
0.15886332 0.23501268 1.5120001
0.16699818 0.23362075 1.5143335
0.17444615 0.23361872 1.5143335
0.1862067 0.2348972 1.5155001
0.19493945 0.23439269 1.5148001
0.20676467 0.23310409 1.5166668
0.21597777 0.2322896 1.5148001
0.22502598 0.23160577 1.5155001
0.2351692 0.23121524 1.5172501
0.24269569 0.23082471 1.5190001
0.25588569 0.23082471 1.5190001
0.26430014 0.23186612 1.5143335
0.2750324 0.23160577 1.5155001
0.28384846 0.23176198 1.5148001
0.29278117 0.23238684 1.5120001
0.33742046 0.23238684 1.5120001
-0.75248861 0.24863118 1.5190001
-0.74655306 0.24929069 1.5190001
-0.12604032 0.24026437 1.5120001
-0.064333081 0.24026437 1.5120001
-0.057768479 0.24026437 1.5120001
0.097377941 0.24082053 1.5155001
-0.80458903 0.25984269 1.5190001
-0.79469645 0.25588566 1.5190001
-0.78472704 0.25378054 1.5143334
-0.77689004 0.25324768 1.5190001
-0.76543236 0.25601941 1.5120001
-0.75667655 0.25332063 1.5155001
-0.74408937 0.2515417 1.5166668
-0.73694021 0.25266111 1.5155001
0.64488947 0.19465864 1.5250001
0.65415895 0.19995546 1.5250001
0.79452503 0.19995546 1.5250001
0.80909133 0.19995546 1.5250001
0.81306398 0.19995546 1.5250001
0.82498181 0.19995546 1.5250001
0.83425128 0.19995546 1.5250001
0.55484331 0.20790072 1.5250001
0.61708105 0.20790072 1.5250001
0.62635058 0.2052523 1.5250001
0.63826847 0.2052523 1.5250001
0.64488947 0.20436949 1.5250001
0.65151048 0.20392808 1.5250001
0.47803923 0.21717018 1.5250001
0.48466027 0.21452175 1.5250001
0.49525395 0.21054913 1.5250001
0.50319922 0.21054913 1.5250001
0.51776546 0.21054913 1.5250001
0.52835912 0.21054913 1.5250001
0.53498018 0.21054913 1.5250001
0.54424965 0.21054915 1.5250001
0.57603067 0.21054915 1.5250001
0.61310846 0.21054913 1.5250001
0.2211428 0.22908805 1.5250001
0.23438488 0.22908805 1.5250001
0.24497855 0.22908805 1.5250001
0.25027537 0.22908805 1.5250001
0.26351747 0.22908805 1.5250001
0.27499396 0.22908805 1.5250001
0.32310686 0.22908805 1.5250001
0.34826681 0.22908805 1.5250001
0.35223943 0.22908805 1.5250001
0.36680573 0.22908805 1.5250001
0.38357902 0.22555682 1.5250001
0.39726251 0.22379121 1.5250001
0.40476638 0.22467403 1.5250001
0.43831298 0.22643963 1.5250001
0.44096139 0.22643963 1.5250001
0.46744555 0.22379121 1.5250001
0.47274241 0.2220256 1.5250001
-0.059589379 0.23703329 1.5250001
0.094018802 0.23968172 1.5250001
0.10461246 0.23703329 1.5250001
0.12315138 0.23570909 1.5250001
0.13771766 0.23703329 1.5250001
0.14566293 0.23703329 1.5250001
0.16420183 0.23372278 1.5250001
0.17611971 0.23306067 1.5250001
0.18406497 0.23438488 1.5250001
0.19554144 0.23350208 1.5250001
0.20525229 0.23306067 1.5250001
0.21584596 0.23173647 1.5250001
0.28735322 0.23173647 1.5250001
0.29397425 0.23173647 1.5250001
0.30059531 0.23173647 1.5250001
0.31383738 0.23173647 1.5250001
0.33767313 0.23438488 1.5250001
0.3456184 0.23173647 1.5250001
-0.80247033 0.24497855 1.5250001
-0.7958492 0.24762696 1.5250001
-0.71374834 0.24630277 1.5250001
-0.8223334 0.25822064 1.5250001
-0.81262255 0.25733787 1.5250001
-0.80511874 0.25491014 1.525
-0.79531956 0.25080505 1.5250001
-0.77519155 0.25398317 1.5250001
-0.76583385 0.25380659 1.5250001
-0.74552929 0.25027537 1.5250001
-0.73493564 0.25557223 1.5250001
-0.72566617 0.25424802 1.5250001
-0.71450502 0.25386965 1.525
-0.81438816 0.26086906 1.5250001
-0.71507251 0.26086906 1.5250001
0.64784962 0.19821271 1.5320001
0.65465689 0.19866556 1.5355
0.81679606 0.19821271 1.5320001
0.82533479 0.19866556 1.5355
0.83550042 0.19758655 1.5360001
0.84207147 0.19821271 1.5320001
0.49333057 0.20933217 1.5355
0.50514597 0.20980932 1.539
0.53684366 0.20949122 1.5366668
0.54657328 0.20980933 1.539
0.555085 0.20815486 1.5366668
0.56400973 0.20828222 1.5343335
0.5733301 0.20866399 1.5355
0.5813188 0.20980932 1.539
0.61472797 0.20980932 1.539
0.6255011 0.20697831 1.5350002
0.63454676 0.20353387 1.5320001
0.64532667 0.20266452 1.5355
0.65258354 0.20243305 1.5337501
0.40224588 0.2178275 1.539
0.46906412 0.2178275 1.539
0.47583556 0.21621004 1.5363076
0.48428297 0.21293198 1.5340002
0.53610551 0.21151559 1.5320001
0.58532619 0.21151559 1.5320001
0.23920934 0.22851843 1.539
0.26326391 0.22851843 1.539
0.2752912 0.22851843 1.539
0.32473671 0.22851843 1.539
0.3546586 0.22799873 1.5355
0.36482766 0.22851843 1.539
0.3791317 0.22747903 1.5320001
0.38643545 0.2249207 1.53725
0.39522117 0.22278926 1.536375
0.40401575 0.22296754 1.5376
0.43599451 0.22399572 1.5355
0.44542986 0.2269346 1.5343335
0.45466107 0.22666235 1.5355
0.46484765 0.22336209 1.5347999
0.47199431 0.22132906 1.5355
0.089536458 0.23920934 1.539
0.094824933 0.23706877 1.538125
0.10533883 0.23732896 1.5355
0.11174408 0.23546074 1.5320001
0.12637725 0.23546074 1.5320001
0.13419519 0.23717049 1.5362
0.14416483 0.23626764 1.53725
0.15465973 0.23599868 1.5355
0.16570926 0.23386388 1.539
0.17773655 0.23386388 1.539
0.18399289 0.23333202 1.5355
0.19540858 0.23226385 1.5343335
0.2054882 0.23172751 1.5366668
0.21361552 0.23226385 1.5343335
0.22614874 0.2301396 1.5320001
0.23368703 0.2301396 1.5320001
0.24432933 0.2301396 1.5320001
0.25791845 0.23119116 1.539
0.26132882 0.23066539 1.5355
0.28731847 0.23119116 1.539
0.29533666 0.23119116 1.539
0.30666193 0.23199567 1.5355
0.31453869 0.23130265 1.5362
0.32458997 0.2301396 1.5320001
0.33561367 0.23173277 1.5337501
0.34399506 0.23155224 1.5355
0.37437588 0.23049013 1.5343335
-0.8101446 0.24876362 1.5320001
-0.80415833 0.24809848 1.5320001
-0.79650086 0.24792671 1.5334001
-0.7831099 0.24990027 1.539
-0.77518487 0.2491384 1.5376
-0.7653321 0.24933195 1.5355
-0.75624961 0.24881992 1.5378335
-0.72323263 0.24787676 1.5320001
-0.83294207 0.25762212 1.53725
-0.82468396 0.25694364 1.5347999
-0.81514674 0.25325033 1.5334001
-0.80748403 0.25142419 1.5320001
-0.7915206 0.25142419 1.5320001
-0.78496605 0.25188372 1.5348001
-0.77342874 0.25248843 1.5320001
-0.76757544 0.25142419 1.5320001
-0.74338573 0.25454915 1.5348001
-0.7341665 0.2542873 1.53725
-0.7263366 0.25275448 1.5320001
-0.83790088 0.26059118 1.539
0.83634222 0.19733918 1.5460001
0.49401915 0.20807873 1.5460001
0.54503196 0.20807873 1.5460001
0.55308664 0.20807873 1.5460001
0.57053846 0.20807873 1.5460001
0.58127797 0.20807873 1.5460001
0.60812682 0.20807873 1.5460001
0.61483902 0.20807873 1.5460001
0.62155128 0.20807873 1.5460001
0.63497579 0.20360391 1.5460002
0.64034551 0.20270894 1.5460001
0.65108502 0.20002407 1.5460001
0.83097243 0.20002407 1.5460001
0.46851274 0.21747583 1.5460001
0.47432995 0.21344849 1.5460002
0.48596451 0.2107636 1.5460001
0.5168407 0.21344849 1.5460002
0.52221048 0.21344849 1.5460001
0.53384495 0.21076362 1.5460002
0.58799016 0.2107636 1.5460001
0.62155128 0.2107636 1.5460001
0.20539384 0.22955781 1.5460001
0.21613339 0.22955781 1.5460001
0.23627004 0.22955781 1.5460001
0.24566714 0.22955781 1.5460001
0.28057066 0.22955781 1.5460001
0.29131022 0.22955781 1.5460001
0.30607709 0.22955781 1.5460001
0.31413174 0.22955781 1.5460001
0.32442385 0.22955781 1.5460002
0.3315835 0.22955781 1.5460001
0.3463504 0.22955781 1.5460001
0.35485253 0.22776788 1.5460002
0.36380213 0.22821537 1.5460001
0.37588415 0.22955781 1.5460001
0.38528126 0.22553049 1.5460001
0.39870569 0.22150315 1.5460001
0.41347256 0.22418804 1.5460001
0.44613871 0.22597799 1.5460002
0.45508832 0.22418806 1.5460002
0.46493289 0.22239813 1.5460002
0.088601261 0.23627004 1.5460001
0.097998366 0.23627004 1.5460001
0.10336813 0.23761247 1.5460002
0.12618968 0.23492759 1.5460001
0.13424434 0.23492759 1.5460001
0.14364144 0.23492759 1.5460001
0.16243565 0.23492759 1.5460001
0.17049031 0.2322427 1.5460001
0.18928452 0.2322427 1.5460001
0.19331184 0.2322427 1.5460001
0.21613339 0.2322427 1.5460001
0.22150315 0.2322427 1.5460001
0.25640669 0.2322427 1.5460001
0.30204976 0.2322427 1.5460001
0.33963817 0.2322427 1.5460001
-0.78667182 0.24835202 1.5460001
-0.77593231 0.24835202 1.5460001
-0.76653516 0.24835202 1.5460002
-0.73297405 0.24835202 1.5460001
0.087258816 0.24029736 1.5460001
-0.84260696 0.25819665 1.5460002
-0.83455229 0.2546168 1.5460002
-0.82470775 0.25282687 1.5460002
-0.79338402 0.25103691 1.5460001
-0.75176829 0.25237936 1.5460001
-0.74505615 0.2537218 1.5460002
-0.73700142 0.25282687 1.5460002
0.64054781 0.1982327 1.5530001
0.65403301 0.1982327 1.5530001
0.84552312 0.19553564 1.5530001
0.48681635 0.20902087 1.5530001
0.49221042 0.20902087 1.5530001
0.50299859 0.20902088 1.5530002
0.51108974 0.20902087 1.5530001
0.53671169 0.20902087 1.5530001
0.54480278 0.20699808 1.5530001
0.55559099 0.20632382 1.5530001
0.57851583 0.20902087 1.5530001
0.58570796 0.20902088 1.5530002
0.59469813 0.20902088 1.5530002
0.60413772 0.20902087 1.5530001
0.61897147 0.20632382 1.5530001
0.62571406 0.20632382 1.5530001
0.63380516 0.20497531 1.5530001
0.64459342 0.20227826 1.5530001
0.65133595 0.20092973 1.5530001
0.85091722 0.20092973 1.5530001
0.46685821 0.21765141 1.5530001
0.47333112 0.21306643 1.5530001
0.51783234 0.2117179 1.5530001
0.52862048 0.2117179 1.5530001
0.59604657 0.2117179 1.5530001
0.60413778 0.2117179 1.5530001
0.61088032 0.2117179 1.5530001
0.31555408 0.22790016 1.5530001
0.34657007 0.2272259 1.5530001
0.35331267 0.22790016 1.5530001
0.36544937 0.22790016 1.5530001
0.37533855 0.22790018 1.5530002
0.38432869 0.22655165 1.5530001
0.39511687 0.22250608 1.5530001
0.40860209 0.22250608 1.5530001
0.41129911 0.22250608 1.5530001
0.4477092 0.22520313 1.5530001
0.4544518 0.2238546 1.5530001
0.46389148 0.22250608 1.5530001
0.087653913 0.23329425 1.5530001
0.091699481 0.23329425 1.5530001
0.10248765 0.2359913 1.5530001
0.1119273 0.2359913 1.5530001
0.12136695 0.2359913 1.5530001
0.13485217 0.2359913 1.5530001
0.14608985 0.2359913 1.5530002
0.15507999 0.2359913 1.5530002
0.16407013 0.23419327 1.5530002
0.18474749 0.23329425 1.5530002
0.19688417 0.23059721 1.5530001
0.2045258 0.23059723 1.5530002
0.21306643 0.23059721 1.5530001
0.23194572 0.23059721 1.5530001
0.24677947 0.23059721 1.5530001
0.26835582 0.23059721 1.5530001
0.27240139 0.23059721 1.5530001
0.28723514 0.23059723 1.5530002
0.29667479 0.23059721 1.5530001
0.30206886 0.23059721 1.5530001
0.33713043 0.23059721 1.5530001
0.34252453 0.23059721 1.5530001
-0.78483963 0.24543096 1.5530002
-0.75292462 0.24857752 1.5530002
-0.74393451 0.24947652 1.5530002
-0.84498376 0.25541002 1.5530001
-0.83473492 0.2521736 1.5530002
-0.82799232 0.25217357 1.5530001
-0.79697633 0.25217357 1.5530001
-0.75247514 0.25217357 1.5530001
-0.74438399 0.25217357 1.5530001
0.83578825 0.1991262 1.5600001
0.84391582 0.19777161 1.5600001
0.46399131 0.2081838 1.567
0.47585103 0.20907341 1.5635
0.48481506 0.20951821 1.5617501
0.49146235 0.20907339 1.5635
0.50617236 0.2081838 1.567
0.51402211 0.20877686 1.5646667
0.53506702 0.20996301 1.5600001
0.54410404 0.2055676 1.5626252
0.55403143 0.2045446 1.5600002
0.56468153 0.20682311 1.567
0.57401937 0.20762579 1.5628
0.58650607 0.20708154 1.5628
0.59464288 0.20635812 1.5635002
0.60414642 0.20635812 1.5635002
0.6150012 0.20665668 1.5623335
0.62631917 0.20454995 1.5635002
0.63537216 0.20319131 1.5635002
0.64173543 0.20062494 1.5646667
0.65156263 0.20183541 1.5600001
0.82766062 0.20183541 1.5600001
0.45772681 0.21704495 1.5642
0.46460658 0.21405798 1.5645001
0.47360396 0.2119654 1.5628
0.52534288 0.21149418 1.5646667
0.53338587 0.21090515 1.567
0.16464208 0.22995465 1.567
0.19700053 0.22961223 1.5646667
0.2045446 0.22892742 1.5600002
0.21420741 0.22961223 1.5646667
0.22587261 0.22995465 1.567
0.23392835 0.22850388 1.5617501
0.2470873 0.22944102 1.5635
0.27580237 0.22961223 1.5646667
0.2854279 0.22969782 1.56525
0.29562953 0.22918421 1.5617501
0.30587631 0.22824974 1.5628
0.31383017 0.22745964 1.5623335
0.32514611 0.22820136 1.5630002
0.33533567 0.22644997 1.5635003
0.34438881 0.2249105 1.5635002
0.35500458 0.22548696 1.5630002
0.3665626 0.22740304 1.5635
0.37548265 0.22757211 1.5656
0.38458416 0.22553571 1.5628
0.39235166 0.22401047 1.5635
0.40367082 0.2207998 1.5600001
0.4158909 0.22247796 1.5642
0.42086512 0.2226498 1.5635
0.44530261 0.22401047 1.5635
0.45455003 0.22252749 1.5626252
0.46282169 0.22170287 1.5600002
0.096008733 0.23323262 1.5646667
0.10544129 0.23532109 1.5635002
0.11502986 0.23594992 1.5646667
0.12476149 0.23460869 1.5617501
0.13560739 0.23460869 1.5617501
0.1453758 0.23504685 1.5646667
0.15477087 0.23351091 1.5635002
0.16434789 0.23334394 1.5642
0.17481056 0.23323262 1.5646667
0.18357454 0.23238635 1.5614001
0.1923532 0.23163661 1.5600001
0.22486362 0.23163661 1.5600001
0.25601941 0.23163661 1.5600002
0.26279241 0.23163661 1.5600001
-0.83953857 0.24900414 1.567
-0.79515022 0.24789181 1.5600001
-0.78160423 0.24653721 1.5600001
-0.77889502 0.24789181 1.5600001
-0.76334059 0.24900414 1.567
-0.75586224 0.24772625 1.5646667
-0.85286987 0.25212169 1.56525
-0.84575683 0.25245142 1.5614001
-0.83578825 0.25060099 1.5600002
-0.82630599 0.25060099 1.5600001
-0.80280024 0.25172549 1.567
-0.76263982 0.25060099 1.5600001
-0.75993061 0.25060099 1.5600001
-0.74909383 0.25060099 1.5600001
0.84602237 0.19817972 1.5740001
0.85558969 0.19817972 1.5740001
0.46551734 0.20802037 1.5740002
0.47289783 0.20911378 1.5740001
0.52346784 0.2082026 1.5740001
0.53576863 0.20911378 1.5740001
0.54533589 0.20501351 1.5740001
0.56720406 0.20638026 1.5740001
0.57540464 0.20638028 1.5740001
0.58497185 0.20638026 1.5740001
0.59453917 0.20364675 1.5740001
0.60684001 0.20364675 1.5740001
0.61504048 0.20501351 1.5740001
0.62597454 0.20364675 1.5740001
0.63417512 0.20227998 1.5740001
0.64100891 0.20091324 1.5740001
0.65604317 0.20227998 1.5740001
0.66014349 0.20091324 1.5740001
0.82688779 0.20364675 1.5740001
0.83782184 0.20091324 1.5740001
0.8432889 0.20091324 1.5740001
0.86379027 0.20091324 1.5740001
0.34852296 0.21594757 1.5740001
0.35344329 0.2162209 1.5740002
0.45786351 0.21458082 1.5740001
0.46059701 0.21184729 1.5740001
0.19681296 0.22824837 1.5740001
0.20227998 0.22824837 1.5740001
0.2337154 0.22824837 1.5740001
0.2774516 0.22824837 1.5740001
0.28382981 0.22824839 1.5740001
0.29521945 0.22824837 1.5740001
0.30342001 0.22824837 1.5740001
0.31435403 0.22551486 1.5740001
0.32118782 0.22551486 1.5740001
0.34578943 0.22095901 1.5740001
0.35535675 0.22095899 1.5740002
0.36355728 0.22551486 1.5740001
0.37403578 0.22551486 1.5740001
0.38610876 0.22346473 1.5740001
0.39499268 0.22551486 1.5740001
0.40045971 0.22278135 1.5740001
0.45330763 0.22095901 1.5740001
0.096128568 0.23098189 1.5740001
0.10524027 0.23280424 1.5740001
0.11070729 0.2337154 1.5740001
0.13804242 0.2337154 1.5740001
0.14760971 0.2337154 1.5740001
0.15581027 0.23098189 1.5740001
0.16537756 0.23098189 1.5740001
0.17084458 0.23098189 1.5740001
0.1858789 0.23098189 1.5740001
0.19271269 0.23098189 1.5740001
0.21731432 0.23098189 1.5740001
0.22688162 0.23098189 1.5740001
0.24328271 0.23098189 1.5740001
0.25285 0.23098189 1.5740001
0.26378405 0.23098189 1.5740001
-0.75854999 0.24738297 1.5740001
-0.85558969 0.25011647 1.5740001
-0.84602243 0.25011647 1.5740001
-0.83782184 0.25285 1.5740001
-0.82688779 0.25011647 1.5740001
-0.81322026 0.25285 1.5740001
-0.75308293 0.25011647 1.5740001
-0.71481377 0.25558349 1.5740001
0.84703922 0.19906108 1.5810001
0.85424775 0.19671276 1.5842001
0.86597842 0.19793659 1.5830002
0.87156212 0.19546907 1.5890001
0.46518528 0.20713615 1.585
0.47620618 0.20782256 1.585
0.50932181 0.20729809 1.5810001
0.51530325 0.20661385 1.5842001
0.52463537 0.20516931 1.5857999
0.53547698 0.20484017 1.5865383
0.54455477 0.20506763 1.5850003
0.55329245 0.20282792 1.5890001
0.56428647 0.20506996 1.5850002
0.5746448 0.20601514 1.5870001
0.58502746 0.20558748 1.5890001
0.59449619 0.20481119 1.5830002
0.60511225 0.20323256 1.585
0.61503011 0.20249319 1.5810001
0.62484056 0.20323257 1.5850003
0.63580531 0.2016633 1.5842001
0.64435804 0.20006835 1.5890001
0.82716131 0.20369017 1.585
0.83583254 0.2029686 1.5858002
0.84304661 0.20098822 1.5890001
0.3932378 0.2193853 1.5890001
0.44566947 0.2193853 1.5890001
0.45542896 0.2154866 1.5853077
0.48461077 0.21004376 1.5810001
0.4954606 0.21057518 1.585
0.50467563 0.21039805 1.5836668
0.53128713 0.21004376 1.5810001
0.16748586 0.22926345 1.5810001
0.18580166 0.22846371 1.5850003
0.1936083 0.22830378 1.5858002
0.20394546 0.22806385 1.5870001
0.21004376 0.22926345 1.5810001
0.22514495 0.22926345 1.5810001
0.23554671 0.22728191 1.5863335
0.24436463 0.22926345 1.5810001
0.25122881 0.22926345 1.5810001
0.26633 0.22926345 1.5810001
0.27593985 0.22926345 1.5810001
0.28477255 0.22798388 1.5874002
0.2949973 0.22711208 1.5890001
0.30553699 0.22617105 1.585
0.31459025 0.22490442 1.5890001
0.3248018 0.22571111 1.5850002
0.33497176 0.22583136 1.5810001
0.34632522 0.22214486 1.5890001
0.36533016 0.22506478 1.5836668
0.37728187 0.22425346 1.5876669
0.38560343 0.22310175 1.586
0.39558348 0.22322969 1.5836668
0.40325141 0.22433826 1.585
0.42359298 0.22214486 1.5890001
0.4468891 0.22378992 1.5860001
0.45166272 0.22239926 1.5810001
0.095085107 0.23081993 1.5870001
0.10560265 0.23095208 1.5863335
0.11551265 0.23377329 1.5836668
0.12497102 0.23296332 1.5854446
0.13447477 0.23228811 1.5846363
0.14456248 0.23307025 1.5855716
0.15591535 0.23042354 1.5890001
0.16281423 0.23042354 1.5890001
0.176164 0.23121634 1.5850003
0.1807514 0.23042354 1.5890001
0.21386616 0.23042354 1.5890001
0.24560115 0.23042354 1.5890001
0.258093 0.23200913 1.5810001
0.26215851 0.23042354 1.5890001
0.27250907 0.23121634 1.5850002
-0.86214042 0.24848314 1.5810001
-0.85664904 0.24848314 1.5810001
-0.83476794 0.2497405 1.5890001
-0.82372969 0.2497405 1.5890001
-0.75643206 0.24848315 1.5810001
-0.73266411 0.2497405 1.5890001
-0.72300559 0.2497405 1.5890001
-0.71610671 0.2497405 1.5890001
-0.70644826 0.2497405 1.5890001
-0.85253054 0.25122881 1.5810001
-0.84504986 0.25186443 1.585
-0.8350445 0.25154662 1.5830001
-0.82556939 0.25250006 1.5890001
-0.81637955 0.25165257 1.5836668
-0.80859983 0.25122881 1.5810001
-0.7547406 0.25250006 1.5890001
-0.72118211 0.25461012 1.585
-0.71538281 0.25610366 1.5874002
-0.70475239 0.25474557 1.5858002
0.53909957 0.19817799 1.5960001
0.84814632 0.19817799 1.5960001
0.85230392 0.19817799 1.5960001
0.86061907 0.19540627 1.5960001
0.87447774 0.19540629 1.5960001
0.45871967 0.20926486 1.5960001
0.46564898 0.20787901 1.5960001
0.48366517 0.20926486 1.5960001
0.51507801 0.20649314 1.5960001
0.52524096 0.20233557 1.5960001
0.5335561 0.20094971 1.5960001
0.54464298 0.20164263 1.5960001
0.55157232 0.20372142 1.5960001
0.56127334 0.20649314 1.5960001
0.58621883 0.20372142 1.5960001
0.59730566 0.20372142 1.5960001
0.60562086 0.20372142 1.5960001
0.62640876 0.2009497 1.5960001
0.6347239 0.2009497 1.5960001
0.64442492 0.2009497 1.5960001
0.66244113 0.20372142 1.5960001
0.82458675 0.2009497 1.5960001
0.83428776 0.20164263 1.5960001
0.84260291 0.2009497 1.5960001
0.43931764 0.21758002 1.5960001
0.44486105 0.21619415 1.5960001
0.45317626 0.2148083 1.5960001
0.097010203 0.2286669 1.5960001
0.10532536 0.2286669 1.5960001
0.1247274 0.2286669 1.5960001
0.13581429 0.2286669 1.5960001
0.14274359 0.2286669 1.5960001
0.17877595 0.2286669 1.5960001
0.18431939 0.22728103 1.5960001
0.19540629 0.2258952 1.5960001
0.20372142 0.22589518 1.5960001
0.23143862 0.2286669 1.5960001
0.24391136 0.2286669 1.5960001
0.26608515 0.2286669 1.5960001
0.27440029 0.2286669 1.5960001
0.28964475 0.22589518 1.5960001
0.29518819 0.22497128 1.5960001
0.3039653 0.22404736 1.5960001
0.31459022 0.22312348 1.5960001
0.32429123 0.22450933 1.5960001
0.33122054 0.22589518 1.5960001
0.36725292 0.22312346 1.5960001
0.37279639 0.22497128 1.5960001
0.39219838 0.22035174 1.5960001
0.40051356 0.22312346 1.5960001
0.42268732 0.22312346 1.5960001
0.43604198 0.22413138 1.5960001
0.44416815 0.22485578 1.596
0.11502638 0.23143862 1.5960001
0.12195569 0.23143862 1.5960001
0.14690116 0.23143862 1.5960001
0.15105875 0.23143862 1.5960001
0.21758002 0.23143862 1.5960001
0.22035174 0.23143862 1.5960001
0.25776997 0.23143862 1.5960001
-0.73450583 0.24806894 1.5960001
-0.72757649 0.24806894 1.5960001
-0.84260291 0.25084066 1.5960001
-0.83428776 0.25084066 1.5960001
-0.78023922 0.2536124 1.5960001
-0.77608162 0.25084066 1.5960001
-0.73395145 0.2536124 1.596
-0.72434282 0.25453633 1.5960001
-0.71441078 0.25465178 1.596
-0.70540273 0.25084066 1.5960001
0.53868014 0.19904719 1.603
0.54424793 0.19904719 1.603
0.83794689 0.19904719 1.603
0.84490657 0.19904719 1.603
0.86160988 0.19626331 1.603
0.87413728 0.19487137 1.603
0.88109702 0.19347943 1.603
0.46490744 0.20739882 1.603
0.51919299 0.20461494 1.603
0.57626247 0.20461494 1.603
0.5841502 0.20461494 1.603
0.59574962 0.20461494 1.603
0.60549319 0.20275903 1.603
0.61106092 0.20183106 1.603
0.62498033 0.20183106 1.603
0.83377111 0.20183106 1.603
0.43637267 0.21783835 1.603
0.44569871 0.21296659 1.603
0.45516384 0.21157464 1.603
0.49413812 0.21296658 1.603
0.50805753 0.2101827 1.603
0.51084137 0.2101827 1.603
0.096043751 0.22688596 1.603
0.10578732 0.22827789 1.603
0.11553089 0.22966985 1.603
0.12527445 0.22688596 1.603
0.13362607 0.22688596 1.603
0.14754546 0.22966984 1.603
0.15450518 0.22966985 1.603
0.16842455 0.22966984 1.603
0.17399231 0.22966985 1.603
0.18373588 0.22688596 1.603
0.19487138 0.22479805 1.603
0.20739882 0.22688596 1.603
0.21435851 0.22966984 1.603
0.22966984 0.22966984 1.603
0.23523758 0.22688596 1.603
0.24915697 0.22966984 1.603
0.25194085 0.22966984 1.603
0.26446831 0.22827789 1.603
0.27606779 0.22688596 1.603
0.28534734 0.22688596 1.603
0.29926676 0.22410208 1.603
0.30761838 0.2213182 1.603
0.31318614 0.22131822 1.603
0.32153776 0.2213182 1.603
0.33684909 0.22688596 1.603
0.34102491 0.22688596 1.603
0.37443143 0.22410208 1.603
0.3994863 0.2213182 1.603
0.40783796 0.22410208 1.603
0.41062182 0.22410208 1.603
0.42732507 0.2213182 1.603
0.43289286 0.22224617 1.603
-0.84212273 0.24915697 1.603
-0.74329507 0.24776503 1.603
-0.73633546 0.24730104 1.603
-0.72519988 0.24915698 1.603
-0.71545637 0.24915697 1.603
-0.85465014 0.25194085 1.603
-0.83377111 0.25194085 1.603
-0.82681143 0.25194085 1.603
-0.81845975 0.25194085 1.603
-0.78366131 0.25194085 1.603
-0.75396669 0.25472471 1.603
-0.74607897 0.25333279 1.603
-0.72241604 0.26307636 1.603
-0.7182402 0.26307636 1.603
0.59570444 0.19809984 1.618
0.83595324 0.19809984 1.618
0.8446936 0.19680725 1.6140001
0.85443252 0.19612688 1.6150001
0.86236918 0.19590209 1.6138
0.87810212 0.19809984 1.618
0.88512695 0.19388494 1.618
0.44677836 0.20933954 1.618
0.45471123 0.20911312 1.61625
0.46384045 0.20700568 1.61625
0.4758656 0.20691048 1.6166
0.48541313 0.20843387 1.6110001
0.49595207 0.20933954 1.618
0.50453579 0.20841065 1.61625
0.51400304 0.2073773 1.6148889
0.52686125 0.20371969 1.618
0.5409109 0.20090976 1.618
0.55415618 0.20155263 1.6156667
0.56058037 0.20371969 1.618
0.5756706 0.20529513 1.6156667
0.58484858 0.20336714 1.6152
0.5958178 0.20187405 1.6145
0.60422933 0.20187405 1.6145
0.6154356 0.20187405 1.6145
0.62390268 0.20283833 1.6110001
0.63715887 0.20069245 1.61625
0.6434871 0.20004056 1.6110001
0.65049803 0.20090976 1.618
0.82953882 0.20004056 1.6110001
0.8348999 0.20094779 1.6138
0.31262302 0.21869713 1.6145
0.32454655 0.21495941 1.618
0.42945769 0.21962495 1.6110001
0.43523443 0.21563858 1.6154547
0.44326994 0.21253431 1.6124001
0.45183986 0.21123163 1.6110001
0.49574474 0.2114611 1.6127501
0.50499749 0.21123163 1.6110001
0.096726686 0.22851366 1.6145
0.1065432 0.22851366 1.6145
0.11623358 0.22756347 1.6127501
0.12485737 0.2258729 1.6156667
0.13420758 0.22680549 1.6156667
0.1442979 0.22834854 1.6133335
0.15454596 0.22900903 1.618
0.17702538 0.22900903 1.618
0.18398362 0.22554468 1.6133335
0.19472665 0.22367746 1.6133335
0.20748782 0.2257098 1.6145
0.21434347 0.22834854 1.6133335
0.22760406 0.22900903 1.618
0.23552023 0.22781117 1.6145
0.24460989 0.22697878 1.6150001
0.2551502 0.2271087 1.6145
0.26580822 0.22617882 1.615375
0.27562627 0.22512811 1.615375
0.28357965 0.22476266 1.6127501
0.29440409 0.22500733 1.6145
0.30399367 0.22274487 1.6133335
0.3142435 0.22057925 1.618
0.3247771 0.22290191 1.6145
0.33410031 0.22507513 1.618
0.34579241 0.22471525 1.6160001
0.35405076 0.22198421 1.618
0.36950538 0.22338918 1.618
0.37615716 0.22300017 1.6152
0.38434708 0.22094797 1.6166
0.39760464 0.22057925 1.618
0.40374506 0.22289987 1.6145
0.41686773 0.22522049 1.6110001
0.42539495 0.22369644 1.6168334
0.43225548 0.22242272 1.6110001
0.16366956 0.23081605 1.6110001
0.21962495 0.23081604 1.6110001
0.22554265 0.23115036 1.6133335
0.25739485 0.23081604 1.6110001
0.26159149 0.23081604 1.6110001
-0.86405247 0.24867852 1.618
-0.85421771 0.24867852 1.618
-0.75423825 0.24814059 1.6145
-0.74668163 0.24515948 1.6133335
-0.73441458 0.24760267 1.6110001
-0.72504014 0.24747102 1.6138
-0.71586156 0.24796128 1.6133335
-0.86638308 0.25234333 1.6145
-0.8547188 0.25040042 1.6110001
-0.84567803 0.25076312 1.6133335
-0.83513439 0.25040042 1.6110001
-0.82674104 0.25319821 1.6110001
-0.80189764 0.25514716 1.6145
-0.79438597 0.2543062 1.6141112
-0.78677952 0.25148845 1.618
-0.77638119 0.25040042 1.6110001
-0.76401913 0.25317439 1.618
-0.75511819 0.25263867 1.6110001
-0.7120325 0.25040042 1.6110001
0.60570943 0.19907932 1.6260002
0.6480667 0.19907932 1.626
0.83585072 0.19907932 1.626
0.8443222 0.19766741 1.626
0.85561752 0.19343168 1.626
0.86550087 0.19343168 1.6260002
0.87538421 0.19625549 1.626
0.44192785 0.20755078 1.626
0.45463502 0.20755078 1.626
0.46522436 0.20472696 1.626
0.47157794 0.20472695 1.626
0.48710895 0.20755079 1.6260002
0.49558043 0.20755079 1.6260002
0.50546384 0.20684482 1.626
0.51393527 0.20472695 1.626
0.52523053 0.20472695 1.626
0.5322901 0.20472695 1.626
0.56899977 0.20755078 1.626
0.57323545 0.20755078 1.626
0.5873546 0.20190313 1.626
0.5930022 0.20190313 1.626
0.63394761 0.20190313 1.626
0.26826292 0.21884605 1.626
0.27532247 0.21884605 1.626
0.31626785 0.21884605 1.626
0.32389221 0.21715176 1.626
0.37980381 0.21884605 1.626
0.38545144 0.21884605 1.6260002
0.39486417 0.21884605 1.6260002
0.42780873 0.21743414 1.626
0.43385983 0.21360184 1.6260002
0.44333977 0.21037459 1.626
0.10871708 0.22731751 1.626
0.11436471 0.22731751 1.626
0.12424809 0.2259056 1.626
0.13836718 0.22731751 1.626
0.14542675 0.22731751 1.6260002
0.15672201 0.22731751 1.626
0.17790067 0.22731751 1.626
0.18496022 0.22355244 1.6260002
0.19201976 0.2244937 1.626
0.21602225 0.22731751 1.6260002
0.22731751 0.22731751 1.626
0.23437706 0.22731751 1.626
0.24849617 0.2244937 1.626
0.25555572 0.22449371 1.6260002
0.26543909 0.2230818 1.626
0.27391055 0.2230818 1.626
0.28802964 0.2244937 1.626
0.29508919 0.22449371 1.6260002
0.3063845 0.22166988 1.6260002
0.32897505 0.22166988 1.626
0.33462268 0.2230818 1.626
0.34168223 0.2244937 1.626
0.37697998 0.2244937 1.626
0.38827527 0.2244937 1.626
0.39448768 0.22336419 1.626
0.40804201 0.2244937 1.626
0.41368964 0.2244937 1.626
0.42780873 0.22166988 1.626
0.16519347 0.23014134 1.6260002
0.17225303 0.23014134 1.626
0.2230818 0.23014134 1.626
-0.88526762 0.24990807 1.626
-0.86550087 0.24802554 1.6260002
-0.85561752 0.24849617 1.626
-0.8443222 0.24990807 1.626
-0.79490536 0.24990807 1.6260002
-0.78643388 0.24990807 1.626
-0.76525521 0.24990807 1.626
-0.7581957 0.24708426 1.626
-0.74407661 0.24708426 1.6260002
-0.73560512 0.24708426 1.626
-0.72713369 0.24708426 1.626
-0.7130146 0.24990807 1.626
-0.69889545 0.24708426 1.626
-0.8838557 0.25273189 1.626
-0.87679613 0.25273189 1.6260002
-0.84291029 0.25273189 1.626
-0.8344388 0.25273189 1.6260002
-0.82455546 0.25273189 1.626
-0.81396616 0.25343785 1.626
-0.80478871 0.25343785 1.626
-0.77513862 0.25273189 1.626
-0.76949096 0.25273189 1.626
-0.71442646 0.25273189 1.626
0.84705752 0.19627517 1.6340002
0.8527329 0.19438337 1.6340001
0.87827229 0.19438337 1.6340001
0.88536656 0.19580223 1.6340001
0.89387977 0.19438337 1.6340001
0.43842673 0.20857194 1.6340001
0.44599396 0.20857196 1.6340002
0.45829073 0.20573422 1.6340001
0.46339861 0.20403159 1.6340001
0.47815472 0.20573422 1.6340001
0.48241127 0.20573422 1.6340001
0.49659985 0.20573422 1.6340001
0.50511301 0.20573422 1.6340001
0.5178827 0.20289651 1.6340001
0.52213931 0.20573422 1.6340001
0.53490901 0.2038424 1.6340002
0.54909754 0.2000588 1.6340001
0.56612384 0.20431536 1.6340001
0.58031237 0.20573422 1.6340001
0.61578381 0.2000588 1.6340001
0.6242969 0.20289651 1.6340001
0.63281012 0.20289651 1.6340001
0.65409297 0.2000588 1.6340001
0.6682815 0.20573422 1.6340001
0.67537582 0.20573422 1.6340001
0.68530786 0.20573422 1.6340002
0.32208046 0.21566622 1.6340001
0.33272192 0.21779451 1.6340001
0.37883475 0.2199228 1.6340001
0.38167244 0.21708508 1.6340001
0.39869875 0.2199228 1.6340001
0.42802176 0.21708509 1.6340002
0.43417016 0.21140964 1.6340001
0.096482255 0.22843593 1.6340001
0.10641425 0.22843593 1.6340001
0.11208968 0.22843593 1.6340001
0.12344053 0.22559822 1.6340001
0.14614224 0.22559822 1.6340001
0.15323652 0.22843593 1.6340001
0.16373606 0.22786839 1.6340001
0.17451939 0.22749004 1.6340002
0.18161365 0.22417936 1.6340001
0.20289651 0.22559822 1.6340001
0.22559822 0.22749004 1.6340002
0.23411135 0.22654413 1.6340002
0.24546222 0.22465232 1.6340002
0.25539422 0.2227605 1.6340001
0.26390734 0.2227605 1.6340001
0.27667707 0.2227605 1.6340001
0.28377134 0.2227605 1.6340001
0.29795992 0.2227605 1.6340001
0.30221647 0.2227605 1.6340001
0.33626905 0.2227605 1.6340001
0.34620103 0.2227605 1.6340001
0.35187647 0.2227605 1.6340001
0.37457818 0.2227605 1.6340001
0.41572502 0.22559822 1.6340001
0.42423815 0.22465232 1.6340002
-0.87401569 0.24829993 1.6340001
-0.86266488 0.24688107 1.6340001
-0.85557067 0.24829993 1.6340002
-0.84705746 0.24829993 1.6340001
-0.83428776 0.24829993 1.6340001
-0.82293689 0.24829993 1.6340001
-0.81868035 0.24829993 1.6340001
-0.80591059 0.24829993 1.6340001
-0.76476377 0.24829993 1.6340001
-0.74206203 0.24829993 1.6340001
-0.73638666 0.24829993 1.6340001
-0.72361696 0.24829993 1.6340001
-0.71226609 0.24829993 1.6340001
-0.70573932 0.24659729 1.6340001
-0.88394773 0.25113767 1.6340002
-0.87827229 0.25113764 1.6340001
-0.84138203 0.25113764 1.6340001
-0.83428776 0.25113764 1.6340001
-0.82435578 0.25113767 1.6340002
-0.81414002 0.25170517 1.6340001
-0.80591059 0.25113764 1.6340001
-0.79314089 0.25113764 1.6340001
-0.7846278 0.25113767 1.6340002
-0.77611464 0.25208354 1.6340002
-0.71368492 0.25113764 1.6340001
-0.70800948 0.25113764 1.6340001
0.61284536 0.19903156 1.649
0.62286854 0.19903156 1.649
0.64291489 0.19903156 1.649
0.65723372 0.19903156 1.649
0.84487361 0.1987097 1.6463335
0.85068619 0.1952161 1.641
0.86459905 0.19292891 1.6458
0.8743313 0.19198105 1.6425999
0.8858515 0.19203454 1.6463335
0.89384067 0.19378206 1.6470001
0.90351737 0.19330403 1.649
0.43709296 0.20854414 1.6450001
0.44511637 0.2068674 1.6429999
0.45455429 0.2066156 1.6410002
0.4624978 0.20475909 1.649
0.47968036 0.20475909 1.649
0.48564842 0.20568734 1.645
0.49505508 0.205439 1.6430001
0.50503653 0.20401405 1.6430001
0.51574445 0.20329811 1.6429999
0.52500993 0.20329811 1.6429999
0.53419542 0.20207353 1.6458
0.54560697 0.20284085 1.6467144
0.55843389 0.20189533 1.649
0.5685491 0.20376571 1.641
0.57707345 0.20568733 1.645
0.58659542 0.20409684 1.6436666
0.59706426 0.20140558 1.645
0.62412155 0.20091584 1.641
0.63532704 0.20187762 1.6442002
0.64549559 0.20091586 1.6410002
0.65547013 0.20091584 1.641
0.66616958 0.20301758 1.6442002
0.67440164 0.20398648 1.6427777
0.68433172 0.20261933 1.6445556
0.6910935 0.20376571 1.641
0.34453011 0.21872362 1.6463335
0.39806312 0.2190779 1.649
0.40379065 0.2190779 1.649
0.41810945 0.2190779 1.649
0.42635226 0.21747121 1.6476668
0.43290555 0.21239579 1.649
0.10419393 0.22883277 1.6436666
0.11529435 0.22687554 1.6474001
0.12342229 0.22634643 1.6463335
0.13558418 0.22693285 1.6436666
0.14391844 0.22656468 1.641
0.15622315 0.22612485 1.6429999
0.16589701 0.22586098 1.6442002
0.17426237 0.22521007 1.6450002
0.18096675 0.2237148 1.641
0.20854414 0.22711694 1.645
0.21471149 0.22612485 1.6429999
0.22407834 0.22693285 1.6436666
0.23569432 0.22568506 1.645
0.24585176 0.22357832 1.6442
0.25630683 0.22194168 1.649
0.26446974 0.22158276 1.6463335
0.27501246 0.22086494 1.641
0.28497285 0.2221738 1.6436667
0.2935366 0.2237148 1.641
0.34384385 0.2226537 1.6458
0.350811 0.22194166 1.649
0.37760779 0.22086494 1.641
0.40852132 0.22282824 1.645
0.41470227 0.22254778 1.6444286
0.4238888 0.22265111 1.6436667
-0.72023648 0.23912424 1.649
-0.88441342 0.24881427 1.6436667
-0.87418938 0.24711466 1.645
-0.86459905 0.24666487 1.6458
-0.85464805 0.24672367 1.6478573
-0.84534919 0.24726227 1.6432856
-0.83517569 0.24572115 1.6436667
-0.82418615 0.24425367 1.6450001
-0.81519413 0.24571882 1.6436667
-0.80480558 0.24691282 1.6436667
-0.79796362 0.24936363 1.641
-0.78467119 0.24771553 1.649
-0.77494329 0.2486573 1.6444287
-0.76892048 0.24771553 1.649
-0.74457848 0.24771553 1.649
-0.73420537 0.24711466 1.645
-0.72473937 0.24504344 1.6468182
-0.71539617 0.24487934 1.642
-0.70819271 0.24366389 1.641
-0.9006536 0.2505793 1.649
-0.89635795 0.2505793 1.649
-0.88919854 0.2505793 1.649
-0.7918306 0.2505793 1.649
-0.78578639 0.25112405 1.6463335
0.8733688 0.18848652 1.6570001
0.89063478 0.18848652 1.6570001
0.53668302 0.19999716 1.6570001
0.54531598 0.19999716 1.6570001
0.55251014 0.19999714 1.6570001
0.60574675 0.19999714 1.6570001
0.62589037 0.19999714 1.6570001
0.63308454 0.19999714 1.6570001
0.64411557 0.19999716 1.6570001
0.6546669 0.19999714 1.6570001
0.66473866 0.19999714 1.6570001
0.67624938 0.19999714 1.6570001
0.68488234 0.19999714 1.6570001
0.6935153 0.19999714 1.6570001
0.84746993 0.19711949 1.6570001
0.85610288 0.19711949 1.6570001
0.86185819 0.19424184 1.6570001
0.87624645 0.19136417 1.6570001
0.88487947 0.19136417 1.6570001
0.89639008 0.19136417 1.6570001
0.90790069 0.19424184 1.6570001
0.43452621 0.20791069 1.6570001
0.44603679 0.20575246 1.6570001
0.45466977 0.20575246 1.6570001
0.48776281 0.20575246 1.6570001
0.49351811 0.20575246 1.6570001
0.50358999 0.20287479 1.6570001
0.5151006 0.20287479 1.6570001
0.52805001 0.20287479 1.6570001
0.53092766 0.20287479 1.6570001
0.57840896 0.20287479 1.6570001
0.58704197 0.20431364 1.6570001
0.59279728 0.20287479 1.6570001
0.63740098 0.20287479 1.6570001
0.69783175 0.20287479 1.6570001
0.33812466 0.21438542 1.6570001
0.34100232 0.21726309 1.6570001
0.4165408 0.21654367 1.6570001
0.42445439 0.21438542 1.6569999
0.43116891 0.212467 1.6570001
0.099279158 0.22877371 1.6570001
0.10503447 0.2278145 1.6570001
0.11366744 0.22589606 1.6570001
0.12517807 0.22589606 1.6570001
0.13956635 0.22589606 1.6570001
0.14819932 0.22589606 1.6570001
0.15395463 0.22589606 1.6570001
0.16546527 0.22589606 1.6570001
0.17553706 0.22301839 1.6570001
0.20287479 0.22589606 1.6570001
0.21438542 0.22589606 1.6570001
0.22445723 0.22589606 1.6570001
0.23452902 0.22589606 1.6570001
0.24603966 0.22301841 1.6570001
0.25179496 0.22014074 1.6570001
0.28920451 0.22301839 1.6570001
0.29495984 0.22301839 1.6570001
0.3035928 0.22301839 1.6570001
0.33812466 0.22014074 1.6570001
0.34100232 0.22014074 1.6570001
0.35539061 0.22301839 1.6570001
0.37841186 0.22301839 1.6570001
0.38704485 0.22014074 1.6570001
0.39423898 0.22014074 1.6570001
0.41294378 0.22014074 1.6570001
-0.84171462 0.23740669 1.6570001
-0.89351243 0.24891731 1.6570001
-0.88487947 0.24891731 1.6570001
-0.87432808 0.24603967 1.6570001
-0.8661747 0.24603966 1.6570001
-0.85610288 0.24316199 1.6570001
-0.83787775 0.24220279 1.6570001
-0.8273263 0.24316199 1.6570001
-0.81006038 0.24603966 1.6570001
-0.80142742 0.24891731 1.6570001
-0.79711092 0.24891731 1.6570001
-0.78607988 0.24603967 1.6570001
-0.76545674 0.24891731 1.6570001
-0.75682378 0.24891731 1.6570001
-0.73668015 0.24603966 1.6570001
-0.72948599 0.24316199 1.6570001
-0.80142742 0.25179496 1.6570001
-0.79854977 0.25179496 1.6570001
0.88047701 0.18939653 1.6650001
0.89782631 0.18939653 1.6650001
0.64626145 0.19807118 1.6650002
0.65204453 0.19807118 1.6650001
0.66361076 0.19807118 1.6650001
0.69686359 0.19807118 1.6650001
0.70698398 0.19517963 1.6650001
0.85445309 0.19710734 1.6650002
0.86457348 0.19373386 1.6650001
0.8732481 0.19228809 1.6650001
0.90505517 0.19228809 1.6650001
0.91372985 0.19228809 1.6650001
0.42592534 0.20905907 1.6650002
0.43517828 0.20674583 1.6650002
0.4467445 0.20481813 1.6650002
0.45397335 0.20385428 1.6650001
0.46409377 0.20674583 1.6650001
0.50168395 0.20385428 1.6650001
0.51035857 0.20385428 1.6650001
0.52481633 0.20096274 1.6650001
0.53349102 0.20096274 1.6650001
0.55951494 0.20096274 1.6650001
0.56818962 0.20385428 1.6650001
0.5739727 0.20385428 1.6650001
0.58698463 0.20385428 1.6650001
0.59565932 0.20096274 1.6650001
0.604334 0.20385428 1.6650001
0.61300862 0.20096274 1.6650001
0.62312907 0.20096274 1.6650001
0.64047837 0.20096274 1.6650001
0.65782762 0.20096274 1.6650001
0.67373115 0.20096274 1.6650001
0.7012009 0.20096274 1.6650001
0.39325082 0.21831203 1.6650001
0.40626281 0.21831203 1.6650002
0.41493747 0.21542048 1.6650002
0.42216632 0.21252893 1.6650001
0.10698736 0.22554091 1.6650001
0.11518008 0.22409515 1.6650002
0.12289088 0.22409514 1.6650001
0.13590285 0.22698668 1.6650001
0.14313173 0.22698668 1.6650001
0.16626415 0.22409515 1.6650002
0.17204723 0.22409514 1.6650001
0.18216765 0.22409514 1.6650001
0.20963739 0.22698668 1.6650001
0.21397471 0.22409514 1.6650001
0.23566133 0.22698668 1.6650001
0.24433599 0.22313128 1.6650002
0.25734794 0.22120358 1.6650001
0.26457685 0.22120358 1.6650001
0.35999799 0.22409514 1.6650001
-0.84288687 0.23855288 1.6650001
-0.83854949 0.23855288 1.6650001
-0.90071785 0.24722753 1.6650001
-0.89204317 0.24722753 1.6650001
-0.88626009 0.24722753 1.6650001
-0.83565795 0.24144444 1.6650001
-0.82553756 0.24144444 1.6650002
-0.8139714 0.24529982 1.6650002
-0.80240512 0.24722753 1.6650001
-0.79806781 0.24722753 1.6650001
-0.78505588 0.24722753 1.6650001
-0.75324887 0.24722753 1.6650002
-0.74457419 0.24626368 1.6650002
-0.73445368 0.24216732 1.6650001
-0.9036094 0.25011909 1.6650001
0.55203426 0.19902287 1.6730001
0.59706867 0.19902287 1.6730001
0.60287952 0.19902287 1.6730001
0.61159587 0.19902287 1.6730001
0.62418616 0.19902287 1.6730001
0.63483942 0.19902287 1.6730001
0.64500844 0.19757015 1.6730001
0.65517753 0.19708592 1.6730001
0.66244113 0.19902287 1.6730001
0.67261016 0.19902287 1.6730001
0.68423194 0.19902287 1.6730001
0.69440097 0.19829652 1.6730001
0.70553851 0.19660167 1.6730002
0.71038091 0.19611743 1.6730001
0.85468459 0.1970859 1.6730001
