# .PCD v0.7 - Point Cloud Data file format
VERSION 0.7
FIELDS x y z
SIZE 4 4 4
TYPE F F F
COUNT 1 1 1
WIDTH 1505
HEIGHT 1
VIEWPOINT 0 0 0 1 0 0 0
POINTS 1505
DATA ascii
0.49478158 0.24194519 1.1756668
0.50488198 0.24017666 1.177
0.515634 0.24099058 1.1743335
-0.53270429 0.25973153 1.1730001
-0.27399132 0.25973153 1.1730001
-0.21185945 0.25973153 1.1730001
-0.20880379 0.25973153 1.1730001
-0.10287406 0.25973153 1.1730001
-0.09574417 0.25769442 1.1730001
-0.083590113 0.25791413 1.174
-0.074458718 0.25804591 1.1746
-0.064617895 0.25881284 1.1750002
-0.05212345 0.25857317 1.177
-0.044855494 0.25791413 1.174
-0.035392154 0.25707048 1.1741431
-0.025494441 0.25600603 1.1746
-0.015309586 0.25618038 1.1754001
-0.0033969204 0.25648165 1.1736668
0.00433103 0.25602007 1.1735002
0.011895878 0.25390851 1.1743335
0.025517365 0.2533215 1.1754001
0.035200931 0.25430641 1.1750001
0.044892836 0.25405264 1.1750001
0.054092478 0.25413916 1.1754001
0.064387791 0.2544851 1.177
0.073683076 0.25470847 1.1745001
0.084600508 0.25338435 1.1738001
0.094881922 0.2530306 1.1750001
0.10486978 0.25365961 1.1763334
0.11488354 0.25273582 1.1760001
0.1250882 0.25273582 1.1760001
0.1362046 0.25201207 1.1750001
0.14500734 0.2506935 1.1760001
0.16556859 0.25039694 1.177
0.1744664 0.25099003 1.1750001
0.18435846 0.2515831 1.1730002
0.19454402 0.2515831 1.1730002
0.20382997 0.25283408 1.1756668
0.21311766 0.25186908 1.1743335
0.2238242 0.25039694 1.177
0.23404449 0.25039694 1.177
0.24222073 0.25039694 1.177
0.25141898 0.25039694 1.177
0.32807112 0.25039694 1.177
0.33318126 0.25039694 1.177
-0.53168571 0.26176864 1.1730001
-0.52464116 0.26362419 1.1752224
-0.51482803 0.26477236 1.1747144
-0.50608373 0.26420403 1.1747779
-0.49646091 0.26351964 1.174
-0.48639607 0.26546833 1.1743335
-0.47463754 0.26793903 1.1755
-0.46485966 0.26505095 1.174
-0.44049424 0.26266128 1.177
-0.43386886 0.26508456 1.1756668
-0.42331615 0.26418933 1.1747144
-0.41404691 0.26352349 1.174778
-0.40587136 0.2628254 1.1750001
-0.39621791 0.26380575 1.1730001
-0.38501379 0.26176864 1.1730001
-0.37689459 0.26435843 1.1734446
-0.35500136 0.2654849 1.1752859
-0.34515297 0.26499146 1.1760001
-0.33640885 0.26301035 1.174
-0.32491904 0.26258346 1.1730002
-0.31511182 0.26474503 1.1756668
-0.30532184 0.26297888 1.1750001
-0.29639503 0.26375681 1.1746
-0.28414503 0.26474616 1.1756668
-0.27700338 0.26312047 1.1754001
-0.26833326 0.26323351 1.1750001
-0.25430554 0.26272339 1.1750001
-0.24563639 0.26235458 1.1738001
-0.23639552 0.26243812 1.1760001
-0.22525696 0.26357827 1.1738001
-0.21584193 0.26138481 1.1743335
-0.10898539 0.26176864 1.1730001
-0.060299672 0.26061723 1.177
-0.057233587 0.26061723 1.177
-0.64285582 0.27083752 1.177
-0.28502607 -0.14096957 1.1850002
-0.32200754 -0.13023871 1.1810001
-0.31482905 -0.1333836 1.1810001
-0.30585888 -0.13392775 1.1863998
-0.29247791 -0.13421828 1.189
-0.28470817 -0.13464591 1.1836668
-0.27267838 -0.13891163 1.1850002
-0.2685625 -0.13891163 1.1850001
-0.32313809 -0.12505823 1.1844
-0.31454286 -0.12531725 1.1815715
-0.30504581 -0.12696818 1.1828463
-0.29684326 -0.12780999 1.187
-0.24221724 -0.12574857 1.187
-0.23872221 -0.12244803 1.1850001
-0.32175544 -0.11557219 1.1872222
-0.31550407 -0.11488681 1.1840001
-0.32109144 -0.10840708 1.189
-0.31467476 -0.10458168 1.1839093
-0.31219202 -0.096250668 1.1810002
-0.308676 -0.093320653 1.1810001
-0.22048287 0.10255016 1.1810001
-0.22169507 0.13137449 1.1820002
-0.21472323 0.1357066 1.1817501
-0.20466308 0.13644074 1.1827142
-0.19542506 0.13748476 1.1850003
-0.18442565 0.13734636 1.1865387
-0.17625371 0.1382006 1.189
-0.1641593 0.13938054 1.189
-0.15486726 0.13783187 1.189
-0.21268907 0.14090393 1.1810001
-0.20486368 0.14286029 1.181
-0.19541191 0.14412263 1.1813333
-0.18515131 0.14464551 1.1820768
-0.17515361 0.14500219 1.1836665
-0.16511461 0.14507794 1.1856152
-0.15526605 0.14558451 1.1869129
-0.14556307 0.14555959 1.1874998
-0.13625601 0.14752391 1.188077
-0.12492625 0.14970501 1.189
-0.11563422 0.14970501 1.189
-0.19245249 0.15143242 1.1810001
-0.18464428 0.15420309 1.181
-0.17536078 0.15485077 1.1809999
-0.16517206 0.15491204 1.1814798
-0.15512294 0.15511957 1.1830798
-0.14479023 0.15505695 1.1825998
-0.13483103 0.15541638 1.1853199
-0.12465645 0.15556043 1.1864398
-0.11453028 0.15539812 1.1864998
-0.1045354 0.1556416 1.1889999
-0.09578827 0.15635857 1.189
-0.089134715 0.1572763 1.189
-0.1815138 0.16202927 1.1810001
-0.17612992 0.16177291 1.1810001
-0.16422677 0.16158977 1.1810002
-0.15320994 0.16284966 1.1810001
-0.1441296 0.16557191 1.181
-0.13470446 0.16555148 1.1841999
-0.12442082 0.16555066 1.1841998
-0.11407223 0.16544823 1.1851537
-0.10472109 0.16457053 1.186846
-0.095694937 0.16501394 1.1869256
-0.088905282 0.16438873 1.189
-0.17490502 0.17855124 1.1810001
-0.16469558 0.1767965 1.1810001
-0.15471134 0.17653416 1.1813637
-0.14471816 0.17448549 1.182
-0.13468164 0.17478007 1.1839999
-0.12437747 0.17475174 1.1837999
-0.11427303 0.17501591 1.1856
-0.10430782 0.17537029 1.1868947
-0.095193096 0.17467633 1.1878234
-0.087528683 0.17218944 1.189
-0.18205941 0.18343137 1.1823335
-0.1756923 0.18325122 1.1863334
-0.16559204 0.18190329 1.1871819
-0.15471704 0.18121609 1.1867144
-0.14601865 0.18071871 1.187
-0.13456245 0.18102263 1.1890001
-0.12415192 0.18325956 1.1889999
-0.11647894 0.1833065 1.1890001
-0.10456657 0.18133444 1.1855716
-0.097209796 0.18103944 1.1855714
-0.021681415 0.1858407 1.189
-0.019616518 0.18687315 1.189
0.63478553 0.21843186 1.1810001
0.6266458 0.2253409 1.1850002
0.63376004 0.22048287 1.1810001
0.51860344 0.23975118 1.1850001
0.22683696 0.24904616 1.1842002
0.23241463 0.24886899 1.1843334
0.24919692 0.24919692 1.1810001
0.25423628 0.2480772 1.1830002
0.26238865 0.24798298 1.1850001
0.27748027 0.24866664 1.1850002
0.2842536 0.24731331 1.1818001
0.29558998 0.24781907 1.1830001
0.30514595 0.24706523 1.1850001
0.31418037 0.24660872 1.1850001
0.32474148 0.24766646 1.1835002
0.33595863 0.24849398 1.1850001
0.34470493 0.24660927 1.1850002
0.35474002 0.24633235 1.1846926
0.36446154 0.24606107 1.1856668
0.37450683 0.24551147 1.1844287
0.38586649 0.24437809 1.1850001
0.39615276 0.24309273 1.1850002
0.40267223 0.24293926 1.1830001
0.41194689 0.24469027 1.189
0.42564863 0.24472165 1.1850002
0.43524948 0.24263094 1.1850002
0.44504368 0.24256256 1.1836668
0.45639929 0.24415243 1.1854001
0.4652414 0.24382246 1.1838001
0.47371563 0.24271464 1.1834
0.48487991 0.24398269 1.1855716
0.49455714 0.24180725 1.1850001
0.51519173 0.24056047 1.189
-0.27153391 0.25914454 1.189
-0.26430678 0.25914454 1.189
-0.25811207 0.25914454 1.189
-0.23230088 0.25914454 1.189
-0.11047197 0.25914454 1.189
-0.10513607 0.25870866 1.187
-0.097336873 0.25868294 1.1850002
-0.084588692 0.2589266 1.1880001
-0.074345186 0.25749928 1.1850001
-0.064173602 0.25738502 1.1856668
-0.055843171 0.25863636 1.1855001
-0.043975256 0.25751334 1.1855716
-0.034560539 0.25662935 1.1855714
-0.025691032 0.25483915 1.1834
-0.016316606 0.25562483 1.1850001
-0.0044536823 0.25572652 1.1843334
0.0051371562 0.25468707 1.1832224
0.011280519 0.25329891 1.1810001
0.025702668 0.2534261 1.1840001
0.035651661 0.25278461 1.1827143
0.044718299 0.25310501 1.1854445
0.054535676 0.25415683 1.1850001
0.065472633 0.25367087 1.1843333
0.075333752 0.25332272 1.1838573
0.085607246 0.25304073 1.1830002
0.096502446 0.25297439 1.1855
0.105818 0.25320917 1.1870002
0.11395638 0.25286889 1.1850001
0.12491709 0.25142413 1.1853638
0.13355286 0.25190669 1.1841112
0.14353985 0.25103018 1.1858001
0.1558997 0.25088495 1.189
0.16725662 0.25088495 1.189
0.174722 0.25112695 1.1836668
0.18514846 0.25098202 1.1846
0.19517358 0.25064442 1.183
0.20576432 0.25161123 1.1853638
0.21501221 0.25173354 1.1868184
0.22191563 0.25072461 1.1850002
0.23769324 0.25004092 1.1850001
0.24435683 0.25054738 1.1874001
0.27267838 0.25004095 1.1850002
0.33601028 0.25046295 1.187
-0.64399618 0.26951662 1.1874001
-0.63324845 0.26687747 1.1860669
-0.62699723 0.26562554 1.1856668
-0.53670382 0.26130727 1.1863334
-0.52639329 0.26336753 1.1863334
-0.51736534 0.26418859 1.1838573
-0.50642419 0.26271492 1.1830001
-0.49717817 0.26400027 1.1830001
-0.48294032 0.2668384 1.1865
-0.47519889 0.26583052 1.1866001
-0.46870583 0.2654278 1.1863334
-0.44151539 0.26305115 1.1880001
-0.43548727 0.26388702 1.1862001
-0.42602989 0.26362649 1.1854445
-0.41468784 0.26158831 1.1867144
-0.40392989 0.26414904 1.1836667
-0.39686915 0.26355395 1.1810001
-0.3734678 0.26526666 1.1867145
-0.3655481 0.26533309 1.1864548
-0.35503381 0.26376304 1.184077
-0.34561646 0.26353067 1.1846
-0.33632478 0.26333025 1.1874001
-0.32399124 0.26304707 1.1845
-0.31447887 0.26232979 1.1839092
-0.30436614 0.26118046 1.1841999
-0.29398596 0.26336864 1.1845293
-0.28537342 0.26297158 1.1845556
-0.27496037 0.2615028 1.1835456
-0.26478907 0.26191396 1.1828668
-0.25487542 0.26104698 1.1841112
-0.24416882 0.26139289 1.1840001
-0.23503157 0.26217175 1.1857274
-0.22601113 0.26182133 1.1840001
-0.21505716 0.26074091 1.1850001
-0.11256848 0.26115108 1.1850001
-0.10617422 0.26095861 1.1838572
-0.64452362 0.27092493 1.1863334
-0.63687187 0.27137882 1.1823335
-0.30107811 -0.14170419 1.197
-0.29726696 -0.14239712 1.197
-0.30326608 -0.13725962 1.193
-0.29730955 -0.13674167 1.193
-0.26726779 -0.13984942 1.1930001
-0.24217904 -0.13685368 1.197
-0.22460383 -0.13427094 1.1970001
-0.24086988 -0.12770434 1.1956668
-0.23470616 -0.12202732 1.1960001
-0.22346993 -0.12992437 1.197
-0.23243374 -0.11933072 1.1950001
-0.18128629 0.13570574 1.1930001
-0.17337874 0.13646241 1.1942
-0.16448173 0.13668522 1.1943333
-0.15364726 0.13593483 1.1933637
-0.14512296 0.1377096 1.1950002
-0.14111981 0.14111981 1.1950001
-0.13527822 0.14392714 1.1953335
-0.12573868 0.14610903 1.1955001
-0.11600413 0.1464128 1.1958574
-0.10575844 0.14785394 1.197
-0.094584957 0.14828703 1.197
-0.085854024 0.14821774 1.197
-0.050930355 0.14031833 1.197
-0.11084362 0.15020865 1.1930001
-0.10424332 0.15124138 1.1938889
-0.093789801 0.15246037 1.1944287
-0.084029555 0.1542137 1.1947395
-0.075567149 0.15606944 1.1962502
-0.066001587 0.1582479 1.197
-0.055434406 0.15868099 1.197
-0.084168635 0.16458203 1.1930001
-0.075641736 0.16475458 1.1933203
-0.065400615 0.16506386 1.1955602
-0.055087939 0.16526385 1.1970003
-0.047960658 0.16645169 1.197
-0.090815805 0.17852382 1.1930001
-0.083790042 0.1766648 1.1950002
-0.075435027 0.17521098 1.195783
-0.065481894 0.17565776 1.1970003
-0.0553714 0.17509082 1.1970004
-0.047960661 0.17417292 1.197
-0.18128629 0.18750183 1.1930001
-0.17447567 0.18726131 1.1936667
-0.16424882 0.18723945 1.1937273
-0.15444644 0.18629706 1.1937271
-0.14481685 0.18583064 1.1945385
-0.13584574 0.18562292 1.1942307
-0.1287996 0.18612061 1.1930001
-0.1126952 0.1839107 1.1943333
-0.10895413 0.183669 1.1950001
-0.091904931 0.1827753 1.1946001
-0.088348575 0.18189412 1.197
-0.073762812 0.18329117 1.1964287
-0.065729484 0.1836917 1.1961432
-0.055087935 0.18605171 1.197
-0.030142456 0.18709111 1.197
-0.025511114 0.18540794 1.1941999
-0.018060466 0.18497151 1.1954001
-0.18189412 0.19020928 1.197
-0.17565775 0.19020928 1.197
-0.16422442 0.19270383 1.1970001
-0.15616912 0.19150852 1.197
-0.14447591 0.19020928 1.197
-0.13616076 0.1902093 1.197
0.62880445 0.22686686 1.1930001
0.63504171 0.22309655 1.1950001
0.48584726 0.23722607 1.1930001
0.49454576 0.23875087 1.1947144
0.51899678 0.23929791 1.1930001
0.52194214 0.23865968 1.1950001
0.188402 0.24924323 1.1943334
0.19458669 0.24912497 1.1947143
0.20644662 0.24882801 1.1947143
0.2147727 0.2479704 1.1948668
0.22406274 0.24850613 1.1952225
0.23546684 0.24874608 1.1946001
0.24965712 0.24965712 1.1930001
0.25880936 0.24841541 1.197
0.26459768 0.24903628 1.1950001
0.27517483 0.24924324 1.1943334
0.28432184 0.24748065 1.1950001
0.29521337 0.24680087 1.1947778
0.30404001 0.24564949 1.1936667
0.31423828 0.24640754 1.1956668
0.32544506 0.2463406 1.1941429
0.33540362 0.24728154 1.1951818
0.34427136 0.24551344 1.1930001
0.35522276 0.24488562 1.1950001
0.36497641 0.24481589 1.1952225
0.37571654 0.2450112 1.1946001
0.3848812 0.24467838 1.1947143
0.39512962 0.24302074 1.1943334
0.40492758 0.24272014 1.1952858
0.41629753 0.24467935 1.1947143
0.42609334 0.24241683 1.1944544
0.4352943 0.24178413 1.1930001
0.4417429 0.24217904 1.197
0.45647448 0.24329284 1.1956668
0.46601805 0.24272014 1.1952858
0.47446415 0.24210785 1.1946001
0.4872826 0.24218805 1.1950001
0.49350947 0.24105236 1.194
0.50430197 0.2412547 1.1950001
0.51323682 0.24121635 1.1956668
-0.53750527 0.25837693 1.1950001
-0.42927015 0.25880936 1.197
-0.26253104 0.25837693 1.1950001
-0.25673056 0.25880936 1.197
-0.24113965 0.25880936 1.197
-0.23451427 0.25837693 1.1950001
-0.21099719 0.25673059 1.197
-0.11351549 0.25782815 1.1956668
-0.10501499 0.25740498 1.1947778
-0.095023021 0.2578136 1.1960001
-0.084191002 0.25880936 1.197
-0.074836448 0.25776997 1.197
-0.064991862 0.25546688 1.1943334
-0.055226132 0.25717911 1.1935714
-0.047812171 0.25880936 1.197
-0.0363001 0.25615865 1.1943334
-0.013494769 0.25644463 1.1956668
-0.0062337653 0.2565161 1.1960001
0.024945481 0.25465178 1.197
0.034278501 0.25323433 1.1962001
0.045658708 0.25215098 1.1950001
0.05494345 0.25397101 1.1938001
0.064227149 0.25380081 1.1930001
0.074931674 0.25380081 1.1930001
0.085087985 0.25370657 1.1950001
0.09522289 0.25208586 1.1963334
0.1048035 0.2511116 1.1950001
0.11487204 0.25126594 1.1945001
0.1257668 0.25049421 1.197
0.13625973 0.25102341 1.1952857
0.14439544 0.25070003 1.1963334
0.15396723 0.25193998 1.194
0.16263972 0.25172898 1.1930001
0.17645198 0.25172898 1.1930001
0.18397292 0.25049421 1.197
0.19852445 0.25049421 1.197
0.24425784 0.25049421 1.197
-0.65170068 0.26920331 1.197
-0.64452881 0.26750338 1.1947144
-0.63608629 0.26460117 1.1950001
-0.53636885 0.26224932 1.1947778
-0.52442038 0.26376235 1.1943334
-0.51363397 0.26252756 1.1950001
-0.50430024 0.2646029 1.1950001
-0.49531808 0.26657155 1.1958573
-0.48662043 0.26514432 1.1943334
-0.47561032 0.26469147 1.1954001
-0.4417429 0.26296693 1.197
-0.43516961 0.26184958 1.1938
-0.42646867 0.26174533 1.1941428
-0.41056103 0.26504573 1.197
-0.40453061 0.26508868 1.1958573
-0.39704889 0.26608515 1.197
-0.38407049 0.26583648 1.1943334
-0.37522161 0.26400632 1.197
-0.36592278 0.2626783 1.1938001
-0.3350831 0.26320556 1.1962
-0.32530114 0.26238111 1.1943334
-0.31802797 0.26208818 1.1930001
-0.29545695 0.26170784 1.1960001
-0.28847075 0.26252756 1.1950001
-0.27543968 0.26088816 1.197
-0.26519597 0.26001635 1.1930001
-0.25380081 0.26001638 1.1930001
-0.24599712 0.26085228 1.1936667
-0.238262 0.26001635 1.1930001
-0.22828311 0.26045227 1.1950001
-0.21582773 0.26148817 1.1950001
-0.11498731 0.26001638 1.1930001
-0.090125188 0.26001635 1.1930001
-0.65377945 0.27128211 1.197
-0.63398409 0.27244741 1.1930001
-0.26510915 -0.14438356 1.2019999
-0.23403668 -0.14268366 1.2023332
-0.22788253 -0.14160028 1.202
-0.26510912 -0.13881698 1.202
-0.24319065 -0.13359828 1.202
-0.23501472 -0.13464206 1.2019999
-0.2270873 -0.13583487 1.2020001
-0.23405793 -0.12577026 1.2019999
-0.22798397 -0.12509167 1.2030001
-0.23209335 -0.11813849 1.204
-0.14090446 0.13672951 1.202
-0.13464202 0.13777323 1.202
-0.12420466 0.13822055 1.2020001
-0.11528591 0.13757622 1.2033335
-0.10641947 0.13832028 1.2045001
-0.095234297 0.13772115 1.2052001
-0.085800014 0.13811797 1.2050002
-0.13290247 0.14160028 1.2020001
-0.12420465 0.14168724 1.202
-0.11439355 0.14257441 1.202
-0.10516917 0.14365104 1.2034118
-0.095032126 0.14394599 1.2026315
-0.084179007 0.14423485 1.2027998
-0.074618101 0.14819311 1.204182
-0.064927027 0.14870384 1.2060002
-0.05717767 0.14786606 1.2060002
-0.031416301 0.14975104 1.2060001
-0.02827467 0.14975104 1.2060001
-0.073687814 0.15217681 1.202
-0.065509833 0.15392047 1.2019999
-0.055226464 0.15436125 1.2024209
-0.044936687 0.15588106 1.2034998
-0.034480825 0.15567878 1.2032799
-0.025429821 0.15606287 1.2035555
-0.01989699 0.15812871 1.2060001
0.040841192 0.15393987 1.2060001
-0.043767367 0.16456249 1.202
-0.034443315 0.16491042 1.2019999
-0.025049685 0.16491041 1.2019999
-0.017943375 0.16488755 1.2047694
-0.043054145 0.17456497 1.2019999
-0.034486938 0.17453912 1.2035998
-0.025081635 0.17453782 1.2035998
-0.016904073 0.17495009 1.2049475
0.0010472101 0.17069523 1.2060001
-0.094980039 0.18682887 1.202
-0.08376763 0.18381204 1.2037144
-0.077584431 0.18474141 1.202
-0.054483067 0.18348894 1.202
-0.044895273 0.18375987 1.2023998
-0.034707602 0.18465599 1.2045454
-0.025049683 0.18161018 1.202
-0.01659964 0.18215916 1.2033334
-0.18056644 0.19309129 1.202
-0.17364235 0.19453934 1.2032002
-0.16678911 0.19601375 1.202
-0.15563101 0.19509116 1.2028888
-0.1450794 0.19309129 1.202
0.63459194 0.22579506 1.2020001
0.64403415 0.22305575 1.2060001
0.43040332 0.23981109 1.2060001
0.46705568 0.23981109 1.2060001
0.47447181 0.23932946 1.2053335
0.48453385 0.23965202 1.2052001
0.49577492 0.2390157 1.202
0.50643194 0.23961225 1.2050002
0.51627457 0.23981111 1.2060001
0.52197897 0.23849875 1.2046669
0.099154986 0.24945307 1.202
0.10750489 0.24945307 1.202
0.11167983 0.24945307 1.202
0.12629214 0.24945307 1.202
0.13464203 0.24945307 1.202
0.14175659 0.24903165 1.2033334
0.18578513 0.24945307 1.202
0.19309129 0.24945307 1.202
0.20474519 0.249137 1.2030001
0.21410565 0.24544136 1.2028002
0.22354808 0.24652766 1.2030001
0.25739312 0.24903165 1.2033334
0.26417375 0.24827699 1.2044001
0.27454636 0.24875069 1.2042223
0.28550768 0.24785812 1.2044002
0.29532334 0.24676888 1.2052001
0.30581486 0.24527812 1.202
0.31625742 0.24609436 1.2060001
0.32566786 0.24547321 1.2046669
0.3340086 0.24502249 1.2028002
0.34407502 0.24576786 1.2044001
0.35173926 0.24527812 1.202
0.36523667 0.24425559 1.2052002
0.3755368 0.24495858 1.2030001
0.38612646 0.24429113 1.2040002
0.39601502 0.24346042 1.2033334
0.40354925 0.24150434 1.204
0.41463923 0.24335252 1.2028002
0.42354837 0.24319065 1.202
0.43628195 0.24110317 1.202
0.44597083 0.24251615 1.2028002
0.45592541 0.24346042 1.2033334
0.46422565 0.24204446 1.2037144
0.47490022 0.24110317 1.202
0.48431423 0.24280986 1.2040001
0.50725603 0.24110317 1.202
0.515764 0.24185225 1.204
-0.53826594 0.25866088 1.2060001
-0.49533033 0.25866088 1.2060001
-0.43315074 0.25989044 1.202
-0.32568231 0.25866088 1.2060001
-0.29286975 0.25866088 1.2060001
-0.26615286 0.25989044 1.202
-0.25571549 0.25989044 1.202
-0.2446373 0.25927567 1.2040001
-0.23523845 0.25927567 1.204
-0.21432203 0.25927567 1.204
-0.1137673 0.25641131 1.202
-0.10568225 0.25687557 1.205
-0.094356142 0.2564019 1.204
-0.086835071 0.25721899 1.2048573
-0.074750476 0.25770831 1.204
-0.066799149 0.25571549 1.202
-0.055388905 0.25689226 1.2036
-0.049218871 0.25866088 1.2060001
-0.034469016 0.25588569 1.2028002
-0.013613731 0.25656646 1.2060001
-0.0062832604 0.25656646 1.2060001
0.017370488 0.25597739 1.2052001
0.025111331 0.25478289 1.205
0.031362467 0.25405002 1.204
0.044943199 0.25229287 1.2036002
0.055432666 0.25413442 1.2044001
0.064927027 0.25447205 1.2060001
0.074351907 0.25447205 1.2060002
0.083634391 0.25405002 1.2040001
0.094749413 0.25162393 1.2044001
0.10262658 0.25028321 1.2060001
0.11689851 0.25154054 1.202
0.12147637 0.25028321 1.2060001
0.14765662 0.25028321 1.2060001
0.15394752 0.2512891 1.2028
0.16418968 0.2520428 1.2044001
0.17465205 0.2520428 1.2044001
0.18191409 0.25091189 1.204
0.20001711 0.25028321 1.2060001
0.23981109 0.25028321 1.2060001
0.24576509 0.25078616 1.2044001
0.25342482 0.25028321 1.2060001
0.26913297 0.25028321 1.2060001
0.28798276 0.25028321 1.2060001
-0.65404785 0.26638421 1.2040001
-0.64607304 0.26615286 1.202
-0.63774049 0.26345754 1.204
-0.53555751 0.2624751 1.2042859
-0.52465224 0.26494414 1.2060001
-0.50725603 0.26406538 1.202
-0.49458182 0.26505297 1.2033334
-0.48590547 0.26494414 1.2060001
-0.45134753 0.26703855 1.2060001
-0.44192261 0.26284972 1.2060001
-0.43419448 0.26197791 1.202
-0.42527437 0.26226851 1.2033334
-0.41319066 0.26395309 1.2046669
-0.40402278 0.26470622 1.2033334
-0.39693916 0.26566938 1.2036002
-0.38521469 0.26574996 1.2033334
-0.37574521 0.26406538 1.202
-0.36113289 0.26406538 1.202
-0.35448056 0.26494414 1.2060001
-0.3434189 0.26331109 1.2033335
-0.33613312 0.26140383 1.2048573
-0.32462332 0.26166257 1.2043999
-0.31599781 0.26263177 1.205
-0.30581486 0.26197791 1.202
-0.29458362 0.26140383 1.2048572
-0.28564376 0.26175314 1.2037144
-0.27541623 0.26159307 1.2060002
-0.25140047 0.26116285 1.2046669
-0.22354461 0.26219586 1.2030001
-0.21723096 0.26186097 1.2046667
-0.65651035 0.27032781 1.202
-0.23213734 -0.11459936 1.2157778
-0.22497661 -0.11396232 1.2141001
-0.21488741 -0.11256995 1.2136364
-0.20745715 -0.1114652 1.2148335
-0.23162511 -0.10710436 1.2152501
-0.22516747 -0.10677518 1.2157856
-0.21504797 -0.10752398 1.2140001
-0.20872304 -0.10752398 1.2140001
-0.34224796 0.13837892 1.2165
-0.33556807 0.13823672 1.21525
-0.32829282 0.13828413 1.2156668
-0.11662585 0.13553816 1.21
-0.10386185 0.13633057 1.2117144
-0.095612191 0.13693908 1.21
-0.080991775 0.13778888 1.2113335
-0.077093616 0.13715053 1.2162857
-0.35353845 0.14236803 1.2190001
-0.34382442 0.14493729 1.2183334
-0.33529106 0.1444492 1.2142502
-0.32761723 0.1443474 1.2154706
-0.074552953 0.14306352 1.2128947
-0.065598436 0.14486703 1.2118889
-0.053966921 0.1454719 1.21
-0.045190744 0.1447202 1.2150836
-0.034944959 0.14451756 1.2133753
-0.024326112 0.1451126 1.2130955
-0.014758195 0.14652777 1.214
-0.0067038229 0.14783692 1.219
0.017994473 0.14924827 1.2190001
-0.35247996 0.15348226 1.2190001
-0.33205935 0.15074441 1.2140001
-0.32995105 0.15074441 1.2140001
-0.045179389 0.15059796 1.21
-0.036773916 0.15024772 1.21
-0.022787962 0.15146397 1.2113335
-0.015427112 0.15480416 1.2127829
-0.005281378 0.15533981 1.2170001
0.0048690923 0.15655191 1.219
0.015428028 0.1563267 1.2170001
0.024043035 0.15892598 1.2190001
0.0361837 0.15667103 1.2155714
0.044626813 0.15692663 1.2152144
-0.013315603 0.16434541 1.2106667
-0.005262726 0.16528058 1.2123998
0.0052673104 0.16539077 1.2132001
0.015204201 0.16543961 1.2114546
0.02462722 0.1653188 1.2146958
0.034792207 0.16552915 1.2142003
0.045234453 0.16596051 1.2160835
0.05393023 0.16865574 1.2177501
0.063280538 0.16810152 1.2175715
-0.011907744 0.17476366 1.21
-0.005253417 0.17546415 1.2099997
0.0052534165 0.17546414 1.2099998
0.015854936 0.17514943 1.2103478
0.025460307 0.17506045 1.2104443
0.034670815 0.17536215 1.2132728
0.04532874 0.17499004 1.2140002
0.055031043 0.17430542 1.2150528
0.064307719 0.17456478 1.2141254
0.070395783 0.17336276 1.21
-0.091409452 0.18807232 1.21
-0.085486926 0.18764958 1.211143
-0.078801252 0.18807232 1.21
-0.011557518 0.1838696 1.21
-0.0052610575 0.18407358 1.2113335
0.0054740566 0.1852849 1.214
0.014587643 0.18491769 1.2152355
0.024157666 0.18512309 1.2144548
0.034863584 0.1847657 1.2134786
0.045328736 0.18447743 1.2140003
0.054816153 0.18447743 1.2140002
0.064102873 0.18458448 1.213542
-0.17546412 0.19857916 1.21
-0.095612183 0.19017369 1.21
-0.08670786 0.19245023 1.2177501
0.025857605 0.1924955 1.2190001
0.035215259 0.19405821 1.2167778
0.045633566 0.19479051 1.2148699
0.054684777 0.19446132 1.2151766
0.061532706 0.19383718 1.2165
0.037017319 0.20479137 1.2180624
0.045133941 0.2052817 1.2151483
0.054658934 0.20500106 1.2166317
0.061922155 0.20614257 1.219
0.027834717 0.2166926 1.2173336
0.03566077 0.21614027 1.2184117
0.045375407 0.21527265 1.2152501
0.05521708 0.21510078 1.2176111
0.064464845 0.21520466 1.2187825
0.034878347 0.22086321 1.2170002
0.041281436 0.22122616 1.2190001
0.056365039 0.22360778 1.219
0.063933291 0.22461334 1.219
0.63741106 0.22487731 1.2133334
0.64492506 0.22207713 1.2144002
0.65039384 0.22100647 1.2120001
0.43220425 0.23929358 1.2140001
0.46765745 0.23909646 1.2130002
0.47520044 0.23672332 1.2104446
0.48314413 0.23806517 1.2113335
0.49541026 0.23876795 1.2113335
0.50562268 0.23859422 1.2126001
0.5153743 0.23800009 1.2145834
0.52279407 0.23638758 1.212625
0.017994473 0.24768862 1.2190001
0.023816215 0.24874711 1.2190001
0.030696452 0.24874711 1.2190001
0.06596332 0.24921341 1.2168572
0.071977884 0.24874711 1.2190001
0.098036572 0.24983513 1.2140001
0.10752398 0.24983513 1.2140001
0.1117406 0.24983513 1.2140001
0.12860712 0.24983513 1.2140001
0.13619065 0.2490539 1.213143
0.14492725 0.24826008 1.2143333
0.15316749 0.24929112 1.2165
0.16971923 0.24983513 1.2140001
0.18869404 0.24983513 1.2140001
0.19154218 0.24942355 1.2120001
0.20556055 0.24983513 1.2140001
0.21416663 0.24624424 1.2150002
0.22457445 0.24650264 1.2142001
0.23414652 0.24924223 1.2128334
0.24579275 0.24824958 1.214
0.25484428 0.24770048 1.2146924
0.26440784 0.24700947 1.214375
0.27426806 0.24707063 1.2139001
0.2839812 0.24630515 1.2127779
0.29460403 0.24588621 1.2143
0.30415142 0.24465615 1.2138889
0.31597644 0.24405956 1.215
0.32496724 0.24419995 1.2143
0.335168 0.24480923 1.21
0.34612051 0.24587141 1.2152501
0.35410374 0.24644734 1.2155001
0.36473823 0.24456435 1.2140001
0.37426189 0.24423888 1.213143
0.38188761 0.24441044 1.21325
0.39452165 0.24367736 1.2148335
0.40425491 0.24122187 1.2113335
0.41516113 0.24212742 1.2117778
0.42517596 0.24184476 1.2120001
0.43651408 0.24087164 1.2113335
0.44529203 0.24092679 1.213143
0.45438549 0.24204205 1.2130002
0.46232373 0.24152014 1.2128334
0.49643573 0.24027912 1.2190001
0.51378417 0.24060649 1.21
-0.33726937 0.2595188 1.21
-0.32886389 0.2595188 1.21
-0.29734337 0.2595188 1.21
-0.28893793 0.2595188 1.21
-0.27207026 0.25939435 1.2160001
-0.2644279 0.25889686 1.21325
-0.25539026 0.25903115 1.214
-0.24696027 0.25919405 1.2144002
-0.23640376 0.2595188 1.21
-0.22340664 0.2572298 1.2174166
-0.21750259 0.25708333 1.2124001
-0.11701139 0.25826839 1.2140001
-0.10313369 0.25678873 1.2120001
-0.094911724 0.25531608 1.21
-0.083444774 0.25718415 1.212625
-0.075373746 0.25730503 1.2149999
-0.064317629 0.25620228 1.2142001
-0.054205999 0.25728256 1.2160001
-0.045536112 0.25759387 1.2144547
-0.034844484 0.25552446 1.216
-0.02483481 0.25669339 1.2147274
-0.015494665 0.25624701 1.2130002
-0.004434058 0.25586101 1.2155999
0.005272232 0.2562252 1.2143334
0.015355112 0.25413761 1.2137144
0.024672538 0.2521475 1.2143333
0.0342682 0.25253594 1.2143333
0.044412777 0.25188193 1.2137144
0.055427775 0.25224957 1.2127273
0.064079374 0.25220945 1.2134545
0.074445561 0.25255153 1.2153847
0.085466877 0.25270888 1.2151668
0.094272874 0.25117967 1.2144002
0.10373284 0.25086412 1.2190001
0.11705958 0.25098875 1.2145
0.12384431 0.25086412 1.2190001
0.15744101 0.25101364 1.2136
0.16515103 0.25118703 1.2148889
0.17563894 0.25109482 1.2144445
0.18369661 0.25091398 1.2172002
0.19582219 0.25086412 1.2190001
0.20499586 0.25086412 1.2190001
0.24691059 0.25111333 1.21
0.25111333 0.25111333 1.21
-0.66212565 0.26442814 1.21325
-0.65345371 0.26614642 1.2134001
-0.64473861 0.26442814 1.21325
-0.53485197 0.26449013 1.2162857
-0.52500099 0.26576695 1.2136
-0.51675308 0.26693732 1.2170001
-0.50469744 0.26568273 1.2148573
-0.49398091 0.2627947 1.2133572
-0.48483887 0.2658698 1.2157143
-0.47508475 0.26710111 1.2158333
-0.46521771 0.26860717 1.2173334
-0.455275 0.26698408 1.2165
-0.44774482 0.2642718 1.2190001
-0.42329428 0.26495659 1.2156668
-0.41497883 0.26375425 1.2150002
-0.40504384 0.26407024 1.2116002
-0.3951886 0.26530048 1.2136251
-0.3862347 0.26485789 1.2120001
-0.37614465 0.26372153 1.21
-0.36427805 0.26502925 1.2160001
-0.35529906 0.26427341 1.2157779
-0.3458944 0.26220328 1.2148889
-0.33371022 0.26296186 1.2134287
-0.32343006 0.26117188 1.21525
-0.31520995 0.2614103 1.2149
-0.30549517 0.26128793 1.2121249
-0.29524201 0.26162016 1.21
-0.28393573 0.26106283 1.2130002
-0.2764332 0.26122734 1.216
-0.26880994 0.26037669 1.2140001
-0.23130953 0.26079118 1.2126669
-0.22495435 0.26099843 1.212
-0.21959282 0.26162016 1.21
-0.043336205 0.26109165 1.2173334
-0.20185827 -0.11246046 1.2256669
-0.19923823 -0.11187173 1.2270001
-0.20406133 -0.10824075 1.2261112
-0.19923823 -0.10974084 1.2270001
-0.15235864 -0.096955501 1.2270001
-0.36166257 0.13934579 1.2250001
-0.074338019 0.13699435 1.223
-0.36160961 0.14528173 1.2252222
-0.35477039 0.14618404 1.2232498
-0.34938869 0.14549012 1.223
-0.36413875 0.15463933 1.2259336
-0.35592476 0.15314659 1.2235715
-0.34832671 0.15186195 1.223
0.007964788 0.15239294 1.223
0.012963697 0.15323566 1.2238001
0.02467945 0.1541696 1.2244737
0.03217674 0.15503246 1.2250001
0.053187154 0.15849254 1.2250001
0.024425348 0.16035773 1.223
0.049912669 0.16248167 1.223
0.054916702 0.16432162 1.2240667
0.015953891 0.19279173 1.2247145
0.024267314 0.19675811 1.2248182
0.031859152 0.19858871 1.223
0.066764854 0.19586447 1.2236665
0.072726682 0.19441174 1.2256669
0.026950063 0.20568955 1.2263848
0.032111835 0.20480387 1.2246001
0.057346471 0.20283659 1.223
0.066095233 0.20428069 1.2241764
0.074210495 0.20700589 1.2267334
0.091983423 0.20918238 1.2270001
0.026875541 0.21304795 1.2241429
0.032617703 0.21284947 1.2230002
0.065842241 0.21133237 1.223
0.075248666 0.21538371 1.2251817
0.64461684 0.21982814 1.223
0.65311664 0.21935752 1.2243335
0.036107041 0.22407603 1.223
0.045967925 0.22369453 1.2247778
0.053165276 0.22607112 1.2246001
0.067966193 0.22832392 1.223
0.075161241 0.22458105 1.2263683
0.63824499 0.22407603 1.223
0.64461231 0.2216711 1.2238001
0.65630287 0.2217806 1.2250001
0.66483104 0.22326617 1.2263336
0.67442673 0.2269398 1.2270001
0.056788445 0.23402633 1.2255455
0.065225236 0.2356689 1.2261302
0.44855237 0.23972513 1.2270001
0.45494506 0.23972514 1.2270001
0.46133769 0.23972513 1.2270001
0.47199214 0.23972513 1.2270001
0.48956895 0.23894364 1.223
0.49631649 0.23946464 1.2256668
0.50533938 0.23884898 1.2243335
0.51557374 0.23677108 1.2255001
0.52100259 0.23546335 1.2270001
0.015929576 0.24956335 1.223
0.025872571 0.24841714 1.2243335
0.057826661 0.24762148 1.2256669
0.064263485 0.24534366 1.2259473
0.076061398 0.24767029 1.2257694
0.085096672 0.24890602 1.2250001
0.10938308 0.24956335 1.223
0.11807163 0.24890602 1.2250001
0.1360444 0.24870369 1.2240001
0.14336619 0.2474394 1.223
0.15542558 0.24857736 1.2260002
0.16487479 0.248906 1.2250003
0.17416336 0.24956335 1.223
0.18478307 0.24956335 1.223
0.1911549 0.24956335 1.223
0.20655927 0.24881212 1.2252859
0.21133237 0.2474394 1.223
0.22907068 0.2482487 1.2270001
0.2350761 0.24890602 1.2250001
0.24305651 0.24837503 1.2250001
0.25144503 0.2461178 1.2270001
0.26826379 0.24699888 1.2243335
0.2746599 0.24591723 1.2260001
0.28428975 0.24595736 1.2262002
0.29622588 0.24478492 1.2256669
0.30684817 0.24398692 1.2270001
0.31291062 0.24487261 1.2243335
0.32708728 0.24319153 1.223
0.33452106 0.24446587 1.223
0.34435758 0.24551603 1.2240001
0.35518155 0.24515691 1.2254002
0.36378828 0.24518305 1.2250001
0.37473014 0.24378806 1.2260002
0.38574842 0.24448512 1.2255001
0.3955574 0.24336664 1.2256668
0.40407607 0.24189968 1.2241429
0.41518751 0.24165891 1.2260002
0.42427689 0.24138296 1.2246002
0.43116051 0.24106757 1.223
0.44249916 0.2414618 1.2250001
0.45558584 0.24106757 1.223
0.46458527 0.24133039 1.2243335
-0.54231155 0.25890315 1.2270001
-0.49355894 0.25848114 1.2250001
-0.45707592 0.25890315 1.2270001
-0.26230702 0.25805911 1.223
-0.25487322 0.25805911 1.223
-0.23275553 0.257882 1.2262002
-0.22692208 0.25499287 1.2246002
-0.12039529 0.25890315 1.2270001
-0.11506806 0.25890315 1.2270001
-0.10525214 0.25727737 1.2243335
-0.094577312 0.25610262 1.2238001
-0.085163534 0.25656301 1.2260002
-0.075646594 0.25677225 1.2270001
-0.064866416 0.25627002 1.2246002
-0.055268548 0.25614446 1.2240001
-0.045098636 0.25556552 1.2241429
-0.035045069 0.25381124 1.223
-0.023925334 0.25397784 1.2246666
-0.015189125 0.25414386 1.2255455
-0.0057067662 0.25348854 1.2251819
0.0057039242 0.25283319 1.2248182
0.013397517 0.25201517 1.2246002
0.036193006 0.25177196 1.2260001
0.046234846 0.25189307 1.2240001
0.053716406 0.25103343 1.2250001
0.078585908 0.25168729 1.223
0.083895765 0.25168729 1.223
0.093826026 0.25075322 1.2258574
0.10433112 0.25070652 1.2260001
0.11400262 0.25037962 1.2270001
0.12458935 0.25059754 1.2263335
0.13104974 0.25037959 1.2270001
0.17473298 0.25037959 1.2270001
0.18361169 0.25037962 1.2270001
0.19689083 0.25081551 1.2256668
0.20257089 0.25081551 1.2256668
-0.67016494 0.26316494 1.2270001
-0.66590309 0.26636124 1.2270001
-0.65524524 0.26613754 1.2243335
-0.54184091 0.26188272 1.2243335
-0.53654408 0.26507959 1.2260001
-0.52500147 0.26537329 1.2254002
-0.51462072 0.26571295 1.2250003
-0.50485075 0.26305246 1.2240001
-0.4936243 0.26129955 1.2245001
-0.4851678 0.26300579 1.2241429
-0.47443286 0.26306224 1.223222
-0.46573147 0.26438254 1.22525
-0.4557687 0.26324472 1.2254001
-0.44474325 0.26400894 1.2243335
-0.4325707 0.26316494 1.2270001
-0.42500693 0.26358697 1.2256669
-0.41058969 0.26486337 1.2250001
-0.40421265 0.26486337 1.2250001
-0.39509878 0.26417777 1.2238001
-0.38974363 0.26443094 1.223
-0.37174019 0.26471692 1.2243335
-0.36504975 0.26358774 1.2256669
-0.35452265 0.26222402 1.2246002
-0.34832671 0.26018307 1.223
-0.33561519 0.26103404 1.2270001
-0.32576305 0.26082128 1.2260002
-0.3164489 0.26060855 1.2250001
-0.30422407 0.26060855 1.2250001
-0.29512832 0.26103404 1.2270001
-0.28553927 0.26103404 1.2270001
-0.27808115 0.26103404 1.2270001
-0.24212955 0.26018307 1.223
-0.23500696 0.26052347 1.2246002
-0.20005012 -0.11446717 1.2320001
-0.19444044 -0.11296595 1.232286
-0.1856575 -0.1118231 1.2323337
-0.17865437 -0.11018803 1.2320001
-0.21074797 -0.10590889 1.2320001
-0.20390134 -0.10633679 1.2320002
-0.19480769 -0.10596503 1.232667
-0.18567923 -0.10623214 1.2340001
-0.17865437 -0.10697867 1.2320001
-0.16206226 -0.10625274 1.2360001
-0.15331295 -0.098992318 1.2346668
-0.14810988 -0.099813186 1.2360001
-0.37332636 0.14515033 1.2336669
-0.36800668 0.1444212 1.2320002
-0.39234498 0.15809502 1.2352002
-0.38468298 0.15651101 1.2354001
-0.37483534 0.15513168 1.2338949
-0.36800662 0.15083992 1.2320001
0.011767654 0.15083992 1.2320001
-0.39217928 0.16180003 1.2340001
0.020325948 0.19791053 1.2320001
0.07500837 0.19823182 1.2340001
0.023178712 0.20361607 1.2320001
0.075980209 0.20225464 1.2324003
0.084608853 0.2056295 1.2334002
0.09093187 0.20753862 1.2320001
0.085582957 0.21502712 1.2320002
0.092765413 0.21517493 1.2342223
0.64936054 0.21930628 1.2320001
0.65470946 0.21930628 1.2320001
0.66433752 0.21930628 1.2320001
0.043906406 0.22811118 1.2333335
0.085004635 0.22493322 1.2322224
0.091656409 0.22431135 1.2360001
0.64613032 0.22073208 1.2340001
0.65255773 0.22073208 1.2340001
0.66434014 0.22162385 1.233
0.67536718 0.22455721 1.2340002
0.047223441 0.2307509 1.2360001
0.052772839 0.2348063 1.2331431
0.075073861 0.2350384 1.2320002
0.084393188 0.23426521 1.2328336
0.092763186 0.23110084 1.2350001
0.40461907 0.239337 1.2360001
0.45524564 0.23887227 1.2336
0.46289635 0.23894972 1.2340001
0.48404026 0.23933698 1.2360001
0.49691939 0.23933698 1.2360001
0.50655448 0.23882064 1.2333335
0.51512194 0.23667872 1.2333335
0.52526528 0.23642287 1.2320001
-0.020391941 0.24792306 1.2360001
0.017142637 0.24752189 1.2340001
0.025346074 0.24845797 1.2333335
0.031023813 0.24926031 1.2320001
0.055330776 0.24524513 1.2333336
0.069536135 0.24391137 1.2320001
0.07488507 0.24284157 1.2320004
0.084115885 0.24430513 1.2340002
0.093071446 0.24926031 1.2320001
0.10697867 0.24926031 1.2320001
0.11411558 0.2483391 1.2333335
0.12386949 0.24881457 1.2333335
0.13265355 0.24926031 1.2320001
0.14870036 0.24926031 1.2320001
0.15644415 0.24859169 1.2340001
0.16463809 0.24749377 1.2360001
0.17456165 0.24881457 1.2333335
0.18433605 0.24899288 1.2328001
0.19470116 0.24926031 1.2320001
0.20430437 0.24823509 1.2340001
0.21250549 0.24792306 1.2360001
0.23753345 0.24825738 1.2350001
0.2446622 0.24787849 1.2340002
0.2560069 0.24658306 1.2336
0.26502404 0.24680638 1.2340001
0.27430651 0.24537885 1.2340001
0.28334066 0.24577655 1.2360001
0.29205176 0.24712072 1.2320001
0.30274963 0.24426797 1.2320001
0.3155871 0.24498115 1.2320001
0.32305127 0.24363002 1.2360001
0.33734521 0.24453078 1.2333335
0.34556267 0.24438067 1.233778
0.35431534 0.24359241 1.2340001
0.36487135 0.24408041 1.2346668
0.37432671 0.24390025 1.2352002
0.38437471 0.24314086 1.2353334
0.39512295 0.24243087 1.2340001
0.40459532 0.24083225 1.2326669
0.4164249 0.24148351 1.2360001
0.4255313 0.24117091 1.2344002
0.43373251 0.24096251 1.2333335
0.44611236 0.24128813 1.2350001
0.46800274 0.24096251 1.2333335
0.47534189 0.240702 1.2320001
0.49745083 0.240702 1.2320001
-0.52482414 0.25865567 1.2360001
-0.50172997 0.25888836 1.2320001
-0.46107808 0.25995818 1.2320001
-0.32414538 0.25995821 1.2320001
-0.31986621 0.25995818 1.2320001
-0.2567488 0.25781858 1.2320001
-0.24315695 0.25943717 1.2336
-0.23443455 0.25547031 1.2338183
-0.22786456 0.25353944 1.2320001
-0.12232804 0.25772274 1.2336
-0.1152119 0.25558281 1.2345884
-0.10670167 0.2568365 1.2350001
-0.094705068 0.25587469 1.2346668
-0.084637873 0.25469103 1.2338184
-0.075681627 0.2552402 1.2333335
-0.064614423 0.25559798 1.2333335
-0.055529673 0.25530291 1.2331431
-0.046050616 0.2552402 1.2333335
-0.033635762 0.2534394 1.2336
-0.024377592 0.25153881 1.2340002
-0.015001327 0.25073475 1.2340002
-0.005360743 0.25081635 1.2344002
0.0048831208 0.25066084 1.2342223
0.013939644 0.25051305 1.2346668
0.035417579 0.25114286 1.2360001
0.045076922 0.2522161 1.2360001
0.050279975 0.25139987 1.2320001
0.098739922 0.25006959 1.2360001
0.10162973 0.25139987 1.2320001
0.12449817 0.25006959 1.2360001
0.13630402 0.25006959 1.2360001
0.18782051 0.25006959 1.2360001
0.20005012 0.25139987 1.2320001
-0.67078751 0.26724175 1.2360001
-0.66520447 0.26749668 1.2352002
-0.65720212 0.26452097 1.2333335
-0.54219031 0.26252091 1.2340001
-0.53540456 0.26502174 1.2340001
-0.52389908 0.26409259 1.2346668
-0.51619935 0.26399073 1.2337145
-0.50790036 0.26359302 1.2340001
-0.46626809 0.26230875 1.233
-0.45432937 0.26198485 1.2340001
-0.44515055 0.26452562 1.2333335
-0.43306041 0.26509523 1.2360001
-0.42424893 0.26346418 1.2344002
-0.41571936 0.26471969 1.2355001
-0.40467116 0.26380762 1.234286
-0.39438164 0.26429737 1.2337145
-0.38578421 0.26633763 1.2348002
-0.37620252 0.26561704 1.2351112
-0.36431739 0.26216429 1.2340001
-0.35733771 0.26166591 1.2333335
-0.34362176 0.26226792 1.2328001
-0.33306143 0.26166591 1.2333335
-0.32949084 0.26080218 1.2360001
-0.31448743 0.26132041 1.2344002
-0.30516359 0.26080221 1.2360001
-0.29621977 0.26080218 1.2360001
-0.28339392 0.26123405 1.2346668
-0.25114286 0.26080218 1.2360001
-0.24792306 0.26080218 1.2360001
-0.12689216 -0.16810499 1.2490001
-0.10471917 -0.16714095 1.2490002
-0.16043328 -0.11090354 1.24
-0.15419368 -0.1119046 1.2442858
-0.14625542 -0.11158924 1.2476667
-0.16115111 -0.10587879 1.24
-0.15435101 -0.10522503 1.2422729
-0.14573486 -0.10578953 1.2460771
-0.13773765 -0.10086299 1.2490001
-0.31126538 -0.081341125 1.2490001
-0.30909628 -0.081341125 1.2490001
-0.3051196 -0.078449003 1.2490001
-0.40128291 0.14858313 1.2490001
-0.39364168 0.14689784 1.2478573
-0.38402349 0.14611629 1.2434444
-0.37844139 0.14339513 1.2416668
-0.40396151 0.15535587 1.2476668
-0.39483893 0.15314049 1.2426001
-0.3865473 0.15181941 1.24
-0.40523258 0.16248237 1.2457999
-0.39839131 0.16151001 1.24
0.078601539 0.19811894 1.24
0.080755003 0.19811894 1.24
0.083022803 0.20161977 1.2416667
0.097200371 0.21703036 1.2410001
0.10403589 0.21781969 1.248
0.64949816 0.21901757 1.2425001
0.65465385 0.21857688 1.24
0.66111434 0.21857688 1.24
0.67597979 0.21862167 1.2472857
0.68239325 0.21777728 1.2460001
0.03768567 0.22934422 1.24
0.095983095 0.22534491 1.24
0.1004996 0.2226003 1.2445
0.64711678 0.22073033 1.24
0.6686514 0.22073033 1.24
0.67457604 0.22101988 1.243
0.045343209 0.23514912 1.2466666
0.050708495 0.2373611 1.2425001
0.093675807 0.23436897 1.24
0.40680811 0.23910949 1.2459999
0.41755113 0.23968521 1.2490001
0.42478144 0.23968521 1.2490001
0.43462536 0.23953168 1.2482001
0.44430333 0.23968521 1.2490001
0.455017 0.23886277 1.2447143
0.46594334 0.23891759 1.2450001
0.47533745 0.23851718 1.2461429
0.48421088 0.2383128 1.2475001
0.50891972 0.23930138 1.247
0.51460826 0.23942932 1.2476667
0.52275229 0.23751609 1.2490001
-0.024834335 0.24939403 1.2433333
-0.015074266 0.24872541 1.24
-0.0086486004 0.24972834 1.245
0.014053975 0.24972834 1.245
0.0226114 0.24872541 1.24
0.035265099 0.24898104 1.2456
0.045860451 0.24881718 1.2476667
0.051901586 0.24517718 1.24525
0.089458957 0.24358594 1.24125
0.09432184 0.24725214 1.2461667
0.10742412 0.24878047 1.2445999
0.11618799 0.24751647 1.24475
0.12527262 0.24837817 1.246375
0.13509321 0.24856424 1.2446002
0.14488024 0.24866886 1.2451251
0.15466927 0.24742547 1.2443076
0.16549537 0.24544816 1.2443333
0.17504337 0.24718563 1.245091
0.18580645 0.24750771 1.2447273
0.19533592 0.24790382 1.244
0.2048886 0.24750714 1.2447144
0.21528864 0.2476905 1.2438334
0.2248584 0.24864379 1.245
0.2348737 0.24675828 1.2445834
0.24438423 0.24575557 1.2438182
0.25505197 0.24613766 1.2446249
0.26442719 0.24605614 1.2446668
0.27269697 0.24626839 1.2472001
0.28964126 0.24657194 1.24
0.29530954 0.2463605 1.2457501
0.30620414 0.2461925 1.2490001
0.31506464 0.24484539 1.244
0.32454741 0.24453075 1.2452856
0.33513457 0.24412325 1.244
0.3453303 0.24319108 1.24475
0.35471669 0.24250765 1.2460001
0.36514425 0.24306704 1.244125
0.37519804 0.24280156 1.2452223
0.384978 0.24203685 1.245
0.39496243 0.24135184 1.243625
0.40162155 0.24011154 1.24
0.41346562 0.24011154 1.24
0.42508179 0.24059564 1.2425001
0.43588161 0.24059564 1.2425001
0.44499406 0.24139072 1.2434286
0.45115128 0.24011154 1.24
0.46837902 0.24011154 1.24
0.47483942 0.24011154 1.24
0.48237655 0.24011154 1.24
0.49554628 0.24075702 1.2433333
0.50350749 0.24043427 1.2416668
-0.54267359 0.25949275 1.24
-0.53459811 0.25949275 1.24
-0.52178496 0.25863135 1.24
-0.51816142 0.25881153 1.2445
-0.50714141 0.25949275 1.24
-0.33078724 0.25920707 1.2490001
-0.32460386 0.25937849 1.2436001
-0.31560358 0.25920707 1.2490001
-0.30801171 0.25920707 1.2490001
-0.28418401 0.25927848 1.2467501
-0.26340351 0.25907096 1.2457501
-0.25413737 0.25932136 1.2454001
-0.24373469 0.25813222 1.2438334
-0.23797631 0.25353405 1.2445999
-0.12309494 0.2548233 1.2435
-0.11220387 0.25461924 1.2425001
-0.10432909 0.25616214 1.243
-0.094386101 0.25470129 1.2446666
-0.085197322 0.25233918 1.2451
-0.074592844 0.25321651 1.245
-0.065583199 0.25404745 1.2450001
-0.054308064 0.25478366 1.244625
-0.044621263 0.2550143 1.24575
-0.034868143 0.25301799 1.24525
-0.027538758 0.25104472 1.2435
-0.0043381932 0.25053066 1.2490001
0.011844067 0.25087887 1.24
0.037420396 0.25187588 1.2431668
0.044539861 0.25147375 1.2451
0.050606467 0.25087887 1.24
0.10265698 0.25070477 1.2445
0.12813127 0.25087887 1.24
-0.68109637 0.26571435 1.2490001
-0.67332423 0.26550913 1.2446667
-0.66601253 0.26484385 1.2426667
-0.54159689 0.26164621 1.24
-0.53528118 0.26321909 1.2413335
-0.525087 0.26200515 1.24
-0.51577312 0.26262742 1.2446667
-0.50714141 0.26164621 1.24
-0.49422061 0.26164621 1.24
-0.48587766 0.26354524 1.2490001
-0.47605422 0.26291224 1.2460001
-0.46602723 0.26126274 1.2464001
-0.45361805 0.26455861 1.2456
-0.44421196 0.26609245 1.2464287
-0.4348945 0.26604563 1.2438334
-0.42467862 0.26247895 1.24525
-0.41494906 0.26228857 1.2439166
-0.4041715 0.2627784 1.2453749
-0.39432558 0.26365429 1.2451428
-0.38464347 0.26376641 1.2429
-0.37577739 0.26209369 1.2455555
-0.36528665 0.26126817 1.244625
-0.35474873 0.26272658 1.2468334
-0.34394968 0.26225394 1.2472857
-0.33558246 0.26104766 1.2440001
-0.32540357 0.26053908 1.245
-0.31453952 0.26085541 1.2435715
-0.30503023 0.26092792 1.2448
-0.29457703 0.26072359 1.2441666
-0.28519368 0.26113316 1.2434287
-0.27568495 0.26220611 1.2472223
-0.26750857 0.26102513 1.24475
-0.25621477 0.26053908 1.245
-0.24972834 0.26053908 1.245
-0.12195568 -0.17095573 1.2540001
-0.11760013 -0.17095573 1.2540001
-0.12457202 -0.16482632 1.25625
-0.11546967 -0.16448838 1.2544999
-0.10589455 -0.16251683 1.2539999
-0.096616484 -0.16482632 1.2582858
-0.12159272 -0.15716313 1.2540001
-0.1154815 -0.15687777 1.254625
-0.10562234 -0.15788905 1.2540001
-0.090738229 -0.15633214 1.2590001
-0.13373868 -0.11114523 1.2590001
-0.12619793 -0.11165045 1.2565001
-0.14177349 -0.10540456 1.2540001
-0.13505408 -0.10544045 1.2548822
-0.12693641 -0.10526106 1.2561876
-0.13284458 -0.099088997 1.2540001
-0.12631124 -0.099088997 1.2540001
-0.32180819 -0.082801841 1.258
-0.31537744 -0.08304029 1.2550001
-0.32320848 -0.075340509 1.2575001
-0.31383872 -0.074919038 1.254263
-0.30646202 -0.073681563 1.2540001
-0.32156631 -0.066687137 1.2590001
-0.31378126 -0.066108286 1.2543846
-0.30742997 -0.067874148 1.2540001
-0.31468922 -0.059888951 1.2540001
-0.42089421 0.14867952 1.2590001
-0.41522342 0.14860517 1.2583749
-0.40517408 0.14646405 1.255
-0.39526713 0.14381726 1.2540001
-0.42417383 0.15596771 1.2589999
-0.41504741 0.15488967 1.2561876
-0.40724486 0.15135571 1.2540001
-0.43370062 0.1669521 1.2590001
-0.42619234 0.16501158 1.2585003
-0.4154616 0.16432083 1.2546523
-0.40833375 0.16660017 1.2540001
-0.43401298 0.17163739 1.2590001
0.10997789 0.2188669 1.2540001
0.11260287 0.21973957 1.2590001
0.6788969 0.21755311 1.2590001
0.68425333 0.21703473 1.256
0.037071466 0.23660609 1.2556669
0.040833376 0.23683359 1.2540001
0.094733432 0.23846692 1.2540001
0.40805459 0.23894233 1.2565
0.41051155 0.23846692 1.2540001
0.42672479 0.23941776 1.2590001
0.43552071 0.23824972 1.256143
0.4457112 0.2386571 1.255
0.45442578 0.23821978 1.2550001
0.46479627 0.23894233 1.2565
0.47497588 0.23821351 1.2565002
0.48440519 0.23510526 1.257
0.49419779 0.23863342 1.25775
0.50507301 0.23941775 1.2590001
0.51545513 0.23826636 1.2567778
0.52590698 0.23805504 1.2556667
0.53296846 0.23863342 1.25775
0.54333615 0.23941776 1.2590001
-0.090377875 0.24935582 1.2540001
-0.086022317 0.24935584 1.2540001
-0.075685859 0.24860692 1.2551111
0.036021072 0.24623711 1.257
0.044691678 0.24487446 1.2553043
0.051177833 0.24500026 1.2540001
0.096400924 0.24457312 1.2567778
0.10444834 0.24856101 1.2573335
0.11428161 0.24773997 1.2568573
0.12539169 0.24750656 1.2556667
0.13414362 0.24757226 1.2560002
0.14516537 0.24776939 1.257
0.1551923 0.24605182 1.2556667
0.16468637 0.24408089 1.256
0.17630054 0.24469785 1.2552501
0.18393657 0.24560864 1.2571249
0.19493693 0.24621463 1.2565
0.20394197 0.24669769 1.256
0.21527395 0.24742442 1.25525
0.22498322 0.24791721 1.25775
0.23450893 0.24541894 1.256143
0.24500024 0.24500027 1.2540001
0.25556549 0.24573293 1.25775
0.26501709 0.24539101 1.2560002
0.27658615 0.24538445 1.2575715
0.2845304 0.24599674 1.2580909
0.29428479 0.24621733 1.258
0.30501163 0.24597713 1.2590001
0.31485075 0.24597713 1.2590001
0.32388091 0.24365237 1.2582859
0.33392099 0.24386089 1.256143
0.34497342 0.24306454 1.25525
0.35824481 0.24282248 1.2540001
0.36536166 0.24233519 1.2559999
0.37368944 0.24221334 1.2565
0.38700402 0.24160421 1.2590001
0.39443654 0.24080461 1.2548335
0.40288931 0.24064469 1.2540001
0.4148671 0.24064469 1.2540001
0.42793378 0.24064469 1.2540001
0.44753382 0.24064469 1.2540001
0.49702772 0.24088457 1.2552501
0.50524497 0.24064469 1.2540001
0.5368228 0.24064469 1.2540001
0.54224288 0.24160421 1.2590001
-0.34655446 0.2585493 1.2590001
-0.33343565 0.25909591 1.2590001
-0.32218316 0.25774544 1.25775
-0.31431827 0.25716752 1.2559999
-0.30559888 0.25817725 1.2575715
-0.29553697 0.25909591 1.2590001
-0.28559464 0.25883865 1.25775
-0.27585882 0.25909591 1.2590001
-0.26519006 0.25744009 1.2556667
-0.25508741 0.25873151 1.2590001
-0.24554297 0.25572523 1.2567778
-0.12790811 0.25690946 1.2590001
-0.11433345 0.25588915 1.2540001
-0.10211623 0.25501454 1.25775
-0.095783718 0.25258008 1.2563334
-0.08275564 0.2515336 1.2540001
-0.074588969 0.2515336 1.2540001
-0.065948933 0.25116965 1.2568573
-0.055618491 0.25411603 1.256
-0.043891318 0.2532708 1.2558751
-0.035749611 0.25133941 1.257125
-0.028424025 0.25035006 1.2590001
-0.0010932317 0.25253654 1.2590001
0.0054466212 0.25203508 1.2565
0.01197779 0.2515336 1.2540001
0.020771403 0.25253654 1.2590001
0.10385701 0.25035006 1.2590001
-0.68309414 0.26602957 1.2573335
-0.67728961 0.26460028 1.2540001
-0.51649684 0.26169658 1.2540001
-0.49544498 0.26460028 1.2540001
-0.48225108 0.26294565 1.2565
-0.47566423 0.26170996 1.257125
-0.46534073 0.26185244 1.2565
-0.45482811 0.26445758 1.2567776
-0.44411337 0.26384598 1.2573333
-0.43567052 0.26251599 1.2567778
-0.42470416 0.26166242 1.2573334
-0.41451514 0.26166245 1.2573335
