# .PCD v0.7 - Point Cloud Data file format
VERSION 0.7
FIELDS x y z
SIZE 4 4 4
TYPE F F F
COUNT 1 1 1
WIDTH 1504
HEIGHT 1
VIEWPOINT 0 0 0 1 0 0 0
POINTS 1504
DATA ascii
-0.23086292 0.053431161 1.161
-0.22595721 0.055996668 1.1614211
-0.29251114 0.066188842 1.1643847
-0.28812501 0.06552878 1.1610001
-0.23086292 0.06552878 1.161
-0.22543094 0.065709382 1.1642002
-0.21859568 0.067361824 1.1636667
-0.29168707 0.075610131 1.1610001
-0.28933474 0.071577586 1.161
-0.231619 0.075610131 1.1610001
-0.22552592 0.075610258 1.1659603
-0.21779452 0.073951617 1.1666001
-0.2933673 0.085691482 1.161
-0.23265719 0.085378565 1.1617274
-0.22480612 0.08462768 1.1679633
-0.21824257 0.088312104 1.169
-0.29202312 0.099133275 1.161
-0.23206863 0.095339142 1.1624546
-0.2254249 0.094054885 1.1682861
-0.21790421 0.094740957 1.1690001
-0.29264757 0.10475313 1.1615715
-0.2873185 0.10787045 1.1610001
-0.23312393 0.10581024 1.1622308
-0.22687811 0.10494915 1.1677501
-0.2174958 0.10621887 1.1650001
-0.29164433 0.11443157 1.1662
-0.28630832 0.11553262 1.1614445
-0.23309131 0.11536717 1.1620668
-0.22763944 0.1143278 1.16775
-0.29234558 0.12390684 1.1685556
-0.28689927 0.12515238 1.1642001
-0.23303002 0.12478531 1.1625386
-0.22825679 0.12441245 1.1675714
-0.29260129 0.13539504 1.168
-0.28523311 0.13458791 1.1634446
-0.23315732 0.13412488 1.1638572
-0.22658132 0.13538203 1.1687334
-0.29235658 0.14122695 1.1634001
-0.28631034 0.14063483 1.161
-0.23139319 0.14247584 1.1636667
-0.22467409 0.1434985 1.1657622
-0.2157125 0.14627956 1.1668948
-0.21222037 0.15182751 1.1656668
-0.20617764 0.154851 1.1666001
-0.19794093 0.15936783 1.169
-0.20200126 0.16241308 1.169
-0.1957262 0.16619658 1.1689999
-0.18982027 0.16951865 1.169
-0.19185044 0.17154881 1.169
-0.18575995 0.17628585 1.169
-0.2839694 0.19818343 1.166091
-0.27526867 0.19804488 1.1677692
-0.26469493 0.19783525 1.1615715
-0.25757849 0.19809853 1.161
-0.2935991 0.20594697 1.1613079
-0.28601193 0.20497474 1.1666669
-0.27305698 0.20504652 1.1689999
-0.26488352 0.2051454 1.1650003
-0.25595853 0.20540997 1.1643337
-0.24818127 0.20771693 1.1650001
-0.29133976 0.21244124 1.165
-0.28636074 0.21152826 1.1677998
-0.272912 0.21389224 1.169
-0.26528502 0.21463513 1.1665558
-0.25553891 0.21486935 1.1653813
-0.24648792 0.21523786 1.1663337
-0.23975118 0.2174958 1.1650001
0.61818475 0.21621241 1.169
0.63463253 0.21848221 1.1638001
0.64034808 0.2174958 1.1650001
-0.27143288 0.22352099 1.169
-0.26448518 0.22309239 1.1690001
-0.25613078 0.22276329 1.1675454
-0.24594907 0.22212346 1.1656153
0.61480033 0.22714019 1.1625999
0.62398571 0.22296743 1.1641431
0.63036573 0.22027273 1.169
0.50623345 0.23947679 1.1636667
0.51247805 0.23893912 1.1650002
0.13656713 0.24986726 1.1650001
0.14567161 0.24885568 1.1650001
0.15477608 0.24885567 1.1650001
0.16084573 0.24986726 1.1650001
0.2296351 0.24986726 1.1650001
0.23671636 0.24986726 1.1650001
0.24324189 0.24929534 1.1623335
0.25651595 0.24963282 1.1658001
0.26540327 0.24921317 1.1655
0.27562985 0.24826953 1.1670001
0.28476298 0.24899749 1.1656667
0.29808062 0.24958131 1.1636667
0.30473596 0.24838741 1.164
0.31400958 0.2487531 1.1638572
0.32233375 0.24958131 1.1636667
0.33570898 0.24699308 1.161
0.34635791 0.24643824 1.1663334
0.35559136 0.24702187 1.1638572
0.36500457 0.24714245 1.1644286
0.3745006 0.24663359 1.1656668
0.38420889 0.24662875 1.1650001
0.39610356 0.24764752 1.1656667
0.40510258 0.24581704 1.1650001
0.41510689 0.24536137 1.1655716
0.42609489 0.24474564 1.1635001
0.43488672 0.2445457 1.1632223
0.44298601 0.24443948 1.1642002
0.46560296 0.24355647 1.1638572
0.47548324 0.24369864 1.1626002
0.48496851 0.24433714 1.1654445
0.4931328 0.24235503 1.1645555
0.50246549 0.24057436 1.169
-0.43753058 0.25909069 1.161
-0.20650327 0.25922501 1.1676668
-0.10383791 0.25909069 1.161
-0.091041282 0.25694507 1.165
-0.084712349 0.25798184 1.1642001
-0.07532879 0.25835347 1.1645001
-0.066041596 0.25940332 1.165
-0.052693941 0.25941458 1.1670001
-0.045780368 0.2592794 1.1658889
-0.036800258 0.25960419 1.1663334
-0.025751777 0.25738183 1.1654445
-0.014470196 0.2558336 1.1630001
-0.0052797562 0.25750899 1.1650001
0.0053964024 0.25812468 1.165
0.01504156 0.25471744 1.1650001
0.025515785 0.25480986 1.1650002
0.036183666 0.25528547 1.1654999
0.04556996 0.25518548 1.1662
0.055660602 0.25528547 1.1655
0.065228142 0.25474325 1.1636667
0.074882984 0.25480741 1.1653999
0.084722258 0.25325346 1.1653637
0.09478756 0.25288272 1.1654444
0.10228475 0.25285089 1.1663334
0.11588458 0.25301141 1.1650001
0.12426762 0.25232226 1.1635001
0.13480528 0.25106964 1.1643333
0.14365217 0.25097558 1.1623334
0.15424465 0.25102565 1.1610001
0.16510232 0.25118691 1.1644286
0.17501381 0.25189048 1.1650001
0.18532158 0.252343 1.1644287
0.19510773 0.25171754 1.1642001
0.20592043 0.25209591 1.1632859
0.2151272 0.25102106 1.1645001
0.22422886 0.25107238 1.1646366
0.2324537 0.25072518 1.169
0.24823248 0.25092548 1.1636667
0.25411022 0.25093982 1.1632859
0.26312327 0.25102562 1.161
0.29295886 0.2508454 1.1658001
-0.63327032 0.26706114 1.165
-0.53088772 0.26290616 1.169
-0.52463096 0.26357305 1.163
-0.51418078 0.26715207 1.1672858
-0.50537014 0.26670188 1.1646365
-0.49437645 0.26512894 1.1658889
-0.48443016 0.26466799 1.1663334
-0.46459514 0.26653898 1.1656668
-0.45500904 0.26329121 1.1655716
-0.44257736 0.26170206 1.1636667
-0.43418771 0.26245603 1.1634001
-0.42509475 0.26676178 1.1669999
-0.4154782 0.26676711 1.1657273
-0.40533629 0.26569769 1.1670001
-0.39497647 0.26449651 1.1663332
-0.38437808 0.26280275 1.1645557
-0.37634161 0.2635566 1.1653636
-0.36591733 0.2643759 1.1627145
-0.35593566 0.26373979 1.1650002
-0.34413612 0.26552853 1.1656668
-0.33504054 0.26443097 1.1650001
-0.32505867 0.26328665 1.1662
-0.31485334 0.26529962 1.1646669
-0.30538723 0.26684457 1.1645558
-0.29511073 0.26514867 1.1642727
-0.28292617 0.26507181 1.1636667
-0.27417251 0.26339903 1.1632224
-0.26583105 0.26258975 1.1658
-0.25463659 0.26273555 1.1660001
-0.24476999 0.26423579 1.1659231
-0.23511487 0.26300266 1.1654445
-0.22381361 0.26500633 1.1663333
-0.21547401 0.26533005 1.1675884
-0.20696381 0.26274416 1.1638001
-0.11165899 0.260876 1.169
-0.10741631 0.26245636 1.1670001
-0.056248464 0.26093376 1.1670001
-0.042341672 0.26110697 1.161
-0.036414426 0.26099145 1.1650001
-0.21722749 0.27102682 1.169
-0.63863403 -0.41149622 1.1730001
-0.63666379 -0.4036966 1.1750001
-0.63586885 -0.39453372 1.1756669
-0.63286608 -0.38688752 1.1747144
-0.27901375 -0.14001788 1.177
-0.31376269 -0.13388573 1.177
-0.30879861 -0.13534577 1.177
-0.27583465 -0.13511136 1.1743336
-0.26435181 -0.13443474 1.1741431
-0.25565732 -0.13241215 1.1730001
-0.30277526 -0.12202906 1.1760001
-0.29843229 -0.12366543 1.177
-0.27650079 -0.12855676 1.1750001
-0.30545431 -0.11610594 1.1755002
-0.23487696 -0.11862736 1.1743335
-0.30821458 -0.10526893 1.177
-0.30795822 -0.095323421 1.1747779
-0.30221984 -0.084831089 1.1730002
-0.27799171 -0.07154198 1.177
-0.27602845 -0.068243191 1.1730001
-0.2943624 -0.041760758 1.1730001
-0.29496467 -0.035726532 1.1754001
-0.29843661 -0.017315436 1.1730001
-0.23121199 -0.015278325 1.1730001
-0.22917488 -0.015278325 1.1730001
-0.22510067 0.035649426 1.1730001
-0.22102644 0.07639163 1.1730001
-0.21898933 0.07639163 1.1730001
-0.22306356 0.09879984 1.1730001
-0.22408213 0.10432914 1.1730002
-0.22420715 0.11455593 1.1758002
-0.29578683 0.12781364 1.1738001
-0.22447357 0.12481148 1.1755457
-0.29639953 0.1334307 1.1730001
-0.22277991 0.13534181 1.173889
-0.21923825 0.13765892 1.1743335
-0.2135758 0.14319825 1.1746001
-0.20631087 0.14756583 1.1757693
-0.19622944 0.14751276 1.177
-0.20212805 0.15422645 1.173667
-0.19515644 0.15497273 1.1757201
-0.18805322 0.15688136 1.177
-0.20201342 0.16330832 1.1730001
-0.19287027 0.16402932 1.173308
-0.18590696 0.16475098 1.177
-0.17251839 0.16536419 1.177
-0.16454658 0.16556861 1.177
-0.15574142 0.16501828 1.177
-0.14819412 0.16045846 1.177
-0.18421616 0.17401089 1.1755265
-0.17323381 0.17323381 1.177
-0.16454656 0.1719795 1.177
-0.15677916 0.17149638 1.177
-0.18253428 0.18212548 1.177
-0.28051007 0.2055444 1.1730002
-0.27806553 0.20574811 1.1730001
-0.29130673 0.21695222 1.1730001
-0.28307676 0.21565609 1.1740669
-0.27772602 0.21559416 1.1730002
0.61826289 0.21695222 1.1730001
0.62548137 0.2197361 1.177
0.63354123 0.21797077 1.1730001
-0.28133002 0.22312477 1.1760001
-0.27600735 0.225319 1.1741431
-0.26991707 0.22713777 1.1730001
0.61826289 0.22713777 1.1730001
0.62462121 0.22323881 1.1750001
0.51233315 0.23936044 1.1730001
0.14157915 0.24954598 1.1730001
0.22306356 0.24954598 1.1730001
0.23460719 0.24954598 1.1730001
0.24547176 0.24954598 1.1730001
0.2562696 0.24810879 1.1747779
0.26440319 0.2487506 1.1756668
0.27597922 0.2487506 1.1756668
0.28480253 0.24714856 1.1748184
0.2948643 0.24894944 1.1750002
0.30403969 0.24798906 1.1736668
0.31527016 0.24731696 1.1750002
0.32456803 0.24909855 1.1745002
0.33397609 0.24894944 1.1750001
0.3407757 0.24793088 1.1750001
0.35579142 0.24678884 1.1754001
0.36648569 0.24670355 1.1747144
0.3752532 0.24609029 1.1743335
0.38452753 0.24636933 1.1756668
0.39528561 0.24666847 1.175182
0.404291 0.24512377 1.1750001
0.41423494 0.24486828 1.1750001
0.42371887 0.24547176 1.1730001
0.43414816 0.24357301 1.1736668
0.44541356 0.24400809 1.1738001
0.45612836 0.24654956 1.1745001
0.46505818 0.24541894 1.1741431
0.47654426 0.24303001 1.1743335
0.48539478 0.24291441 1.1747146
0.49500576 0.24189146 1.1754001
0.50011051 0.24139754 1.1730001
-0.53372288 0.25973153 1.1730001
-0.27399132 0.25973153 1.1730001
-0.2108409 0.25973153 1.1730001
-0.20472956 0.25973153 1.1730001
-0.093004584 0.25857317 1.177
-0.085219108 0.25769442 1.1730001
-0.074402452 0.2578702 1.1738001
-0.06465669 0.25895929 1.1756668
-0.054501291 0.25862911 1.1754001
-0.044673841 0.25845334 1.1746
-0.035249222 0.25899038 1.174778
-0.026215274 0.25672334 1.1763334
-0.015294998 0.25600603 1.1746
-0.0042217132 0.25648844 1.1741431
0.0042197285 0.25623935 1.1730002
0.013945146 0.2533713 1.1750001
0.025137674 0.25342366 1.1736668
0.035216127 0.25441453 1.1755002
0.044892836 0.25405264 1.1750001
0.053672265 0.25410387 1.1736668
0.063524082 0.2541039 1.1736668
0.074451767 0.25396615 1.1746
0.08585038 0.25244102 1.177
0.095048644 0.25244102 1.177
0.10512304 0.2533215 1.1754001
0.11488354 0.25273582 1.1760001
0.12324516 0.2515831 1.1730001
0.13286369 0.25244102 1.177
0.16704303 0.2515831 1.1730001
0.1753417 0.25179759 1.174
0.18460855 0.25192627 1.1746
0.19454402 0.2515831 1.1730002
0.20515262 0.25209787 1.1754001
0.212878 0.2515831 1.1730001
0.22637928 0.25039694 1.177
0.23404449 0.25039694 1.177
0.24119869 0.25039694 1.177
0.25141898 0.25039694 1.177
-0.63876772 0.26879346 1.177
-0.53270435 0.26176864 1.1730001
-0.52418768 0.26611862 1.1752224
-0.51529568 0.26546487 1.1743335
-0.50487518 0.26577589 1.1752858
-0.49500576 0.26434553 1.1754001
-0.48852956 0.26470536 1.177
-0.47416419 0.26750311 1.1743335
-0.46604493 0.2657274 1.177
-0.43427262 0.26326498 1.1740001
-0.42489251 0.26487303 1.1744548
-0.41497001 0.26366898 1.1746669
-0.40526128 0.26266852 1.1742309
-0.39502612 0.26250106 1.174
-0.38555187 0.26236373 1.1756668
-0.37627172 0.2634266 1.1743335
-0.36435312 0.2631723 1.177
-0.35395214 0.26419228 1.1747144
-0.3443706 0.26508456 1.1756668
-0.33374655 0.26244769 1.1730001
-0.32528722 0.26206505 1.1743335
-0.31473351 0.26380575 1.1730002
-0.30546373 0.26329708 1.174778
-0.296395 0.26375675 1.1746
-0.28414503 0.26474616 1.1756668
-0.27701008 0.26272422 1.1750001
-0.26754481 0.26141608 1.1760001
-0.2534945 0.26207396 1.1762002
-0.24514499 0.26285201 1.1763334
-0.23608856 0.26266128 1.177
-0.22478417 0.2640298 1.1740001
-0.21552221 0.2612752 1.1747144
-0.11509672 0.26176864 1.1730001
-0.10731298 0.26197994 1.177
-0.060299672 0.26061723 1.177
-0.056211561 0.26061723 1.177
-0.64516735 -0.41158652 1.1850001
-0.64410192 -0.40735745 1.1836667
-0.64298958 -0.39686915 1.1810001
-0.63888758 -0.38866514 1.1810001
-0.30457225 -0.14144543 1.189
-0.29011798 -0.14144543 1.189
-0.28438699 -0.14065236 1.1823335
-0.3216657 -0.13092238 1.1810001
-0.31559813 -0.13203333 1.1810001
-0.30539623 -0.13401841 1.1853999
-0.29234174 -0.1342977 1.1890001
-0.28496471 -0.13476171 1.1847335
-0.27557558 -0.13497069 1.1820002
-0.2668044 -0.13838196 1.1863334
-0.32293868 -0.12457604 1.1856667
-0.31423703 -0.12490764 1.1819412
-0.30546272 -0.12653254 1.1834002
-0.29632109 -0.12822534 1.1876668
-0.28303847 -0.12818772 1.1810001
-0.24190508 -0.12430669 1.1880001
-0.23769324 -0.12244803 1.1850001
-0.32221416 -0.11426764 1.1855336
-0.31423211 -0.11552351 1.1826
-0.308676 -0.11895819 1.1810001
-0.32105729 -0.10747565 1.1863334
-0.31427133 -0.10578059 1.18275
-0.3133001 -0.095708795 1.182
-0.22355938 0.1189582 1.1810001
-0.22290899 0.12789205 1.1830001
-0.22266859 0.13195679 1.183286
-0.21562743 0.13604991 1.1850001
-0.20527604 0.13650608 1.182
-0.19541124 0.13678329 1.1833528
-0.18461056 0.13628048 1.1869999
-0.17603245 0.13808995 1.189
-0.16312686 0.13938053 1.189
-0.1558997 0.13938054 1.189
-0.21268904 0.14090393 1.1810001
-0.20486368 0.14286029 1.181
-0.19554698 0.14351626 1.181
-0.18519884 0.14456467 1.1825713
-0.17501883 0.14506094 1.1841302
-0.16500707 0.14498268 1.1848459
-0.15544818 0.14579524 1.1869999
-0.14583659 0.14686789 1.1883332
-0.13656476 0.14782785 1.1890001
-0.12699115 0.14970501 1.189
-0.11563422 0.14970501 1.189
-0.19279432 0.15074874 1.1810001
-0.18502982 0.15436244 1.181
-0.17536078 0.15485075 1.1809999
-0.16510577 0.15485075 1.1809999
-0.15493327 0.15493272 1.1816398
-0.14490642 0.1551839 1.1835599
-0.13493912 0.15554027 1.1862798
-0.12469089 0.15560183 1.1867597
-0.11510285 0.15554965 1.1870952
-0.10663717 0.1558997 1.189
-0.094985247 0.1579646 1.189
-0.089823008 0.1579646 1.189
-0.181924 0.16428538 1.1810001
-0.17686486 0.16455884 1.1810001
-0.16510577 0.16100377 1.1810001
-0.15331249 0.16459303 1.181
-0.14442484 0.16527671 1.181
-0.13483159 0.16570915 1.1853199
-0.12447209 0.16561913 1.1846799
-0.11402912 0.16526774 1.1854444
-0.10446981 0.16473475 1.1878569
-0.0954061 0.16493973 1.1878331
-0.089048676 0.16493362 1.189
-0.1815138 0.17125878 1.1810001
-0.17608465 0.17608471 1.181
-0.16454643 0.17703889 1.181
-0.15443502 0.17547344 1.1817499
-0.14488821 0.17469236 1.1834
-0.13481848 0.17495582 1.1852
-0.1245263 0.17495577 1.1852
-0.1143312 0.17510568 1.1862
-0.1041875 0.17537051 1.1879998
-0.095045984 0.17472671 1.1889999
-0.088790558 0.17138642 1.189
-0.17580278 0.18301392 1.1854
-0.16535847 0.18158738 1.1865001
-0.15426204 0.18106285 1.187
-0.14557521 0.18067847 1.189
-0.13525073 0.18067847 1.189
-0.12441003 0.18257128 1.1890001
-0.11535265 0.18236792 1.1890001
-0.10466878 0.18150909 1.1867144
-0.097209804 0.18103944 1.1855716
0.63376004 0.21843186 1.1810001
0.64516735 0.21917169 1.1850002
-0.29124248 0.22048287 1.1810001
-0.28670096 0.22282687 1.1810002
0.62558818 0.22188523 1.1830001
0.63344657 0.22073179 1.1823335
0.49699494 0.23975118 1.1850001
0.51787835 0.23894189 1.1810001
0.2199115 0.24882005 1.189
0.22582854 0.24869458 1.1835001
0.23411517 0.24830668 1.1846
0.24756445 0.24910271 1.1830001
0.25379014 0.24732925 1.183286
0.26562318 0.24812019 1.1856668
0.27781981 0.24798068 1.1850002
0.2850261 0.24592505 1.1850001
0.29519212 0.24684764 1.1845001
0.30457315 0.24695054 1.1850002
0.31349325 0.24626687 1.1850002
0.3253223 0.24700445 1.1839091
0.33598754 0.24761324 1.1862
0.34486488 0.24633157 1.1842728
0.35443813 0.24624364 1.1854445
0.36453211 0.24599019 1.1836667
0.37497616 0.24491507 1.1845556
0.38530001 0.24480002 1.1850002
0.39554569 0.2438979 1.1826668
0.40447116 0.2431965 1.1830001
0.41651088 0.24482517 1.1863334
0.42496669 0.2453351 1.1850002
0.43500894 0.24356587 1.1853637
0.44563493 0.24279419 1.1858001
0.45639879 0.2446889 1.1870002
0.46493819 0.2441494 1.1856155
0.47448307 0.24274793 1.1838573
0.4853619 0.24216579 1.1855001
0.49414489 0.24090154 1.1846001
0.50448596 0.24086936 1.183286
0.5144875 0.24077669 1.1850001
-0.40917519 0.25945193 1.1810001
-0.27153391 0.25914454 1.189
-0.26958799 0.25929824 1.1850001
-0.25914454 0.25914454 1.189
-0.23271385 0.25873157 1.189
-0.2281711 0.25914454 1.189
-0.21125335 0.25945193 1.1810001
-0.20612584 0.25945193 1.1810001
-0.11116027 0.25845623 1.189
-0.10522203 0.2589266 1.1880001
-0.097276434 0.25891876 1.1842002
-0.081563421 0.25914454 1.189
-0.074250109 0.25717321 1.1835001
-0.064220831 0.25673652 1.1847143
-0.0555894 0.25812188 1.1855
-0.043902934 0.25758561 1.1850001
-0.035253473 0.25669301 1.1846364
-0.025760502 0.25552827 1.1866001
-0.015131206 0.25550124 1.1844287
-0.0042564468 0.25550127 1.1844287
0.00514036 0.25492495 1.1838
0.011318726 0.25415683 1.1850001
0.026168529 0.25351337 1.1820002
0.035651661 0.25278464 1.1827143
0.044703249 0.25301045 1.1850001
0.053598125 0.25332174 1.1838573
0.064736515 0.25381365 1.1834
0.074958876 0.25364205 1.1826001
0.085780479 0.25321165 1.1830001
0.095884323 0.25260949 1.1874
0.10602567 0.25271624 1.1855001
0.11487757 0.25214073 1.1860911
0.12481402 0.25168729 1.1855001
0.13434073 0.25286621 1.187
0.14456969 0.25100595 1.1863334
0.1558997 0.25088495 1.189
0.16613127 0.25124791 1.1810001
0.17477901 0.25188616 1.184
0.18514915 0.25118855 1.1846002
0.19530486 0.25081322 1.1838002
0.20560735 0.25142449 1.1872222
0.21541667 0.25149265 1.1870002
0.22085625 0.25064442 1.1830001
0.23975118 0.25004092 1.1850001
0.24283811 0.25004092 1.1850001
0.27370736 0.25004092 1.1850001
0.3344169 0.25004092 1.1850001
-0.64440632 0.26951662 1.1874001
-0.63490123 0.26747212 1.1867144
-0.6253196 0.26396263 1.189
-0.53206754 0.26483271 1.1836667
-0.52615041 0.26513144 1.1850002
-0.51551276 0.26388156 1.1850001
-0.50625199 0.26401293 1.1839093
-0.49452716 0.26425123 1.1856667
-0.48286891 0.26685116 1.1878573
-0.47543406 0.26639479 1.1853637
-0.46920913 0.26547208 1.1850001
-0.43472156 0.26338619 1.1858001
-0.42551407 0.26288602 1.1853999
-0.41536984 0.26132822 1.1858001
-0.40370122 0.2626217 1.1842002
-0.3936494 0.26346076 1.1836667
-0.38303834 0.26327434 1.189
-0.37388179 0.26426458 1.1842002
-0.36631513 0.26444483 1.1850001
-0.35488367 0.26342815 1.1846366
-0.34573475 0.26418674 1.1850001
-0.33572632 0.26312283 1.1860001
-0.32365626 0.26259509 1.1832857
-0.31447887 0.26232979 1.1839093
-0.30467874 0.26150346 1.1838001
-0.29409331 0.26310071 1.1847501
-0.28569165 0.26308113 1.1835001
-0.27500862 0.26176324 1.1832223
-0.2635366 0.26195568 1.1837695
-0.25430334 0.26098996 1.1845001
-0.2445492 0.26147094 1.1850001
-0.23515984 0.26238436 1.1850001
-0.22614078 0.26166382 1.1842728
-0.2172987 0.2610631 1.1860001
-0.20888193 0.26033068 1.1850001
-0.11241704 0.26079962 1.1834002
-0.10588023 0.26095861 1.1838573
-0.099810578 0.26033068 1.1850001
-0.63528574 0.27241412 1.1883335
-0.3014532 -0.14192127 1.1930001
-0.29764181 -0.14207989 1.1943334
-0.26712453 -0.14031833 1.197
-0.30234116 -0.13718563 1.1930001
-0.29730955 -0.13674167 1.193
-0.26312411 -0.13777758 1.1930001
-0.24010025 -0.13616075 1.197
-0.22139114 -0.13720015 1.197
-0.24169207 -0.12800501 1.1946001
-0.23562312 -0.12268978 1.1954001
-0.2297063 -0.12160922 1.197
-0.23243374 -0.11933072 1.1950001
-0.2297063 -0.11953043 1.197
-0.18750183 0.13156205 1.1930001
-0.17312628 0.13626648 1.1938889
-0.16469418 0.13603212 1.1947502
-0.15422854 0.13545913 1.1943336
-0.14572565 0.13694198 1.1954618
-0.15124458 0.14192127 1.1930001
-0.14340162 0.14194994 1.1949999
-0.13534613 0.14380893 1.1954616
-0.1256538 0.14642227 1.1959335
-0.11600413 0.1464128 1.1958574
-0.10575844 0.14785394 1.197
-0.094584957 0.14863349 1.197
-0.085230388 0.14863349 1.197
-0.13156205 0.15020865 1.1930001
-0.12482856 0.15020865 1.1930001
-0.11084362 0.15228051 1.1930001
-0.10374509 0.1536026 1.1934447
-0.094395302 0.1535189 1.1946002
-0.084041916 0.15459798 1.1949204
-0.075115308 0.15631676 1.1967146
-0.066105537 0.15778019 1.1970001
-0.056127328 0.15902744 1.197
-0.083442807 0.1646308 1.1944548
-0.074711412 0.16498803 1.1950003
-0.06547258 0.16524173 1.1968403
-0.055087931 0.1652638 1.1970003
-0.047812171 0.16838199 1.197
-0.090643145 0.17766055 1.1930001
-0.083972089 0.17511287 1.1954004
-0.074653022 0.17492406 1.1970003
-0.066209465 0.17493019 1.1970004
-0.055477712 0.17396875 1.1970003
-0.04736672 0.17357896 1.197
-0.18128629 0.18750183 1.1930001
-0.17434758 0.1870895 1.1941428
-0.16428739 0.18708865 1.1936667
-0.15439215 0.18579711 1.1933076
-0.1445305 0.1858913 1.1950002
-0.13524273 0.18551135 1.1945385
-0.12612347 0.18620694 1.193
-0.11461219 0.18618283 1.1945001
-0.10832199 0.18446325 1.1956668
-0.092349857 0.18262787 1.1950001
-0.071718261 0.18397292 1.197
-0.067820527 0.18475248 1.197
-0.030142456 0.18605171 1.197
-0.024298571 0.18586451 1.1958002
-0.019212309 0.18589628 1.1960001
-0.17565775 0.1902093 1.197
-0.16443229 0.19270384 1.1970001
-0.1555628 0.19055575 1.197
-0.14447591 0.19020928 1.197
-0.13512136 0.19020928 1.197
-0.12992437 0.19020928 1.197
-0.021827295 0.19020928 1.197
0.6495229 0.21857947 1.1930001
0.42823076 0.23802146 1.197
0.43134895 0.23802146 1.197
0.47396415 0.23802146 1.197
0.48584726 0.238262 1.1930001
0.49517059 0.23929791 1.1930001
0.50138611 0.23929791 1.1930001
0.52489448 0.23802146 1.197
0.18853775 0.24965712 1.1930001
0.1935614 0.24916044 1.1946001
0.20707057 0.24855146 1.1943333
0.21472435 0.24791504 1.1946001
0.22389136 0.24716827 1.1943334
0.23451599 0.24800035 1.1950001
0.24360207 0.24940877 1.1938001
0.25465178 0.24841541 1.197
0.26712453 0.24841541 1.197
0.27559406 0.24813716 1.1956667
0.28487846 0.24551344 1.1930001
0.2954329 0.2456781 1.1938
0.30490136 0.2450949 1.1943333
0.31472346 0.246172 1.1962
0.32489857 0.24600735 1.1954001
0.33513618 0.24599594 1.1936667
0.34369373 0.24519953 1.194
0.35461673 0.24488562 1.1950002
0.36525401 0.24488567 1.1950001
0.37594926 0.24457175 1.1960001
0.38535509 0.2440946 1.1962001
0.39397937 0.24364565 1.194
0.40571919 0.24281031 1.1950001
0.4158259 0.24434571 1.1954001
0.42605579 0.24307518 1.1946002
0.43437603 0.24201158 1.1947143
0.4417429 0.24217904 1.197
0.45413089 0.24252222 1.1946001
0.46508119 0.24135837 1.1948184
0.47475848 0.24135664 1.1952223
0.4856545 0.24141863 1.1947143
0.49163386 0.24010025 1.197
0.50712955 0.24094659 1.1943334
0.51554221 0.24127769 1.1946
0.52177632 0.24010025 1.197
-0.53840661 0.25776997 1.197
-0.28479424 0.25880936 1.197
-0.26088816 0.25880936 1.197
-0.25673056 0.25880936 1.197
-0.24217904 0.25880939 1.197
-0.23541936 0.2582328 1.1943334
-0.11397552 0.2576333 1.1954001
-0.10501499 0.25740498 1.1947778
-0.095169052 0.2581746 1.1956668
-0.08516179 0.25859314 1.1960001
-0.075622283 0.2569086 1.1930001
-0.066024311 0.25546572 1.1943334
-0.054659471 0.25700569 1.1941429
-0.045096461 0.25764102 1.194
-0.034859244 0.25500062 1.1958573
-0.016589507 0.25556743 1.194
-0.0072514522 0.25587267 1.1930001
0.019748505 0.25465178 1.197
0.024925508 0.25443906 1.1960001
0.0342528 0.25306553 1.1954001
0.044634249 0.25223538 1.1954001
0.054333642 0.25367519 1.1956668
0.062363703 0.25465178 1.197
0.074707925 0.2542263 1.1950001
0.084020808 0.25414118 1.1946001
0.095382579 0.25173792 1.1958573
0.10482298 0.25104299 1.1952223
0.11521725 0.25098813 1.1954001
0.12653466 0.25084704 1.1958573
0.13501082 0.25149679 1.1947144
0.1427705 0.25131738 1.1943334
0.15409313 0.25215098 1.1950001
0.16492829 0.25206658 1.1946
0.17542575 0.25223538 1.1954001
0.18330126 0.2508029 1.1960001
0.19852445 0.25049421 1.197
0.20164263 0.25049421 1.197
-0.65170068 0.26920331 1.197
-0.64456755 0.26806793 1.1938
-0.63452411 0.26532313 1.1947501
-0.62829387 0.26645678 1.194
-0.54152483 0.26400632 1.197
-0.53719062 0.26347929 1.1952858
-0.52521229 0.26416004 1.1930001
-0.50430369 0.26408321 1.1950001
-0.49530721 0.26563996 1.1950001
-0.48599377 0.26567638 1.194
-0.47602183 0.26445529 1.1943334
-0.44130266 0.26416004 1.1930001
-0.43366519 0.26102883 1.1935714
-0.4268229 0.26183462 1.1950002
-0.41056103 0.26296693 1.197
-0.40392694 0.26285407 1.1946001
-0.39468616 0.26416004 1.1930001
-0.38432693 0.26416004 1.1930001
-0.374385 0.26326519 1.1960001
-0.36409199 0.2624397 1.1946001
-0.34500098 0.26376235 1.1943333
-0.33482069 0.2621811 1.1950001
-0.32460821 0.26203465 1.1943333
-0.31440353 0.26148817 1.1950001
-0.30489877 0.26128817 1.1956668
-0.29589301 0.2619811 1.1956668
-0.28378639 0.26163465 1.1956668
-0.27543968 0.26088816 1.197
-0.26564056 0.26045227 1.1950001
-0.25547495 0.26067019 1.1960001
-0.24584411 0.26077944 1.1946001
-0.23929791 0.26001635 1.1930001
-0.22762752 0.26088816 1.197
-0.213076 0.26088816 1.197
-0.11602323 0.26001635 1.1930001
-0.092197031 0.26001638 1.1930001
-0.085981511 0.26001638 1.1930001
-0.65377945 0.27128211 1.197
-0.63536531 0.27175677 1.1930001
-0.26503792 -0.14424257 1.2037143
-0.23368564 -0.14200103 1.2037144
-0.22753461 -0.14090446 1.202
-0.24249482 -0.13290247 1.2020001
-0.23502943 -0.13475151 1.2029598
-0.22664 -0.13494024 1.202
-0.23454255 -0.12644123 1.202
-0.22835605 -0.12497169 1.2026668
-0.16386667 0.13255456 1.202
-0.14090446 0.13568577 1.202
-0.13464202 0.13777323 1.202
-0.12361836 0.13760929 1.2024
-0.11537235 0.13767734 1.2042223
-0.10663655 0.13834982 1.2040002
-0.094651558 0.13861454 1.2054287
-0.08587122 0.13927893 1.2060001
-0.13213706 0.14173944 1.202
-0.12466853 0.1418322 1.202
-0.1144314 0.14262132 1.2024
-0.10526264 0.14379339 1.2032498
-0.095091343 0.14420152 1.2033998
-0.084449708 0.14446448 1.2035238
-0.074421391 0.14762478 1.2043335
-0.065027468 0.14784013 1.2046667
-0.056411374 0.14539216 1.2055556
-0.074453227 0.15203765 1.2020001
-0.065337934 0.15356845 1.202
-0.055161085 0.15484212 1.2029521
-0.045150612 0.15655611 1.2039046
-0.034293961 0.15653151 1.2037141
-0.025993852 0.15617302 1.2038666
-0.01989699 0.15812871 1.2060001
-0.044532772 0.16456251 1.2019999
-0.034449395 0.16493769 1.2021998
-0.024869787 0.16463467 1.2022352
-0.018361777 0.16488278 1.2052729
-0.0010472101 0.16860081 1.2060001
0.0031416302 0.16860083 1.2060001
-0.061580464 0.17743523 1.202
-0.053752441 0.1779571 1.202
-0.043315079 0.17482589 1.2019999
-0.034487493 0.17453964 1.2035997
-0.025087366 0.17456679 1.2038
-0.016746154 0.17479533 1.2054
-0.0020944201 0.17174244 1.2060001
0.0049138316 0.17359519 1.2060003
0.013613731 0.17069523 1.2060001
-0.090956181 0.186096 1.204
-0.083819762 0.18373576 1.2036002
-0.076192796 0.18369767 1.2019999
-0.063667953 0.18341301 1.2019999
-0.055318054 0.18369769 1.2019999
-0.045013037 0.1836303 1.2026314
-0.034439206 0.18473919 1.2050908
-0.025408015 0.18202485 1.2024444
-0.017064296 0.18239111 1.2033334
-0.17395724 0.19420463 1.2029232
-0.16751973 0.19570063 1.202
-0.15573269 0.19505894 1.2023332
-0.14648783 0.19462043 1.2050002
-0.13464203 0.1930913 1.202
0.63981062 0.22231592 1.202
0.6418981 0.22231592 1.202
0.4283089 0.23981109 1.2060001
0.46706551 0.23928082 1.2033334
0.47477341 0.23869094 1.2030001
0.48501572 0.23954597 1.2046667
0.49610209 0.23917477 1.2028
0.50613308 0.2387559 1.2028002
0.51574463 0.23829402 1.2042223
0.52355671 0.23838703 1.2048572
0.099154986 0.24945307 1.202
0.10646114 0.24945307 1.202
0.11272357 0.24945307 1.202
0.12733588 0.24945307 1.202
0.13255456 0.24945307 1.202
0.1878726 0.24945307 1.202
0.1958746 0.24945307 1.202
0.20551245 0.24819721 1.203143
0.21500976 0.24527812 1.202
0.22535276 0.24694417 1.2033334
0.23457505 0.24818878 1.2060001
0.24434796 0.24894737 1.2036002
0.25509724 0.24882093 1.204
0.26389691 0.24818878 1.2060001
0.27505085 0.24744062 1.2044001
0.28347787 0.24582228 1.2046669
0.29812258 0.24582228 1.2046669
0.30511904 0.24527812 1.202
0.31521022 0.24609438 1.2060001
0.32638046 0.24609438 1.2060001
0.33525968 0.24544136 1.2028
0.34516656 0.2455502 1.2033334
0.36523667 0.24425559 1.2052001
0.37427947 0.24463904 1.204
0.38473248 0.2435953 1.2040002
0.3954066 0.24338111 1.2046667
0.40507001 0.24276227 1.2033334
0.4157424 0.24399994 1.2060001
0.4248099 0.24283984 1.2044001
0.43732569 0.24110317 1.202
0.44660944 0.24234167 1.2037144
0.45463157 0.24222679 1.205
0.4614943 0.24206644 1.2033334
0.47281271 0.24110317 1.202
0.48417571 0.24182563 1.2030001
0.51351845 0.24110317 1.202
0.52082461 0.24110317 1.202
-0.63981062 0.25989044 1.202
-0.53931314 0.25866088 1.2060001
-0.3348721 0.25873384 1.2044001
-0.3266896 0.25989044 1.202
-0.28911507 0.25780296 1.202
-0.26615286 0.25989044 1.202
-0.25488448 0.25958306 1.2030001
-0.24693954 0.2594806 1.2033334
-0.2306658 0.25989044 1.202
-0.11401738 0.25697863 1.2046667
-0.10550164 0.25645012 1.2030001
-0.09420234 0.25655794 1.2041818
-0.086835071 0.25721896 1.2048573
-0.074812129 0.2573992 1.205
-0.065059587 0.25571549 1.202
-0.055417035 0.25718471 1.204
-0.044928145 0.2573908 1.2033335
-0.033510722 0.25447205 1.2060001
-0.025067916 0.25592822 1.2030001
-0.014482561 0.25518259 1.2037143
-0.0060110381 0.25535557 1.2040001
0.016942574 0.25538832 1.2044001
0.024759658 0.25419068 1.2046667
0.03246351 0.25447205 1.2060001
0.044970289 0.2520428 1.2044001
0.054884747 0.25404829 1.204
0.065276101 0.25586832 1.2060001
0.074875511 0.25499564 1.2060001
0.084707312 0.25413445 1.2044001
0.094248906 0.25185403 1.2060001
0.10157938 0.25028321 1.2060001
0.11689851 0.25154054 1.202
0.12461799 0.25028321 1.2060001
0.13633355 0.25070235 1.2046669
0.14470544 0.25140047 1.2046669
0.15460068 0.25174981 1.2030001
0.16408062 0.25187537 1.2036002
0.17477085 0.25221023 1.2052001
0.18326175 0.25098139 1.2060001
0.25028321 0.25028321 1.2060001
0.26913297 0.25028321 1.2060001
-0.65405643 0.2659843 1.2044001
-0.6450423 0.2658498 1.2030001
-0.63459194 0.26197791 1.202
-0.54140759 0.26284972 1.2060001
-0.53674471 0.26408452 1.2040002
-0.52465224 0.26494414 1.2060001
-0.51418012 0.26494414 1.2060001
-0.50725603 0.26406538 1.202
-0.49518237 0.26525187 1.2036002
-0.48796341 0.26435831 1.2033334
-0.4733395 0.26783976 1.2033334
-0.412276 0.26302165 1.202
-0.40515429 0.26291847 1.2044001
-0.39588186 0.26415569 1.204
-0.38423645 0.26417375 1.2044001
-0.37668043 0.26315364 1.205
-0.36008915 0.26406538 1.202
-0.35531217 0.26465124 1.2046667
-0.34407085 0.2629171 1.2044001
-0.33559 0.26136661 1.204
-0.32315859 0.26124436 1.2044001
-0.31416363 0.26116285 1.2046667
-0.30442321 0.26197791 1.202
-0.2943202 0.26256976 1.2028002
-0.28455806 0.26157039 1.2033334
-0.27580526 0.26116285 1.2046669
-0.25154054 0.26197791 1.202
-0.22335966 0.26197791 1.202
-0.2165305 0.26116285 1.2046667
-0.65651035 0.27032781 1.202
-0.62937325 0.27032781 1.202
-0.23145992 -0.1150685 1.2130001
-0.22488679 -0.11349753 1.2140002
-0.21472134 -0.11283711 1.2144616
-0.20689547 -0.11154263 1.2156669
-0.23086032 -0.10646982 1.2140001
-0.22496396 -0.1067672 1.2136923
-0.21434115 -0.10727771 1.216
-0.20809434 -0.10827249 1.2165
-0.33448547 0.13866329 1.2190001
-0.32548824 0.13866329 1.2190001
-0.11432721 0.13538672 1.2124002
-0.10392358 0.13622327 1.2130001
-0.095376723 0.13550068 1.2160001
-0.085105352 0.1386902 1.21
-0.076157615 0.13786283 1.2181667
-0.049382117 0.13974088 1.21
-0.35036296 0.14924827 1.2190001
-0.34396556 0.14535606 1.2183334
-0.33558097 0.14457038 1.2153
-0.32671744 0.14436431 1.2166522
-0.10401765 0.14184226 1.21
-0.074868985 0.14261687 1.2124116
-0.066012442 0.14359413 1.2115
-0.052324034 0.14646529 1.21
-0.045125835 0.14451526 1.2133335
-0.034934789 0.144473 1.2130003
-0.024324125 0.14511327 1.2130954
-0.015041204 0.1466199 1.2174616
-0.0062547633 0.14770865 1.219
-0.35318562 0.15312944 1.2190001
-0.346129 0.15136527 1.2190001
-0.051483486 0.15024772 1.21
-0.044712413 0.15118167 1.21
-0.03513952 0.15118165 1.21
-0.0234807 0.1519925 1.210889
-0.015432247 0.15484884 1.2131306
-0.0052773831 0.15521185 1.2160001
0.0051142671 0.15566677 1.2181667
0.014904942 0.15759785 1.2180909
0.024345465 0.1592284 1.2190001
0.035760619 0.15619537 1.2153889
0.045250092 0.15616778 1.2171428
0.051866423 0.15630493 1.2190001
-0.013670296 0.16466133 1.211143
-0.005443004 0.16518798 1.2130001
0.0055532292 0.16477636 1.2129092
0.015206253 0.16546376 1.2116363
0.024616798 0.16524616 1.214174
0.034792211 0.16552915 1.2142003
0.044680644 0.16619003 1.2174209
0.055812128 0.16673747 1.2178888
0.062692218 0.16815516 1.2145556
-0.011557517 0.17546414 1.21
-0.0058538071 0.17606454 1.2099998
0.005253417 0.17661034 1.21
0.016034342 0.17546414 1.2099998
0.025216401 0.17546411 1.2099999
0.034479402 0.17549857 1.2127829
0.045651756 0.17463876 1.2149092
0.054720998 0.17437991 1.215579
0.064572699 0.17494176 1.2136821
-0.087206721 0.18807232 1.21
-0.011557517 0.1828189 1.21
-0.0050020888 0.18460174 1.2130625
0.0054726098 0.18526433 1.2138573
0.014573596 0.18524227 1.2141178
0.024219556 0.18535024 1.2128003
0.035055406 0.18494284 1.2132728
0.045350097 0.18457069 1.2146002
0.054827221 0.18451628 1.2142502
0.063238464 0.18444704 1.2138003
-0.087145939 0.19172454 1.2165
0.0095264856 0.19158821 1.2190001
0.014818978 0.19158821 1.2190001
0.024804812 0.19244178 1.2184445
0.035250474 0.19423528 1.2178888
0.045668468 0.19482447 1.2178096
0.054915734 0.19431624 1.2161875
0.062565953 0.19403581 1.21775
0.036663823 0.20502286 1.2174211
0.045253251 0.20500208 1.2158967
0.054653626 0.2048533 1.2181666
0.060334407 0.20323169 1.2190001
0.037000116 0.21397741 1.2175001
0.045385614 0.21531716 1.2155001
0.055018276 0.21524815 1.2184445
0.063933305 0.21741557 1.219
0.045515429 0.22122617 1.2190001
0.056100413 0.22430547 1.219
0.06416516 0.22546014 1.219
0.64514387 0.22348122 1.2140001
0.65521049 0.22334316 1.2190001
0.66156149 0.22334315 1.2190001
0.45255485 0.23884101 1.2160002
0.46765745 0.23909646 1.2130001
0.47555012 0.2368962 1.2113334
0.48491207 0.23929358 1.2140001
0.49802393 0.23850513 1.21
0.5058251 0.23833175 1.213889
0.5148831 0.23608385 1.2116001
0.52372348 0.23587444 1.2116002
0.53024083 0.23718525 1.2140001
0.05821741 0.24874711 1.2190001
0.065224424 0.24902758 1.2164999
0.073036388 0.24874711 1.2190001
0.087855361 0.24874711 1.2190001
0.095928259 0.24983513 1.2140001
0.10429134 0.24967051 1.2132001
0.1117406 0.24983513 1.2140001
0.13627957 0.24937943 1.2135
0.1449834 0.24882102 1.2147778
0.1544065 0.24942712 1.215875
0.16479008 0.24952428 1.2154288
0.17464583 0.24939993 1.2160002
0.1842331 0.24942712 1.215875
0.19476059 0.24950588 1.2124002
0.20527965 0.24893974 1.2165002
0.21570899 0.24637721 1.2177501
0.22374634 0.24699859 1.2173334
0.23574731 0.24942355 1.2120001
0.24595487 0.24859135 1.2143751
0.25564447 0.24813822 1.2148889
0.26473737 0.24731554 1.215875
0.27417079 0.24723196 1.2138889
0.28504851 0.24633966 1.2158335
0.29447678 0.24576138 1.2147274
0.30440158 0.24485748 1.2148889
0.31630909 0.24507864 1.21525
0.32510608 0.24526642 1.2146924
0.33421785 0.24523559 1.2142003
0.34260094 0.24561851 1.2140001
0.35409421 0.24611972 1.2144002
0.36422348 0.24309567 1.2130002
0.37467065 0.24345616 1.21375
0.38476717 0.2435102 1.2140001
0.39537212 0.24312691 1.2142
0.40472701 0.24252975 1.2151428
0.41547766 0.24367991 1.2148573
0.42464152 0.24274234 1.2165
0.43625456 0.24084049 1.2165
0.44586062 0.24058318 1.2138751
0.45601237 0.24116728 1.2128334
0.46296287 0.24104044 1.2137144
0.48856777 0.24060649 1.21
0.49502441 0.24027912 1.2190001
-0.34260094 0.25826842 1.2140001
-0.29584241 0.25861824 1.21
-0.28783429 0.25836825 1.2120001
-0.27091828 0.25826839 1.2140001
-0.2644136 0.25866699 1.2140909
-0.25484329 0.25929689 1.2144445
-0.24822323 0.25945657 1.2130001
-0.23430239 0.2595188 1.21
-0.22403164 0.25829357 1.2163334
-0.21729995 0.25820196 1.2122858
-0.11749332 0.25933209 1.2190001
-0.10323681 0.25652325 1.21325
-0.096259095 0.25504205 1.2144287
-0.084501691 0.25666234 1.2134
-0.075434282 0.25715908 1.215
-0.06483151 0.25651062 1.2173333
-0.055351913 0.25737697 1.2118
-0.045340605 0.25669566 1.2143332
-0.035030205 0.25458676 1.2143334
-0.02533102 0.25541806 1.2155
-0.016489362 0.25524342 1.2130001
-0.0043807421 0.25516039 1.2164286
0.0052722311 0.2562252 1.2143334
0.01516798 0.25412676 1.2143847
0.024633605 0.25302348 1.2158333
0.034414221 0.25377086 1.2157
0.044932347 0.2513485 1.2128334
0.056322306 0.25260437 1.2133077
0.064532302 0.25287515 1.2127144
0.074559242 0.25271568 1.2153529
0.085429683 0.25222299 1.2146429
0.093849465 0.25117967 1.2144002
0.1178693 0.25152838 1.2120001
0.12390509 0.25096378 1.2154001
0.1301953 0.25086412 1.2190001
0.14709568 0.25111333 1.21
0.15445046 0.25111333 1.21
0.16495728 0.25111333 1.21
0.17603448 0.25107181 1.2115
0.18176822 0.25111333 1.21
-0.66091806 0.26310328 1.2120001
-0.65457571 0.26477221 1.21
-0.54089266 0.26356611 1.2190001
-0.53562099 0.26491028 1.2142501
-0.52306294 0.2660076 1.21325
-0.51724899 0.26585287 1.2181667
-0.50463265 0.26535356 1.2175001
-0.49471855 0.26413101 1.2148001
-0.48553169 0.26588976 1.2144287
-0.47617838 0.26769581 1.2153333
-0.46541727 0.26973253 1.2181667
-0.45492578 0.26795363 1.2165002
-0.44788289 0.26619238 1.2165002
-0.4256171 0.26478907 1.2162859
-0.41462338 0.26305121 1.2150002
-0.40423653 0.26333469 1.2155001
-0.39535776 0.26407969 1.2148889
-0.38570973 0.2636438 1.2145001
-0.3745304 0.26396796 1.2150002
-0.36458108 0.2652472 1.2170002
-0.35554039 0.26401544 1.2150002
-0.34503701 0.262252 1.2138182
-0.33339274 0.26282009 1.2155716
-0.3228991 0.26284429 1.21325
-0.31549025 0.26202902 1.2151668
-0.30545774 0.26154166 1.2124287
-0.29629272 0.26162016 1.21
-0.28333101 0.26103839 1.2142859
-0.27433553 0.26126155 1.2142003
-0.24027912 0.2614491 1.2190001
-0.23130953 0.26079118 1.2126669
-0.22561659 0.26108727 1.2117144
-0.21959282 0.26162016 1.21
-0.4722622 0.27091828 1.2140001
-0.20267439 -0.11292867 1.2246002
-0.19923823 -0.11187173 1.2270001
-0.21451828 -0.10513519 1.223
-0.20401719 -0.10743316 1.225
-0.19923823 -0.10974084 1.2270001
-0.33311468 0.13643456 1.2243335
-0.32549432 0.13752533 1.223
-0.36118588 0.14596596 1.2270001
-0.35488325 0.14528841 1.2239999
-0.3488577 0.14442815 1.223
0.018053519 0.14973801 1.223
0.020177463 0.14973801 1.223
-0.38888744 0.15875131 1.2270001
-0.36432973 0.15438254 1.2252222
-0.35629147 0.15345491 1.223
0.0095577454 0.15186195 1.223
0.014753853 0.15356909 1.2234446
0.024548216 0.15429693 1.2237998
0.032632094 0.15345001 1.2235715
0.053098585 0.15823378 1.223
0.047788728 0.16354364 1.223
0.054396555 0.16366164 1.223
0.0074338019 0.19221687 1.223
0.017365221 0.195263 1.2243335
0.024081491 0.19759077 1.2251818
0.031859152 0.19858871 1.223
0.067757137 0.19636078 1.2240001
0.072056331 0.19593713 1.2263336
0.025913324 0.20596631 1.2264668
0.031618841 0.20432904 1.2240001
0.056284498 0.2028366 1.223
0.065217748 0.20525602 1.2242172
0.074018896 0.20634444 1.2265
0.082039267 0.20989268 1.2270001
0.026150206 0.21510547 1.2243334
0.032921124 0.2167239 1.2229999
0.058408443 0.21133237 1.223
0.065205075 0.21388112 1.2229999
0.075319119 0.21510524 1.2249047
0.082039267 0.213089 1.2270001
0.035569537 0.22322178 1.2247778
0.046011873 0.22489426 1.2241429
0.053297933 0.22641236 1.2241429
0.065842241 0.22195208 1.223
0.07494919 0.22428352 1.2265788
0.64744353 0.22361003 1.2243335
0.6552487 0.22267799 1.2270001
0.66374826 0.22181629 1.2246002
0.6715641 0.22491746 1.2256668
0.056213729 0.23425913 1.2253335
0.065197624 0.23573239 1.2253635
0.073302619 0.23695497 1.2270001
0.44828552 0.23849384 1.2243335
0.45420173 0.23826894 1.2250001
0.46630979 0.23972514 1.2270001
0.47494143 0.23880339 1.2250001
0.487445 0.23894364 1.223
0.49383178 0.23871647 1.2262002
0.50579071 0.23880166 1.2250001
0.51228625 0.23701333 1.2240001
0.53629571 0.23894364 1.223
0.54018062 0.23972513 1.2270001
0.018053519 0.24956335 1.223
0.022301406 0.24956335 1.223
0.057198636 0.24661167 1.2255001
0.064928584 0.24480991 1.2257999
0.075521812 0.24677762 1.2250001
0.084229857 0.24817184 1.224
0.093300156 0.24930044 1.2238001
0.1051352 0.24956335 1.223
0.11594769 0.24890602 1.2250001
0.12743661 0.24956335 1.223
0.13537492 0.24912512 1.2243335
0.14276963 0.2482487 1.2270001
0.15502732 0.24868691 1.2256668
0.16481958 0.24903749 1.2246002
0.17451736 0.24956337 1.223
0.18584505 0.24956335 1.223
0.19292486 0.24956337 1.223
0.20518285 0.24841717 1.2243335
0.21133237 0.2474394 1.223
0.23540372 0.24956337 1.223
0.24677686 0.24784404 1.2250001
0.25381124 0.24743941 1.223
0.26665044 0.24664643 1.2254001
0.27465817 0.24644819 1.2260001
0.28447384 0.24611782 1.2270001
0.29551673 0.24478492 1.2256668
0.30507243 0.24398693 1.2270001
0.31390861 0.24462496 1.2238001
0.3256751 0.24345666 1.2243335
0.33517617 0.2449445 1.2254001
0.34581533 0.24622166 1.2254002
0.35512775 0.24529146 1.2248183
0.36166084 0.2446512 1.2250001
0.37558401 0.24319153 1.223
0.38633952 0.24444266 1.2247145
0.39450553 0.24308351 1.2246002
0.40372118 0.2423012 1.2256669
0.41474792 0.24235682 1.2255001
0.42483264 0.24169834 1.2262001
0.43116051 0.24106757 1.223
0.44286126 0.24165891 1.2260001
0.46195769 0.24106757 1.223
0.49806473 0.24106757 1.223
-0.4958581 0.2580508 1.2270001
-0.45601046 0.25890315 1.2270001
-0.35151264 0.25805911 1.223
-0.34938869 0.25805911 1.223
-0.25381124 0.25805911 1.223
-0.23140709 0.25763017 1.2243335
-0.22761594 0.25664318 1.223
-0.11400262 0.25890315 1.2270001
-0.10637431 0.25795016 1.2250001
-0.093759164 0.25464135 1.2270001
-0.085392423 0.2557525 1.2262002
-0.075552121 0.25643745 1.2254002
-0.06420891 0.25578293 1.2256669
-0.054271266 0.25725484 1.2255001
-0.045702122 0.25561172 1.2240001
-0.035093695 0.25371712 1.2246002
-0.024081489 0.25348854 1.2251819
-0.015739894 0.25478515 1.2265556
-0.0046117185 0.25387117 1.2250001
0.0053175772 0.2532331 1.2247778
0.014249871 0.25158903 1.2246002
0.024819285 0.25103343 1.2250001
0.034040406 0.25262985 1.2250001
0.046234846 0.25189307 1.2240001
0.05212171 0.25103343 1.2250001
0.08601971 0.25168729 1.223
0.096955501 0.25037959 1.2270001
0.10547906 0.25037959 1.2270001
0.11598068 0.25090265 1.2254002
0.12236641 0.25090265 1.2254002
0.19710733 0.25037959 1.2270001
0.23439792 0.25037959 1.2270001
0.24185602 0.25037959 1.2270001
-0.66585624 0.26443094 1.223
-0.658445 0.2674267 1.2270001
-0.54309231 0.26145744 1.223
-0.53579694 0.26587829 1.2238001
-0.52543879 0.2649222 1.2252859
-0.51471281 0.26419279 1.2247145
-0.50399572 0.26285458 1.2241429
-0.49488696 0.2620109 1.2246002
-0.48512387 0.26422492 1.2255715
-0.4745467 0.26579085 1.2249998
-0.46548161 0.26578394 1.2254444
-0.45604041 0.26459011 1.2258574
-0.44642147 0.2652958 1.2270001
-0.43272787 0.26340508 1.2252859
-0.42484269 0.26227301 1.2236668
-0.41418511 0.26299334 1.2262001
-0.40400559 0.26348144 1.2260002
-0.39604318 0.26324654 1.2254002
-0.38625225 0.26282176 1.2254002
-0.3758541 0.26469803 1.2262002
-0.36446729 0.26364055 1.2255001
-0.35487929 0.26163992 1.2241429
-0.34938869 0.26018307 1.223
-0.33027321 0.26230702 1.223
-0.3249625 0.262593 1.2243335
-0.31540561 0.26230702 1.223
-0.30903375 0.26230702 1.223
-0.27777666 0.26145837 1.2256669
-0.24465466 0.26131657 1.2250001
-0.23614326 0.26113954 1.2250001
-0.45558587 0.2708028 1.223
-0.20005012 -0.11446717 1.2320001
-0.19453076 -0.11301953 1.2328573
-0.18617444 -0.11233348 1.2338463
-0.17794119 -0.11090123 1.2320001
-0.20494057 -0.10529758 1.2320002
-0.19486009 -0.10599311 1.2330003
-0.18530756 -0.10628226 1.2345715
-0.17772786 -0.10706636 1.233
-0.15508607 -0.098739929 1.2360001
-0.14763057 -0.09735059 1.2320001
-0.33520561 0.13458127 1.2333335
-0.38272452 0.14832453 1.2360001
-0.37446421 0.14550652 1.2348237
-0.3662056 0.14511508 1.2323079
-0.39380726 0.15713568 1.2344002
-0.38505545 0.15423381 1.2335002
-0.3755596 0.1545818 1.2322108
-0.36800662 0.15083992 1.2320001
0.076201461 0.19747984 1.2360001
0.018186374 0.20218968 1.2320001
0.023535307 0.20361607 1.2320002
0.077056333 0.2030732 1.2325002
0.084248975 0.20623815 1.2336472
0.092300363 0.20928571 1.2360001
0.086149298 0.21540467 1.2320002
0.09289287 0.21453999 1.2343335
0.036404874 0.22804952 1.233
0.042791471 0.22786456 1.2320001
0.07809443 0.22786456 1.2320001
0.085036673 0.22501506 1.2326669
0.091942608 0.22395359 1.2360001
0.65491164 0.22230516 1.2344002
0.66291231 0.22168551 1.2333335
0.67763555 0.22230516 1.2344002
0.047529098 0.23121749 1.2346668
0.051761933 0.234538 1.2333335
0.076168813 0.23385537 1.2320002
0.084214151 0.23420143 1.2330437
0.091227099 0.2307509 1.2360001
0.44969594 0.23933698 1.2360001
0.45449004 0.23768455 1.233
0.46257508 0.23933698 1.2360001
0.47491759 0.23933698 1.2360001
0.48325357 0.23787993 1.2340001
0.49352595 0.2390788 1.2346668
0.50521892 0.23894972 1.2340001
0.51838458 0.23719047 1.2360001
0.52075863 0.23680666 1.2340001
0.53596312 0.23856243 1.2320001
-0.021465201 0.24792306 1.2360001
-0.018245421 0.24792306 1.2360001
0.017510233 0.24836883 1.2346668
0.026058106 0.24881457 1.2333335
0.054843243 0.24529791 1.2336001
0.075954854 0.24314725 1.2320002
0.084159806 0.24390766 1.2330669
0.094215035 0.248926 1.233
0.1067367 0.24881457 1.2333335
0.11487085 0.24818975 1.2337779
0.1245125 0.24875884 1.2335001
0.13329525 0.248926 1.233
0.14656077 0.24926031 1.2320001
0.15583226 0.24926031 1.2320001
0.16510376 0.2483688 1.2346668
0.17405777 0.24899285 1.2328001
0.1845382 0.24926031 1.2320001
0.19791053 0.24926031 1.2320001
0.2041938 0.24810135 1.2333335
0.21216336 0.24752189 1.2340001
0.22786456 0.24926031 1.2320001
0.23428331 0.24926031 1.2320002
0.24310672 0.24881457 1.2333335
0.25502083 0.24666329 1.2340001
0.26430851 0.24609205 1.2340002
0.27564839 0.24569434 1.2320001
0.28495052 0.24577655 1.2360001
0.29544437 0.24450444 1.2350001
0.30307731 0.2438176 1.2333335
0.31577116 0.24502909 1.2344002
0.32305127 0.24363002 1.2360001
0.3359223 0.24408041 1.2346668
0.3455627 0.24438067 1.233778
0.35467249 0.24296664 1.2340002
0.36461577 0.24343291 1.2350001
0.376459 0.24252032 1.2340002
0.38536096 0.2421747 1.2346667
0.39407599 0.24225955 1.2337145
0.40360424 0.24144936 1.2340002
0.41535163 0.24148349 1.2360001
0.42501098 0.24148351 1.2360001
0.43485007 0.24182303 1.2350001
0.44658154 0.24096251 1.2333335
0.466427 0.240702 1.2320001
0.50172997 0.240702 1.2320001
-0.52303541 0.25794017 1.2360001
-0.50172997 0.25888836 1.2320001
-0.49103209 0.25995818 1.2320001
-0.46214786 0.25995818 1.2320001
-0.45893848 0.25781858 1.2320001
-0.26209775 0.25995818 1.2320001
-0.25823367 0.25930691 1.2340001
-0.23466364 0.25716388 1.2340001
-0.12208768 0.25809532 1.2333335
-0.1156657 0.25711882 1.2341336
-0.10616591 0.25629988 1.2350001
-0.095358633 0.2550208 1.2340001
-0.083882309 0.25485623 1.2345002
-0.075006634 0.2550208 1.2340001
-0.065656856 0.25485626 1.2345002
-0.054647692 0.25502083 1.2340001
-0.044861577 0.25492677 1.2342858
-0.035365481 0.25395101 1.2340001
-0.023745198 0.25136963 1.2348573
-0.01456855 0.25129569 1.2336001
-0.0060005314 0.25236756 1.2336003
0.0048777177 0.25119415 1.2333335
0.013396647 0.25126964 1.2340001
0.024126641 0.25040215 1.2350001
0.03534881 0.25258219 1.2336
0.048296701 0.2522161 1.2360001
0.050279975 0.25139987 1.2320001
0.099813186 0.25006959 1.2360001
0.10303296 0.25006959 1.2360001
0.14918314 0.25006959 1.2360001
0.17279486 0.25006959 1.2360001
0.18782051 0.25006959 1.2360001
0.19426006 0.25006959 1.2360001
-0.66577554 0.26766667 1.2346668
-0.65791881 0.26637688 1.2320001
-0.54336137 0.26363572 1.2352002
-0.53511447 0.26594967 1.2333335
-0.52501416 0.26196975 1.234286
-0.51490015 0.26226795 1.2328001
-0.5071044 0.26194954 1.2346668
-0.49397227 0.26144996 1.2340001
-0.48492947 0.26226795 1.2328001
-0.47473869 0.26294872 1.2360001
-0.46504462 0.26252323 1.2340001
-0.45345515 0.26368505 1.2337145
-0.44516152 0.2656666 1.2353334
-0.43824959 0.2646628 1.2340001
-0.42042616 0.26209775 1.2320001
-0.41490242 0.26373488 1.2346668
-0.40509436 0.26246145 1.2337145
-0.3936815 0.26209775 1.2320001
-0.38427922 0.26184916 1.2337146
-0.37503144 0.26359305 1.2340001
-0.36592436 0.26252148 1.2340001
-0.35837853 0.26209775 1.2320001
-0.33593041 0.26294872 1.2360001
-0.32493556 0.26166269 1.2350001
-0.31633088 0.26184916 1.2337145
-0.30702877 0.26209778 1.2320001
-0.2951465 0.26080218 1.2360001
-0.28548717 0.26294872 1.2360001
-0.25114286 0.26080218 1.2360001
-0.24390303 0.26106128 1.2352002
-0.23933698 0.26080218 1.2360001
-0.10471916 -0.16689995 1.2490002
-0.15390623 -0.11225271 1.2460001
-0.14572632 -0.112587 1.2484287
-0.13990673 -0.11170848 1.2490001
-0.16144863 -0.10604398 1.2407143
-0.15436941 -0.10536729 1.2423812
-0.1457572 -0.10489475 1.2453002
-0.13773765 -0.10086299 1.2490001
-0.15397286 -0.097982734 1.24
-0.13729654 -0.098377839 1.2450001
-0.39586017 0.13990673 1.2490001
