# .PCD v0.7 - Point Cloud Data file format
VERSION 0.7
FIELDS x y z
SIZE 4 4 4
TYPE F F F
COUNT 1 1 1
WIDTH 1545
HEIGHT 1
VIEWPOINT 0 0 0 1 0 0 0
POINTS 1545
DATA ascii
0.44533086 0.22399572 1.5355
0.45464706 0.22531922 1.5370909
0.46499833 0.2241371 1.5357691
0.47247741 0.22222996 1.5362
0.089332834 0.23732896 1.5355
0.095395483 0.23477639 1.5350002
0.10368109 0.23482199 1.5348001
0.11368799 0.2340416 1.5343335
0.12105609 0.23280017 1.5320001
0.1376456 0.23386388 1.539
0.1416547 0.23386388 1.539
0.15393935 0.23503716 1.5362
0.16533241 0.23399717 1.5355
0.17579994 0.2330661 1.5337501
0.18624014 0.23280017 1.5320001
0.19644567 0.23119116 1.539
0.20509666 0.2304025 1.5337501
0.21450643 0.23049013 1.5343335
0.22450933 0.23119116 1.539
0.23413046 0.2301396 1.5320001
0.24344246 0.2301396 1.5320001
0.27536935 0.2301396 1.5320001
0.28468135 0.2301396 1.5320001
0.29566252 0.23106764 1.5337501
0.30532858 0.23199567 1.5355
0.31356561 0.23084065 1.5366668
0.33600116 0.23066539 1.5355
0.34132838 0.23066539 1.5355
-0.81117356 0.24990027 1.539
-0.80482346 0.24876362 1.5320001
-0.7831099 0.24990027 1.539
-0.77435601 0.2495214 1.5366668
-0.76707351 0.24990027 1.539
-0.73366439 0.24990027 1.539
-0.72372347 0.24667798 1.5374445
-0.71717536 0.2483796 1.5337501
-0.83307093 0.25841427 1.5366668
-0.82356924 0.25851342 1.5362
-0.81333733 0.25514898 1.5320001
-0.80748403 0.25142419 1.5320001
-0.79285085 0.25142419 1.5320001
-0.78407097 0.25195631 1.5320001
-0.77356172 0.25341964 1.5320001
-0.76757544 0.25275448 1.5320001
-0.75294232 0.25142419 1.5320001
-0.74474728 0.25287533 1.5376
-0.73446292 0.25264558 1.5362
-0.72500628 0.25231105 1.5320001
-0.71588427 0.25332463 1.5320002
-0.84057361 0.26059118 1.539
-0.83573556 0.26108295 1.5366668
-0.82988268 0.26059118 1.539
0.83902711 0.19733918 1.5460001
0.841712 0.19733918 1.5460001
0.48730695 0.20807873 1.5460002
0.49804649 0.20807873 1.5460001
0.54771686 0.20807873 1.5460001
0.55442911 0.20807873 1.5460001
0.57322335 0.20807873 1.5460001
0.58127797 0.20807873 1.5460001
0.59738731 0.20807873 1.5460001
0.60275716 0.20807873 1.5460002
0.61483908 0.20807873 1.5460001
0.62423617 0.20673628 1.5460001
0.63229084 0.20539384 1.5460001
0.64840013 0.20539384 1.5460001
0.83768463 0.20002407 1.5460001
0.84708178 0.20002407 1.5460001
0.46851274 0.2161334 1.5460002
0.47334552 0.21398547 1.5460001
0.51952559 0.2107636 1.5460001
0.52758026 0.2107636 1.5460001
0.53831977 0.2107636 1.5460001
0.55174422 0.2107636 1.5460001
0.5638262 0.2107636 1.5460001
0.57859308 0.2107636 1.5460001
0.58664775 0.21076362 1.5460002
0.59470248 0.21076362 1.5460002
0.60007221 0.2107636 1.5460001
0.20270896 0.22955781 1.5460001
0.21479094 0.22687294 1.5460001
0.27654332 0.22955781 1.5460001
0.28325555 0.22955781 1.5460002
0.29667997 0.22776788 1.5460002
0.30527163 0.22848387 1.5460001
0.31368428 0.22776791 1.5460002
0.32352886 0.22687294 1.5460001
0.3315835 0.22955781 1.5460001
0.3463504 0.22955781 1.5460001
0.35843238 0.22687294 1.5460001
0.38528123 0.22418804 1.5460001
0.39870569 0.22418804 1.5460001
0.40541789 0.22351682 1.5460001
0.41213012 0.22150315 1.5460001
0.4242121 0.22150315 1.5460001
0.43763655 0.22150315 1.5460001
0.44166386 0.22150315 1.5460001
0.45508832 0.22150317 1.5460002
0.46314296 0.22150317 1.5460002
0.08815378 0.23582256 1.5460002
0.10739547 0.23492759 1.5460001
0.16243565 0.23492759 1.5460001
0.17049031 0.2322427 1.5460001
0.18659963 0.2322427 1.5460001
0.19196941 0.2322427 1.5460001
0.26446134 0.2322427 1.5460001
-0.78398693 0.24835202 1.5460001
-0.77995962 0.24835202 1.5460001
-0.73700142 0.24835202 1.5460001
0.087258816 0.24029736 1.5460001
-0.84305441 0.25774914 1.5460001
-0.83473128 0.25694367 1.5460001
-0.82426023 0.25573546 1.5460001
-0.81754804 0.25103691 1.5460001
-0.80278111 0.25103691 1.5460001
-0.77727473 0.25103691 1.5460001
-0.74505615 0.25103694 1.5460002
0.84417456 0.19688417 1.5530001
0.85226572 0.1982327 1.5530001
0.47872519 0.20902087 1.5530001
0.48277077 0.20902087 1.5530001
0.50299859 0.20632382 1.5530001
0.53806019 0.20902087 1.5530001
0.54345423 0.20902087 1.5530001
0.55424243 0.20902087 1.5530001
0.56503057 0.20902088 1.5530002
0.57042468 0.20902087 1.5530001
0.58525842 0.20834661 1.5530001
0.59469807 0.20902088 1.5530002
0.60413778 0.20632382 1.5530001
0.61492592 0.20632382 1.5530001
0.62436557 0.20632383 1.5530002
0.63380516 0.20497531 1.5530001
0.64863896 0.20632382 1.5530001
0.6553815 0.20362678 1.5530001
0.80506748 0.20632382 1.5530001
0.81046152 0.20362678 1.5530001
0.83743197 0.20092973 1.5530001
0.85091722 0.20092973 1.5530001
0.45714888 0.21980904 1.5530002
0.46562532 0.21788259 1.5530002
0.47333115 0.2117179 1.5530002
0.51648384 0.2117179 1.5530001
0.52457494 0.2117179 1.5530001
0.20767234 0.22790016 1.5530001
0.28993216 0.22790016 1.5530001
0.29262921 0.22790016 1.5530001
0.30206886 0.22790016 1.5530001
0.31555408 0.22520313 1.5530001
0.3236452 0.22655165 1.5530001
0.33173633 0.22790016 1.5530001
0.34657007 0.22790016 1.5530001
0.35466123 0.22790018 1.5530002
0.36275235 0.22790016 1.5530001
0.37758607 0.22790016 1.5530001
0.38432866 0.22587737 1.5530001
0.3951169 0.22520313 1.5530002
0.40410703 0.22250609 1.5530002
0.42208728 0.22250608 1.5530001
0.4477092 0.22250608 1.5530001
0.45175478 0.22250608 1.5530001
0.087653913 0.23329425 1.5530001
0.094396524 0.23329425 1.5530001
0.10383617 0.23329425 1.5530002
0.11462434 0.23329425 1.5530002
0.12451351 0.23329425 1.5530002
0.14833739 0.2359913 1.5530001
0.15238295 0.2359913 1.5530001
0.16496915 0.23419327 1.5530002
0.17665635 0.23329425 1.5530002
0.18474749 0.23329425 1.5530001
0.1982327 0.23059721 1.5530001
0.21980904 0.23059721 1.5530001
0.22250608 0.23059721 1.5530001
0.23464277 0.23059721 1.5530001
0.24408244 0.23059723 1.5530002
0.25217357 0.23329425 1.5530001
0.33713043 0.23059721 1.5530001
0.34252453 0.23059721 1.5530001
0.36814642 0.23059721 1.5530001
0.37515876 0.23113661 1.5530001
0.38163164 0.23059721 1.5530001
-0.83203787 0.24677947 1.5530001
-0.81585562 0.24947652 1.5530001
-0.79158223 0.24947652 1.5530001
-0.78483963 0.24745375 1.5530001
-0.77540004 0.24947652 1.5530002
-0.75112659 0.24947652 1.5530001
-0.74483347 0.24947652 1.5530002
-0.84417462 0.25487059 1.5530001
-0.83473492 0.25487059 1.5530002
-0.82799232 0.25487059 1.5530001
-0.79562783 0.25217357 1.5530001
-0.76191479 0.25217357 1.5530001
-0.75517213 0.25217357 1.5530001
0.84542811 0.19622529 1.5628
0.85327166 0.19549701 1.5635
0.86130941 0.19729836 1.567
0.46671268 0.2081838 1.567
0.47449034 0.20907339 1.5635
0.49771422 0.20787379 1.5646667
0.50255662 0.2072538 1.5600001
0.51025438 0.2081838 1.567
0.53642166 0.20996301 1.5600001
0.54490608 0.2075638 1.5623335
0.55485606 0.2075638 1.5623335
0.56468153 0.2081838 1.567
0.57835126 0.20771879 1.5635
0.58596671 0.20653725 1.5628
0.59498817 0.20556459 1.5626252
0.60360396 0.20364161 1.5635003
0.61472791 0.20436747 1.5628
0.62777746 0.20455103 1.5642
0.63535464 0.20394343 1.5623335
0.64458746 0.20436747 1.5628
0.65707415 0.20219524 1.5628
0.66252488 0.20092756 1.5635
0.81186521 0.20500353 1.5635
0.82048905 0.20274107 1.567
0.8349359 0.20228824 1.5635
0.84225988 0.20001972 1.567
0.38779333 0.21770853 1.567
0.45679531 0.21723455 1.5650002
0.46444547 0.21367346 1.5643078
0.4732666 0.21149418 1.5646667
0.51841843 0.21090515 1.567
0.16736344 0.22995465 1.567
0.19729836 0.22995465 1.567
0.20213324 0.22926983 1.5623335
0.22562492 0.22969782 1.56525
0.23434582 0.22892742 1.5600002
0.24220076 0.22995465 1.567
0.27893907 0.22995465 1.567
0.28541881 0.22969782 1.56525
0.3041051 0.22672576 1.5635
0.31155801 0.22621821 1.5600001
0.32555556 0.22621821 1.5600002
0.33526352 0.22689551 1.5600001
0.34426036 0.22633661 1.5625457
0.35344076 0.22627017 1.5635002
0.36519581 0.22808033 1.5635
0.37585726 0.2261747 1.5638891
0.38433251 0.22320478 1.5626252
0.39416593 0.2226498 1.5635002
0.40502477 0.22290052 1.56525
0.41376695 0.22113006 1.5623335
0.42044961 0.22179058 1.567
0.44766319 0.22179058 1.567
0.45175248 0.22113006 1.5623335
0.0951396 0.23241615 1.56525
0.10589585 0.23283362 1.5635
0.11429699 0.232676 1.567
0.12218449 0.23351091 1.5635
0.13576391 0.23487158 1.5635
0.14559259 0.23539737 1.5670002
0.15459308 0.23460869 1.5617501
0.1652869 0.23313606 1.5628
0.1752702 0.23232953 1.5646667
0.18484712 0.23241615 1.56525
0.19370781 0.23163661 1.5600002
0.2275728 0.23163661 1.5600001
0.25614634 0.23306142 1.5635002
0.26338199 0.2335109 1.5635
0.27424008 0.23215631 1.5635
-0.79871821 0.24900414 1.567
-0.78276932 0.24826258 1.5623335
-0.76061922 0.24900414 1.567
-0.75292349 0.24826261 1.5623335
-0.74367541 0.24789183 1.5600002
-0.73825705 0.24789181 1.5600001
-0.85450602 0.25444686 1.567
-0.84391582 0.2533102 1.5600002
-0.83595771 0.25259659 1.5611668
-0.82568359 0.25212169 1.56525
-0.812325 0.25172549 1.567
-0.8037163 0.25251785 1.5635
-0.77385128 0.25387853 1.5635
-0.76334059 0.25172549 1.567
-0.7572214 0.25060099 1.5600001
-0.71435612 0.25444686 1.567
-0.70891345 0.25444686 1.567
0.84602243 0.19817972 1.5740001
0.86242348 0.19544621 1.5740001
0.46606404 0.20911378 1.5740001
0.47563133 0.20774701 1.5740001
0.48246512 0.20911378 1.5740001
0.49431035 0.20911378 1.5740001
0.51663399 0.20911378 1.5740001
0.52346778 0.20911378 1.5740001
0.53576863 0.20911378 1.5740001
0.54533595 0.20729145 1.5740001
0.55627 0.20638028 1.5740001
0.5631038 0.20774701 1.5740001
0.57540458 0.20911378 1.5740001
0.58633864 0.20638026 1.5740001
0.5959059 0.20364675 1.5740001
0.60547322 0.20091324 1.5740001
0.61549616 0.20273559 1.5740001
0.62278545 0.20273559 1.5740001
0.63463068 0.20364675 1.5740001
0.64784265 0.20364675 1.5740001
0.65740997 0.20364675 1.5740001
0.66014349 0.20091324 1.5740001
0.81527036 0.20296337 1.5740001
0.82597661 0.20364675 1.5740001
0.8432889 0.20091324 1.5740001
0.38679215 0.21731432 1.5740001
0.4556767 0.21512751 1.5740002
0.46059701 0.21184729 1.5740001
0.51800078 0.21184729 1.5740001
0.52620137 0.21184729 1.5740001
0.53440189 0.21184729 1.5740001
0.18451215 0.22824837 1.5740001
0.22414809 0.22824837 1.5740001
0.23508216 0.22824837 1.5740001
0.29521945 0.22824837 1.5740001
0.30752027 0.22551486 1.5740001
0.31435403 0.22551486 1.5740001
0.32118782 0.22551486 1.5740001
0.33758891 0.22551486 1.5740001
0.3444227 0.22346473 1.5740001
0.35535672 0.22346473 1.5740001
0.36492401 0.22688162 1.5740001
0.37531137 0.22442146 1.5740002
0.38405865 0.22004783 1.5740001
0.39499271 0.2214146 1.5740001
0.40319324 0.22278135 1.5740001
0.41139376 0.22278135 1.5740001
0.42506135 0.22278135 1.5740001
0.44829619 0.2214146 1.5740001
0.45239648 0.22004783 1.5740001
0.096128568 0.23098189 1.5740001
0.10524027 0.23098189 1.5740001
0.11070729 0.23098189 1.5740001
0.12710838 0.2337154 1.5740001
0.15717703 0.2337154 1.5740001
0.16401079 0.23234865 1.5740001
0.17494486 0.23098189 1.5740001
0.18587892 0.23098189 1.5740001
0.19407946 0.23098189 1.5740001
0.24738297 0.23098189 1.5740001
0.25421673 0.23098189 1.5740001
0.26515082 0.23166527 1.5740001
0.27471811 0.23189306 1.5740001
-0.75581646 0.24738297 1.5740001
-0.85558975 0.25285 1.5740001
-0.84511125 0.25193882 1.5740001
-0.83508837 0.25285 1.5740001
-0.82415426 0.25148323 1.5740001
-0.814587 0.25216663 1.5740001
-0.80775321 0.25011647 1.5740001
-0.78315157 0.25011647 1.5740001
-0.77495104 0.25558349 1.5740001
-0.76948404 0.25558349 1.5740001
-0.71344697 0.25421673 1.5740001
0.81683683 0.19906108 1.5810001
0.82417315 0.19789289 1.5863335
0.84841204 0.19768825 1.5810001
0.85507607 0.19568065 1.5870001
0.86525548 0.19451065 1.5842001
0.87202203 0.19316944 1.5890001
0.465774 0.20808479 1.5870001
0.47481942 0.20782256 1.585
0.48154381 0.20834704 1.5890001
0.51475137 0.20716575 1.5842001
0.52518737 0.20544386 1.5858002
0.53546077 0.20420393 1.586867
0.54476345 0.2035466 1.5868182
0.55259603 0.20463881 1.5870001
0.56978822 0.20782256 1.585
0.57674873 0.20834704 1.5890001
0.58467162 0.20737556 1.5858002
0.5936833 0.20524246 1.5863335
0.60194808 0.20248753 1.5863335
0.6183579 0.20122729 1.5836668
0.62488067 0.2007637 1.5858002
0.63407612 0.20149808 1.5840002
0.64416146 0.20131564 1.5858002
0.65621519 0.20455243 1.5810001
0.66643453 0.20144814 1.5890001
0.81958252 0.20180675 1.5810001
0.82578158 0.20093755 1.585
0.83587456 0.20185511 1.585
0.84340495 0.20095928 1.5867144
0.38536286 0.21883303 1.585
0.39599735 0.2193853 1.5890001
0.44641939 0.21839158 1.5858001
0.45490873 0.21387471 1.5853637
0.46264541 0.21004376 1.5810001
0.53128713 0.21004376 1.5810001
0.57247221 0.21004376 1.5810001
0.12693992 0.22766398 1.5890001
0.16885871 0.22926345 1.5810001
0.17572288 0.22926345 1.5810001
0.18423967 0.22830378 1.5858002
0.19356975 0.22926347 1.5810001
0.2031796 0.22926345 1.5810001
0.2114166 0.22926345 1.5810001
0.22766398 0.22766398 1.5890001
0.23426592 0.22737743 1.5870001
0.24222681 0.22846371 1.585
0.25946581 0.22926345 1.5810001
0.26493484 0.22834948 1.5855716
0.27594644 0.22862366 1.5842001
0.28489238 0.22846371 1.5850002
0.2949034 0.22737743 1.5870001
0.3044154 0.22728191 1.5863335
0.31183067 0.22490442 1.5890001
0.32755792 0.22709088 1.585
0.33666673 0.22766398 1.5890001
0.34332308 0.22323433 1.5836668
0.35460389 0.22214487 1.5890001
0.36380243 0.22490442 1.5890001
0.37480631 0.22425739 1.5844289
0.39812216 0.22102644 1.5810001
0.40463811 0.22158565 1.585
0.41807386 0.22214486 1.5890001
0.4222132 0.22214486 1.5890001
0.43474552 0.22357415 1.5874002
0.44405288 0.22287114 1.5854445
0.095085107 0.23081993 1.5870001
0.10486341 0.23042354 1.5890001
0.11560643 0.23121634 1.5850003
0.12455416 0.23155954 1.585
0.13392083 0.2334004 1.5863334
0.14211752 0.23318312 1.5890001
0.15414307 0.23305373 1.585
0.16331424 0.23105779 1.5858002
0.20420769 0.23042354 1.5890001
0.21800551 0.23042354 1.5890001
0.24836071 0.23042354 1.5890001
0.25525963 0.23042354 1.5890001
0.27181989 0.2314806 1.5836668
-0.86431819 0.24911182 1.585
-0.83476794 0.2497405 1.5890001
-0.82609504 0.24816361 1.5890001
-0.81821054 0.2497405 1.5890001
-0.8071723 0.2497405 1.5890001
-0.79889363 0.2497405 1.5890001
-0.77129799 0.2497405 1.5890001
-0.76466912 0.24848314 1.5810001
-0.75460166 0.24848315 1.5810001
-0.72300559 0.2497405 1.5890001
-0.71472692 0.2497405 1.5890001
-0.70506847 0.24974051 1.5890001
-0.8622148 0.25165257 1.5836668
-0.85606033 0.25186443 1.585
-0.84474164 0.25286865 1.5870001
-0.83468366 0.25122881 1.5810001
-0.8250739 0.25122881 1.5810001
-0.81546402 0.25122881 1.5810001
-0.80859983 0.25122881 1.5810001
-0.78377819 0.25483125 1.5863335
-0.77388382 0.25291947 1.5830002
-0.72224987 0.25299156 1.5863335
-0.71408218 0.25223303 1.5830002
-0.70609486 0.25260162 1.5810002
-0.69877303 0.25122881 1.5810001
0.83428776 0.19817799 1.5960001
0.84537464 0.19817799 1.5960001
0.85507566 0.19679213 1.5960001
0.86616254 0.19263455 1.5960001
0.87447768 0.19263455 1.5960001
0.4573338 0.20926486 1.5960001
0.46481749 0.20704749 1.5960001
0.47257829 0.20649314 1.5960001
0.48782274 0.20926486 1.5960001
0.49752375 0.20926486 1.5960001
0.51692581 0.20649314 1.5960001
0.52662683 0.20372142 1.5960001
0.53632784 0.2009497 1.5960001
0.55295813 0.20372142 1.5960001
0.56404507 0.20649314 1.5960001
0.57513189 0.20649314 1.5960001
0.5852949 0.20649314 1.5960001
0.59453398 0.20372142 1.5960001
0.60007739 0.20372142 1.5960001
0.63610977 0.2009497 1.5960001
0.65689766 0.20372142 1.5960001
0.66659868 0.20233557 1.5960001
0.44486111 0.21758002 1.5960001
0.45248333 0.21272951 1.5960001
0.49336618 0.21203658 1.5960001
0.096548252 0.227743 1.5960001
0.10532536 0.2286669 1.5960001
0.11502638 0.2286669 1.5960001
0.12472741 0.22728103 1.5960001
0.13304257 0.2286669 1.5960001
0.14274359 0.2286669 1.5960001
0.15660219 0.2286669 1.5960001
0.16768907 0.2286669 1.5960001
0.17508033 0.2286669 1.5960001
0.18653677 0.22644953 1.5960001
0.19540629 0.22728103 1.5960001
0.20510727 0.2286669 1.5960001
0.21203658 0.2286669 1.5960001
0.22589518 0.2286669 1.5960001
0.23421034 0.22589518 1.5960001
0.24668309 0.2286669 1.5960001
0.25499827 0.2286669 1.5960001
0.26469928 0.2258952 1.5960001
0.27412313 0.22644953 1.5960001
0.28548717 0.22589518 1.5960001
0.29518819 0.22520225 1.5960001
0.3048892 0.22497128 1.5960001
0.31459022 0.22450933 1.5960001
0.32013366 0.22589518 1.5960001
0.33399227 0.2286669 1.5960001
0.34785086 0.22312346 1.5960001
0.36725292 0.22589518 1.5960001
0.37279639 0.22497128 1.5960001
0.40328526 0.22035174 1.5960001
0.41437218 0.22312348 1.5960001
0.42823076 0.22312346 1.5960001
0.43488288 0.22146045 1.5960001
0.44208935 0.22035174 1.5960001
0.13904797 0.23236254 1.5960001
0.14630723 0.23421037 1.5960001
0.15383047 0.23213154 1.5960001
-0.83844531 0.24806894 1.5960001
-0.82458675 0.24806894 1.5960001
-0.76915234 0.24806894 1.5960001
-0.71371794 0.24806896 1.5960001
-0.70817447 0.24806894 1.5960001
-0.86477667 0.25084066 1.5960001
-0.81534767 0.25084066 1.5960001
-0.80518466 0.25084066 1.5960001
-0.79594564 0.2517646 1.5960001
-0.78439677 0.25291947 1.5960001
-0.77746749 0.25084066 1.5960001
-0.75529373 0.25084066 1.5960001
-0.73127216 0.2526885 1.5960001
0.6375078 0.19904719 1.603
0.64168358 0.19904719 1.603
0.67509013 0.19904719 1.603
0.83933884 0.19626331 1.603
0.84629852 0.19626331 1.603
0.85743403 0.19626331 1.603
0.86532176 0.19347945 1.603
0.87831312 0.19069555 1.603
0.45794773 0.20739882 1.603
0.4607316 0.20739882 1.603
0.4830026 0.20739882 1.603
0.49135426 0.20739882 1.603
0.51780105 0.20600688 1.603
0.52336884 0.20461494 1.603
0.57487053 0.20739882 1.603
0.58489245 0.20572849 1.603
0.59574962 0.20391896 1.603
0.60549319 0.20183107 1.603
0.6147728 0.20183107 1.603
0.62219644 0.20183106 1.603
0.66673851 0.20275901 1.603
0.43706864 0.21853432 1.603
0.44561917 0.21535277 1.603
0.45377189 0.2101827 1.603
0.49692199 0.2101827 1.603
0.50805753 0.2101827 1.603
0.51362526 0.2101827 1.603
0.093259871 0.22966984 1.603
0.10578731 0.22966984 1.603
0.11831477 0.22688596 1.603
0.12481048 0.22595799 1.603
0.13501802 0.22827789 1.603
0.14476159 0.22966984 1.603
0.15311322 0.22966984 1.603
0.16285679 0.22966985 1.603
0.17677617 0.22827789 1.603
0.18651974 0.22410208 1.603
0.19347945 0.22410208 1.603
0.20461494 0.22688596 1.603
0.22410208 0.22966984 1.603
0.23523758 0.22688596 1.603
0.2463731 0.22688596 1.603
0.26029247 0.22688596 1.603
0.27838767 0.22410208 1.603
0.28534734 0.22410208 1.603
0.29462695 0.22410208 1.603
0.30205062 0.22410208 1.603
0.31318611 0.22410208 1.603
0.32432163 0.22688596 1.603
0.34659266 0.22410208 1.603
0.36747175 0.22410208 1.603
0.37443143 0.22410208 1.603
0.38278306 0.2213182 1.603
0.40505406 0.2213182 1.603
0.41062182 0.2213182 1.603
0.42593312 0.2213182 1.603
0.43289283 0.2213182 1.603
-0.84490657 0.24915697 1.603
-0.83237916 0.24776503 1.603
-0.82541949 0.24915697 1.603
-0.8170678 0.24915697 1.603
-0.77670163 0.24915697 1.603
-0.76974189 0.24915697 1.603
-0.72519988 0.24915698 1.603
-0.71406436 0.24637309 1.603
-0.70710468 0.24915697 1.603
-0.68344176 0.24915697 1.603
-0.84629852 0.25194085 1.603
-0.83933884 0.25194085 1.603
-0.79479682 0.25194085 1.603
-0.78783715 0.25194085 1.603
-0.74468702 0.25402877 1.603
-0.73633546 0.25379679 1.603
-0.70478481 0.25658065 1.603
-0.68204981 0.25194085 1.603
0.59804606 0.19716321 1.618
0.6055392 0.19809984 1.618
0.61256403 0.19809984 1.618
0.64487821 0.19809984 1.618
0.67859733 0.19809984 1.618
0.68140721 0.19809984 1.618
0.84427708 0.19612758 1.6133335
0.85525876 0.19607107 1.6152
0.86440074 0.1932184 1.615375
0.87570202 0.19164725 1.6110001
0.88549423 0.19164725 1.6110001
0.44818333 0.20933954 1.618
0.45525852 0.2084153 1.6152
0.46492979 0.20585948 1.6127501
0.47981757 0.20843387 1.6110001
0.4854131 0.20843387 1.6110001
0.49570316 0.20763269 1.6156667
0.50396025 0.2071839 1.6121668
0.51418138 0.20747513 1.6160001
0.52488649 0.20420183 1.61625
0.53157628 0.20283833 1.6110001
0.54372084 0.20090976 1.618
0.57670707 0.20686653 1.6133335
0.5850687 0.20421159 1.6145
0.59538519 0.20172916 1.6133335
0.60403854 0.20060013 1.6110001
0.61550939 0.20143944 1.6110001
0.63366365 0.20047517 1.6145
0.6476838 0.20004056 1.6110001
0.66542876 0.20313212 1.6133335
0.67383426 0.2003303 1.6133335
0.42898577 0.21869713 1.6145
0.43553436 0.2161268 1.61625
0.44427645 0.2132097 1.6127501
0.45183986 0.21123163 1.6110001
0.4966042 0.21123163 1.6110001
0.50639641 0.21123163 1.6110001
0.51339084 0.21123163 1.6110001
0.096726686 0.22851366 1.6145
0.10522436 0.22867879 1.6156667
0.11519258 0.22729062 1.6138
0.12485737 0.2258729 1.6156667
0.13588434 0.2274119 1.6133335
0.14471123 0.22900903 1.618
0.15420559 0.22851366 1.6145
0.16578567 0.22900903 1.618
0.17421545 0.22900903 1.618
0.18506007 0.22430483 1.6145
0.19528991 0.22338919 1.618
0.20436661 0.2258729 1.6156667
0.21434347 0.22834854 1.6133335
0.2243018 0.22851366 1.6145
0.23081604 0.22801827 1.6110001
0.24551807 0.22680549 1.6156667
0.25642529 0.22618109 1.6156667
0.26568097 0.22443564 1.6140001
0.27497572 0.22399962 1.6156667
0.28520757 0.22338919 1.618
0.29644728 0.22338918 1.618
0.30628201 0.22338918 1.618
0.31436989 0.22314757 1.61625
0.32431078 0.22523944 1.6145
0.33434543 0.2274119 1.6133335
0.3434684 0.22640924 1.6145
0.35264581 0.22338918 1.618
0.37684512 0.22367746 1.6133335
0.38413027 0.22150099 1.6145
0.39619967 0.22057925 1.618
0.40462947 0.22057925 1.618
0.41546887 0.22242272 1.6110001
0.42384568 0.22187863 1.6152
0.43225548 0.22242272 1.6110001
0.14688294 0.23081604 1.6110001
0.21822608 0.23081604 1.6110001
0.22242272 0.23081604 1.6110001
-0.86264753 0.24586859 1.618
-0.85492021 0.24586859 1.618
-0.84772432 0.24760266 1.6110001
-0.8323366 0.24760266 1.6110001
-0.82330859 0.24867852 1.618
-0.79380435 0.24867854 1.618
-0.78337562 0.24760266 1.6110001
-0.77778006 0.24760266 1.6110001
-0.76570505 0.24867852 1.618
-0.7516554 0.24867852 1.618
-0.74509895 0.24867854 1.618
-0.73339093 0.24867852 1.618
-0.7240954 0.2474381 1.6145
-0.71551073 0.24634948 1.6138
-0.70733112 0.24840955 1.61625
-0.69505543 0.24386151 1.6180001
-0.68825144 0.24620377 1.6110001
-0.8776015 0.25094444 1.6145
-0.86388981 0.2526283 1.6133335
-0.85564721 0.25207132 1.6127501
-0.84352767 0.25040042 1.6110001
-0.82534218 0.25040042 1.6110001
-0.81432843 0.25067243 1.6127501
-0.80627161 0.25121644 1.61625
-0.7943207 0.25076312 1.6133335
-0.78617334 0.25040042 1.6110001
-0.77078563 0.25040042 1.6110001
-0.76519012 0.25040042 1.6110001
-0.75539792 0.25179932 1.6110001
-0.74512976 0.25117761 1.6124001
-0.7358135 0.25040042 1.6110001
-0.70412648 0.25439048 1.6135001
-0.69529051 0.25453979 1.6124001
-0.68895084 0.25389764 1.6110001
-0.70465422 0.2619704 1.6133335
-0.6982668 0.26272815 1.618
0.59582603 0.19907932 1.626
0.60570943 0.19625549 1.626
0.64383096 0.19907932 1.626
0.65089053 0.19907932 1.626
0.67912871 0.19907932 1.626
0.85608816 0.19343168 1.6260002
0.86550087 0.19201976 1.626
0.87538421 0.19060786 1.626
0.45510566 0.20755079 1.6260002
0.46451843 0.20472696 1.6260002
0.47157794 0.20472695 1.626
0.48993278 0.20755078 1.626
0.49558043 0.20755078 1.626
0.50687569 0.20472696 1.6260002
0.51393527 0.20472695 1.626
0.52664244 0.20331505 1.626
0.53511393 0.20190315 1.6260002
0.56335211 0.20472695 1.626
0.57605928 0.20755078 1.626
0.58311886 0.20472695 1.626
0.5930022 0.20190313 1.626
0.61982852 0.20190313 1.626
0.62265235 0.20190313 1.626
0.63112378 0.20190313 1.626
0.66500962 0.20472695 1.626
0.67206919 0.20190313 1.626
0.32332739 0.21884605 1.626
0.39957055 0.21884605 1.626
0.40239435 0.21884605 1.626
0.42686749 0.21790479 1.6260002
0.43439767 0.21272779 1.6260002
0.44475168 0.21037459 1.6260002
0.1129528 0.22731751 1.626
0.12848382 0.2244937 1.626
0.13836718 0.22731751 1.626
0.14542674 0.22731751 1.6260002
0.15531011 0.22731751 1.626
0.17790067 0.22731751 1.626
0.1835483 0.2244937 1.626
0.20472696 0.2259056 1.626
0.21461034 0.22661155 1.626
0.22543499 0.22637624 1.6260002
0.23014134 0.22731751 1.626
0.24520171 0.22637624 1.6260002
0.2541438 0.2244937 1.626
0.26543909 0.22166988 1.626
0.27532247 0.22166988 1.626
0.29508919 0.2244937 1.626
0.30356064 0.2244937 1.626
0.31626785 0.22166988 1.626
0.32473934 0.22237584 1.626
0.33532864 0.22519965 1.626
0.34365889 0.22505847 1.626
0.35438943 0.2244937 1.626
0.36568469 0.2244937 1.626
0.37698001 0.22355244 1.6260002
0.38403952 0.22166988 1.626
0.39204037 0.22261116 1.6260002
0.4066301 0.22166988 1.626
0.41510156 0.22166988 1.626
0.42498493 0.22166988 1.626
-0.69889545 0.2386128 1.626
0.16236965 0.23014134 1.626
-0.88526762 0.24990807 1.626
-0.87114847 0.24849617 1.626
-0.86487335 0.24582921 1.6260002
-0.85138178 0.24990807 1.626
-0.84573412 0.24990807 1.626
-0.8344388 0.24990807 1.6260002
-0.82408488 0.24896681 1.6260002
-0.81467211 0.24990807 1.626
-0.8045063 0.24877857 1.626
-0.79490536 0.24708426 1.6260002
-0.78502202 0.24849617 1.626
-0.77796245 0.24990807 1.626
-0.7638433 0.24990807 1.6260002
-0.75537187 0.24849617 1.626
-0.74595916 0.24896681 1.6260002
-0.73560512 0.24708426 1.6260002
-0.72995752 0.24708426 1.626
-0.71160269 0.24708426 1.626
-0.70397836 0.24764903 1.626
-0.87538421 0.25273189 1.626
-0.70171928 0.25273189 1.626
-0.69889545 0.25273189 1.626
-0.70360184 0.26214463 1.6260002
-0.69795418 0.26214463 1.6260002
0.60301411 0.19722109 1.6340001
0.84847629 0.19722109 1.6340001
0.85557061 0.19438337 1.6340001
0.86692142 0.19154565 1.6340001
0.43842673 0.20857194 1.6340001
0.445521 0.20857194 1.6340001
0.45545301 0.20857194 1.6340001
0.46112844 0.20573422 1.6340001
0.49801871 0.20573422 1.6340001
0.50227523 0.20573422 1.6340001
0.51504499 0.20289651 1.6340001
0.52450407 0.20478833 1.6340002
0.53490901 0.2000588 1.6340002
0.54342216 0.20195059 1.6340002
0.55335414 0.20289651 1.6340001
0.56896156 0.20573422 1.6340001
0.58598781 0.20431536 1.6340001
0.59166324 0.20289651 1.6340001
0.63139123 0.20289651 1.6340001
0.65834951 0.20147765 1.6340001
0.66544378 0.20573422 1.6340001
0.67537582 0.20147765 1.6340001
0.84421968 0.2000588 1.6340002
0.26816392 0.2199228 1.6340001
0.32491818 0.2199228 1.6340001
0.38451016 0.21992281 1.6340002
0.39444217 0.2199228 1.6340001
0.40437415 0.21850394 1.6340001
0.41288731 0.21992281 1.6340002
0.42650834 0.21651755 1.6340001
0.43417016 0.21140964 1.6340001
0.10925197 0.22843593 1.6340001
0.11776511 0.22559822 1.6340001
0.12202168 0.22559822 1.6340001
0.13621025 0.22559822 1.6340001
0.14472339 0.22559822 1.6340001
0.16600624 0.22843593 1.6340002
0.17451939 0.22749004 1.6340002
0.19722109 0.2227605 1.6340001
0.20715308 0.22559822 1.6340001
0.21708509 0.22559822 1.6340002
0.22465232 0.22654413 1.6340002
0.23553021 0.22843593 1.6340001
0.24829993 0.22559822 1.6340001
0.25823194 0.2227605 1.6340001
0.27667707 0.2227605 1.6340001
0.28377134 0.2227605 1.6340001
0.30647305 0.2227605 1.6340001
0.31072962 0.2227605 1.6340001
0.33343133 0.2227605 1.6340002
0.35045761 0.2227605 1.6340001
0.36464617 0.22559822 1.6340001
0.37599704 0.22417936 1.6340001
0.42281929 0.2227605 1.6340001
-0.87685347 0.24688107 1.6340001
-0.85557067 0.24829993 1.6340002
-0.84280086 0.24829993 1.6340001
-0.83286893 0.24735403 1.6340002
-0.82151806 0.24829993 1.6340001
-0.81243736 0.24716485 1.6340001
-0.80449176 0.24546222 1.6340002
-0.79881632 0.24546221 1.6340001
-0.7718581 0.24829993 1.6340001
-0.76760149 0.24829993 1.6340001
-0.75483179 0.24829993 1.6340001
-0.74631858 0.24829993 1.6340001
-0.72503579 0.24546221 1.6340001
-0.71463084 0.2464081 1.6340002
-0.70706362 0.24357042 1.6340002
-0.88394773 0.25113767 1.6340002
-0.87827229 0.25113764 1.6340001
-0.81868035 0.25113764 1.6340001
-0.77753353 0.25113764 1.6340001
0.87603182 0.18835245 1.6458
0.88346535 0.18854643 1.645
0.53981942 0.19903156 1.649
0.54554695 0.19903156 1.649
0.5541383 0.19903156 1.649
0.60282218 0.19903156 1.649
0.65420759 0.19854876 1.645
0.66152936 0.19903156 1.649
0.6744163 0.19903156 1.649
0.68574846 0.19879016 1.6470001
0.69446266 0.19903156 1.649
0.85450912 0.19592988 1.6470001
0.8648724 0.19254373 1.6474001
0.87381858 0.19092175 1.6470001
0.89202708 0.19172424 1.6436667
0.43602544 0.20872842 1.6442
0.44511637 0.2068674 1.6429999
0.45529759 0.20695135 1.6436666
0.46280777 0.20568734 1.645
0.4856554 0.20854414 1.645
0.49422583 0.20616463 1.645
0.50442696 0.20376571 1.641
0.51637137 0.20283052 1.6450001
0.52665085 0.20409684 1.6436666
0.53409189 0.20189533 1.649
0.54717505 0.20091584 1.641
0.5564037 0.20187317 1.6430001
0.56495678 0.20329811 1.6429999
0.57707351 0.20568734 1.6450002
0.58523744 0.20378037 1.6444286
0.59349024 0.2011607 1.6429999
0.62859607 0.20189533 1.649
0.64356005 0.20165047 1.6470001
0.66706324 0.20283051 1.645
0.67406225 0.20155406 1.6423333
0.33792409 0.2190779 1.649
0.34221974 0.2190779 1.649
0.37944865 0.2190779 1.649
0.38392577 0.21836935 1.6436666
0.39423031 0.21854648 1.645
0.40522254 0.2190779 1.649
0.41568556 0.21649627 1.6463333
0.4250136 0.21464768 1.6458
0.43137586 0.21140096 1.645
0.48254412 0.21048661 1.649
0.49399918 0.21048661 1.649
0.57848018 0.21048661 1.649
0.096895583 0.22941454 1.641
0.10479585 0.2287164 1.6442
0.11393688 0.22603278 1.649
0.12436762 0.22539185 1.6463335
0.13251896 0.22656468 1.641
0.15531793 0.22656469 1.6410002
0.16569538 0.22711693 1.6450001
0.17520972 0.22550912 1.6458
0.18377623 0.22524524 1.6470001
0.19044027 0.22480543 1.649
0.20283747 0.22426012 1.645
0.21452348 0.22453277 1.6470001
0.23588304 0.22730103 1.6463335
0.24413906 0.22700372 1.6442
0.25261873 0.22407834 1.6436666
0.26633 0.22194166 1.649
0.27591091 0.22158276 1.6463335
0.2860238 0.22238496 1.6470001
0.29388916 0.22327152 1.6429999
0.30208623 0.2237148 1.641
0.31491065 0.2237148 1.641
0.33485973 0.22086494 1.6410002
0.34470394 0.22280109 1.6432856
0.35423833 0.22282822 1.6450001
0.36613119 0.22379644 1.6458
0.37472072 0.22254778 1.6444286
0.38045767 0.22086494 1.641
0.42178077 0.22086494 1.641
-0.82190013 0.23912424 1.649
-0.81760448 0.23912424 1.649
-0.72023648 0.23912424 1.649
-0.89132333 0.24853958 1.645
-0.88603747 0.24756168 1.6442
-0.8791849 0.24366389 1.641
-0.8613233 0.24711466 1.645
-0.8539685 0.24786434 1.6436667
-0.84562123 0.24711466 1.645
-0.83073711 0.24793869 1.641
-0.8247574 0.24568 1.6450001
-0.81543273 0.24358022 1.6436667
-0.80639195 0.24405985 1.6436667
-0.79536164 0.24752668 1.6430001
-0.78502572 0.24797559 1.6460001
-0.77584589 0.24812756 1.6470001
-0.76456183 0.24837478 1.6458
-0.75746542 0.24771553 1.649
-0.74543339 0.24609828 1.6429999
-0.73526651 0.24651377 1.641
-0.72276771 0.24496683 1.645
-0.71572846 0.24332872 1.6425999
-0.70819271 0.24081402 1.641
-0.89778984 0.2505793 1.649
-0.79469436 0.2505793 1.649
0.8733688 0.18848652 1.6570001
0.89351243 0.18848652 1.6570001
0.53956062 0.19999714 1.6570001
0.54819363 0.19711949 1.6570001
0.55538774 0.19711949 1.6570001
0.56402075 0.19999714 1.6570001
0.59855258 0.19999714 1.6570001
0.60286909 0.19999714 1.6570001
0.64603394 0.19999714 1.6570001
0.6546669 0.19999714 1.6570001
0.66905522 0.19999714 1.6570001
0.67193288 0.19999714 1.6570001
0.68632114 0.19999714 1.6570001
0.6949541 0.19711949 1.6570001
0.84746993 0.19999714 1.6570001
0.85610288 0.1971195 1.6570001
0.86473584 0.19136417 1.6570001
0.87049115 0.19136417 1.6570001
0.89926773 0.19136417 1.6570001
0.42733201 0.20863011 1.6570001
0.43452618 0.20791072 1.6570001
0.44603679 0.20575246 1.6570001
0.45466977 0.20575246 1.6570001
0.46474156 0.20575246 1.6570001
0.49783462 0.20575246 1.6570001
0.50502878 0.20287481 1.6570001
0.51366174 0.20287481 1.6570001
0.52661121 0.20287479 1.6570001
0.53236651 0.20287479 1.6570001
0.5683372 0.20287479 1.6570001
0.57265365 0.20287479 1.6570001
0.58560318 0.20287479 1.6570001
0.63596213 0.20431364 1.6570001
0.64027864 0.20287479 1.6570001
0.38512641 0.21726309 1.6570001
0.41409484 0.21496096 1.6569999
0.42445439 0.21150777 1.6570001
0.096401498 0.22877371 1.6570001
0.10503447 0.22685528 1.6570001
0.11222862 0.22301839 1.6570001
0.12517807 0.22445723 1.6570001
0.13093339 0.22589606 1.6570001
0.16546527 0.22589606 1.6570001
0.17122057 0.22589606 1.6570001
0.19568066 0.22589606 1.6570001
0.20863011 0.22589606 1.6570001
0.21294659 0.22301839 1.6570001
0.24603967 0.22493684 1.6570001
0.25179496 0.22301839 1.6570001
0.26186675 0.22301839 1.6570001
0.29639864 0.22301839 1.6570001
0.3035928 0.22301839 1.6570001
0.3237364 0.22301839 1.6570001
0.33380818 0.22014074 1.6570001
0.34819648 0.22014074 1.6570001
0.35539061 0.22157957 1.6570001
0.36690125 0.22301839 1.6570001
0.37697303 0.22014074 1.6570001
0.39711663 0.22014074 1.6570001
-0.83020395 0.24316199 1.6570001
-0.81725454 0.24172316 1.6570001
-0.80430508 0.24747849 1.6570001
-0.79567212 0.24699888 1.6570001
-0.78416145 0.24603966 1.6570001
-0.77265084 0.24891731 1.6570001
-0.75538492 0.24699888 1.6570001
-0.7467519 0.24603966 1.6570001
-0.73524129 0.24603967 1.6570001
-0.72804713 0.24460083 1.6570001
-0.90502304 0.25179496 1.6570001
0.87469393 0.18939653 1.6650001
0.89204317 0.18939653 1.6650001
0.55373186 0.19807118 1.6650001
0.56385225 0.19807118 1.6650001
0.64770722 0.19807118 1.6650001
0.66361076 0.19807118 1.6650001
0.67806852 0.19807118 1.6650001
0.68240583 0.19807118 1.6650001
0.69541782 0.19807118 1.6650001
0.86168194 0.19373386 1.6650001
0.90939248 0.19517963 1.6650001
0.91372985 0.19517963 1.6650001
0.41782898 0.20963739 1.6650001
0.42534706 0.20848076 1.6650002
0.43517828 0.20674583 1.6650002
0.44240716 0.20530006 1.6650001
0.45397335 0.20385428 1.6650001
0.46409377 0.20674583 1.6650001
0.48722619 0.20674583 1.6650001
0.49445507 0.20530005 1.6650001
0.50168395 0.20385428 1.6650001
0.5262621 0.20096274 1.6650001
0.53782833 0.20096274 1.6650001
0.57541847 0.20240851 1.6650001
0.58409309 0.20385428 1.6650001
0.5942136 0.20096275 1.6650002
0.62746638 0.20096274 1.6650001
0.63469523 0.20096275 1.6650002
0.64336991 0.20192659 1.6650002
0.6534903 0.20096274 1.6650001
0.85445303 0.20096274 1.6650001
0.34409446 0.21831203 1.6650001
0.38457614 0.21831203 1.6650001
0.39469659 0.21831203 1.6650001
0.41493744 0.2134928 1.6650002
0.09542115 0.22843245 1.6650001
0.10554159 0.225059 1.6650002
0.11614393 0.2231313 1.6650002
0.14409558 0.22698669 1.6650002
0.1561437 0.22698668 1.6650001
0.16048104 0.22698668 1.6650001
0.17638455 0.22409514 1.6650001
0.18505919 0.22409514 1.6650001
0.19517963 0.22409514 1.6650001
0.20674585 0.22409515 1.6650002
0.22698669 0.22698669 1.6650002
0.23276979 0.22698668 1.6650001
0.24433598 0.22554091 1.6650001
0.25734794 0.22409514 1.6650001
0.2848177 0.2212036 1.6650002
0.29493809 0.22120358 1.6650001
0.31951627 0.22409514 1.6650001
0.32240784 0.22409514 1.6650001
0.35710645 0.22120358 1.6650001
0.3643353 0.22409514 1.6650001
0.37300998 0.22120358 1.6650001
-0.90071785 0.24722753 1.6650001
-0.89782631 0.24722753 1.6650001
-0.87180233 0.24722753 1.6650001
-0.86409158 0.24722753 1.6650002
-0.81686288 0.24433598 1.6650001
-0.80529666 0.24722753 1.6650002
-0.7937305 0.24433598 1.6650002
-0.78505588 0.24722753 1.6650001
-0.77204388 0.24722753 1.6650001
-0.76626074 0.24722753 1.6650001
-0.75421274 0.24337213 1.6650002
-0.7460199 0.24722753 1.6650001
-0.73445368 0.24361309 1.6650001
-0.9036094 0.25011909 1.6650001
0.88180208 0.1874011 1.6730001
0.54477066 0.19902287 1.6730001
0.55058151 0.19902287 1.6730001
0.57091963 0.19902287 1.6730001
0.59852135 0.19902287 1.6730001
0.60578495 0.19902287 1.6730001
0.61304855 0.19902287 1.6730001
0.62031215 0.19902287 1.6730001
0.63774484 0.19902287 1.6730001
0.64529902 0.1978607 1.6730002
0.65517747 0.19757015 1.6730001
0.66486233 0.19902287 1.6730001
0.67551559 0.19902287 1.6730001
0.68132651 0.19611743 1.6730001
0.69294828 0.19902287 1.6730001
0.85565311 0.19611743 1.6730001
0.86364305 0.1946647 1.6730001
0.87308574 0.19030654 1.6730001
0.91521466 0.19321199 1.6730001
0.41983658 0.2077392 1.6730001
0.42564747 0.20677075 1.6730001
0.43436378 0.20483378 1.6730001
0.4450171 0.20483378 1.6730001
0.45179644 0.20483376 1.6730001
0.46487093 0.20483376 1.6730001
0.47504002 0.20677075 1.6730001
0.48666176 0.2077392 1.6730001
0.49683082 0.20338103 1.6730001
0.50554717 0.20192832 1.6730001
0.51716888 0.20192832 1.6730001
0.52443254 0.20192832 1.6730001
0.53460157 0.20192832 1.6730001
0.57818323 0.20192832 1.6730001
0.58544683 0.20192832 1.6730001
0.59125775 0.20192832 1.6730001
0.62612307 0.20192832 1.6730001
0.6435557 0.20192832 1.6730001
0.85274762 0.20192832 1.6730001
0.2876389 0.21936098 1.6730001
0.29490253 0.21936099 1.6730001
0.33703142 0.21936098 1.6730001
0.34429502 0.21742402 1.6730001
0.35591683 0.21936098 1.6730001
0.37770766 0.21936098 1.6730001
0.40821481 0.21936098 1.6730001
0.41286349 0.21471226 1.6730002
0.095879629 0.22807731 1.6730001
0.10459596 0.22371913 1.6730001
0.12348135 0.22371915 1.6730001
0.13655585 0.22807731 1.6730001
0.14672489 0.22807731 1.6730001
0.15253578 0.22807731 1.6730001
0.167063 0.22517186 1.6730001
0.17577933 0.22371915 1.6730001
0.18304294 0.22226642 1.6730001
0.19611743 0.22517186 1.6730001
0.20192832 0.22517186 1.6730001
0.21936098 0.22517186 1.6730001
0.22226642 0.22517186 1.6730001
0.23776212 0.22710882 1.6730001
0.24550997 0.22420339 1.6730001
0.25277358 0.22226642 1.6730001
0.27746984 0.22226642 1.6730001
0.2803753 0.22226642 1.6730001
0.32686239 0.22226642 1.6730001
0.33267328 0.22226642 1.6730001
0.36463317 0.22226642 1.6730001
0.37044403 0.22226642 1.6730001
-0.77430069 0.23969908 1.6730001
-0.87018031 0.24841541 1.6730001
-0.86436939 0.24550997 1.6730001
-0.84112585 0.24550997 1.6730001
-0.82224047 0.24260452 1.6730001
-0.81497687 0.24550997 1.6730001
-0.80626059 0.24550997 1.6730001
-0.79318607 0.24405724 1.6730001
-0.78592247 0.24647847 1.6730001
-0.77526921 0.2445415 1.6730001
-0.76413167 0.2469627 1.6730001
-0.756868 0.24405724 1.6730001
-0.74669898 0.24550997 1.6730001
-0.73798263 0.24260452 1.6730001
-0.91230923 0.25132087 1.6730001
0.87434137 0.18829723 1.6810001
0.42768285 0.19997457 1.6810001
0.43060216 0.19997457 1.6810001
0.44811818 0.19997457 1.6810001
0.50066626 0.19997457 1.6810001
0.53861761 0.19997457 1.6810001
0.54299664 0.19997457 1.6810001
0.550295 0.19997457 1.6810001
0.57656902 0.19997457 1.6810001
0.58824635 0.19997457 1.6810001
0.59408504 0.19997457 1.6810001
0.60284305 0.19705524 1.6810001
0.62327838 0.19997457 1.6810001
0.63568556 0.19924474 1.6810001
0.64517343 0.19632539 1.6810001
0.65247178 0.19413589 1.6810001
0.66122979 0.19705524 1.6810001
0.6845845 0.19705524 1.6810001
0.69042313 0.19705524 1.6810001
0.70501983 0.19802836 1.6810001
0.71085852 0.19705524 1.6810001
0.85487908 0.19770396 1.681
0.86441559 0.19530363 1.6810001
0.91521204 0.19267622 1.6810001
0.92251039 0.19267622 1.6810001
0.41746515 0.20873258 1.6810001
0.42670974 0.20484012 1.6810001
0.43206185 0.2028939 1.6810001
0.44519886 0.2028939 1.6810001
0.45687622 0.2028939 1.6810001
0.46563423 0.2028939 1.6810001
0.48606956 0.20775947 1.6810001
0.4948276 0.20484012 1.6810001
0.51526296 0.2028939 1.6810001
0.52402097 0.2028939 1.6810001
0.33718339 0.21749058 1.6810001
0.34156239 0.21749058 1.6810001
0.35469943 0.2174906 1.6810001
0.37805411 0.21749058 1.6810001
0.38681215 0.2174906 1.6810001
0.39557013 0.21749058 1.6810001
0.40578783 0.21603093 1.6810001
0.41235632 0.21384142 1.6810001
0.089039773 0.22916794 1.6810001
0.094148614 0.22697842 1.6810001
0.10217679 0.22332926 1.6810001
0.11677347 0.22332926 1.6810001
0.12699115 0.22430238 1.6810001
0.13574916 0.22624859 1.6810001
0.14450717 0.22624859 1.6810001
0.15521142 0.22624859 1.6810001
0.16494253 0.22624859 1.6810001
0.17661987 0.22332926 1.6810001
0.18683755 0.22186959 1.6810001
0.19559556 0.22332926 1.6810001
0.20581326 0.22332928 1.6810001
0.21457124 0.22332928 1.6810001
0.22770827 0.22624859 1.6810001
0.23500662 0.22478892 1.6810001
0.24303478 0.22405909 1.6810001
0.25836131 0.22332926 1.6810001
0.26419997 0.22332928 1.6810001
0.27295798 0.22332928 1.6810001
0.28317565 0.22040993 1.6810001
0.30653036 0.22332926 1.6810001
0.31577492 0.22478895 1.6810001
0.32550606 0.22138304 1.6810001
0.33280438 0.22040993 1.6810001
0.35323974 0.22040993 1.6810001
0.36345744 0.22040993 1.6810001
0.37513477 0.22040993 1.6810001
0.40432811 0.22040993 1.6810001
-0.91521204 0.24960329 1.6810001
-0.90791374 0.24668396 1.6810001
-0.88018 0.24668396 1.6810001
-0.87142199 0.24668396 1.6810001
-0.81449497 0.24376462 1.6810001
-0.8042773 0.24376462 1.6810001
-0.79405963 0.24376462 1.6810001
-0.78384197 0.24668396 1.6810001
-0.77362424 0.24668396 1.6810001
-0.76778555 0.2452243 1.6810001
-0.75610822 0.2452243 1.6810001
-0.74491739 0.24279152 1.6810001
-0.73713255 0.24084528 1.6810001
0.86254156 0.18725261 1.6980001
0.87462008 0.18930535 1.6900001
0.88489246 0.18930535 1.6900001
0.43348241 0.19904806 1.6980001
0.44822675 0.19904806 1.6980001
0.45265001 0.19904806 1.6980001
0.46739432 0.19904806 1.6980001
0.47181761 0.19757363 1.6980001
0.48803633 0.19904806 1.6980001
0.4998318 0.19904806 1.6980001
0.50393903 0.19761096 1.692
0.51310164 0.19904806 1.6980001
0.5450477 0.19904807 1.6980002
0.55602163 0.19857916 1.694
0.56351364 0.19811025 1.6900001
0.57559681 0.19873546 1.6953334
0.58534873 0.19904806 1.6980001
0.59419531 0.19904807 1.6980002
0.60427493 0.1978956 1.6932
0.61485648 0.19710472 1.6940002
0.62663281 0.19904807 1.6980002
0.63544631 0.19857916 1.694
0.64574653 0.19490002 1.694
0.65305156 0.19337033 1.6913335
0.66770494 0.19811025 1.6900001
0.675843 0.19834471 1.692
0.68237978 0.19811025 1.6900001
0.69574863 0.19710472 1.694
0.70415992 0.19775252 1.6953335
0.7118696 0.19646159 1.6926668
0.85847777 0.19517529 1.6900001
0.86520475 0.1921839 1.696
0.87198091 0.1908811 1.6953335
0.8890813 0.19020148 1.6980001
0.89792788 0.19020148 1.6980001
0.90677446 0.19020149 1.6980002
0.91562104 0.1916759 1.6980001
0.92449892 0.19254367 1.6926668
0.41549441 0.20848094 1.6932001
0.42482868 0.204528 1.6945717
0.43731004 0.20251271 1.6900001
0.4437201 0.2020129 1.6932
0.45565358 0.20177898 1.6900001
0.46592599 0.20177896 1.6900001
0.47621486 0.20331912 1.6926668
0.485304 0.20461929 1.6953332
0.49482152 0.20322996 1.6960001
0.5053035 0.20104524 1.6900001
0.51361918 0.20104523 1.6900001
0.52377081 0.20128316 1.692
0.53647661 0.20136246 1.6926668
0.58682317 0.20199692 1.6980001
0.59425604 0.20152107 1.694
0.63248533 0.20104523 1.6900001
0.10615896 0.21969007 1.6980001
0.11058225 0.21969007 1.6980001
0.18577819 0.21969007 1.6980001
0.19609921 0.21969007 1.6980002
0.20199692 0.21969007 1.6980001
0.24475539 0.21969007 1.6980001
0.25212753 0.21969007 1.6980001
0.29453346 0.21943131 1.696
0.30411378 0.21869409 1.6960001
0.31552801 0.21969007 1.6980001
0.3253327 0.21934506 1.6953334
0.33351296 0.21817657 1.692
0.34379226 0.21597534 1.692
0.35542449 0.21513307 1.6900002
0.36550549 0.2178895 1.6932001
0.3747941 0.21900003 1.6926668
0.38244528 0.21769813 1.694
0.39809611 0.21821564 1.6980001
0.40451312 0.21549168 1.6940002
0.4118644 0.2118143 1.694
0.088816032 0.22719479 1.6953334
0.09556704 0.22377054 1.6932
0.1043511 0.22193965 1.6926668
0.1146009 0.22185223 1.692
0.12473609 0.22158998 1.6900001
0.13474078 0.22470906 1.6945717
0.14426723 0.22473973 1.6953334
0.15463281 0.22605583 1.6960001
0.16585514 0.22425058 1.6953334
0.17483717 0.22331971 1.692
0.18441376 0.22158998 1.6900001
0.19517529 0.22158998 1.6900001
0.20462856 0.22228929 1.6953334
0.22522889 0.22523353 1.6953335
0.23418486 0.22291797 1.6926668
0.24506973 0.22158998 1.6900001
0.2553421 0.22158998 1.6900001
0.26561451 0.22158998 1.6900001
0.27485704 0.22193965 1.6926668
0.28028932 0.22158998 1.6900001
0.30670404 0.22158998 1.6900001
0.31661952 0.22258598 1.692
0.32284635 0.22158998 1.6900001
0.36540335 0.22158998 1.6900001
0.37274081 0.22158998 1.6900001
0.086581521 0.23039488 1.6900001
-0.9215188 0.24917868 1.6980001
-0.89203018 0.24622981 1.6980001
-0.8841179 0.2465848 1.6964
-0.87902254 0.24800469 1.6900001
-0.85369498 0.24328096 1.6980001
-0.84967285 0.24506973 1.6900001
-0.82558805 0.24340947 1.6948
-0.81535983 0.24328098 1.6980002
-0.80229777 0.24289888 1.6953334
-0.79455596 0.24481826 1.6964
-0.78803855 0.24800469 1.6900001
-0.77629876 0.24506973 1.6900001
-0.76228034 0.24622981 1.6980001
-0.75933146 0.24622981 1.6980001
-0.92011207 0.25093967 1.6900001
0.86808676 0.18665347 1.7060001
0.87549365 0.18813485 1.7060001
0.88438195 0.18813485 1.7060001
0.89178878 0.18813485 1.7060001
0.44589439 0.19998586 1.7060001
0.46515229 0.19998586 1.7060001
0.47848469 0.19850448 1.7060001
0.48441023 0.19850449 1.7060002
0.49527359 0.19850449 1.7060002
0.50366807 0.19702311 1.7060001
0.51107496 0.19702311 1.7060001
0.5273701 0.19998586 1.7060001
0.53477699 0.19998586 1.7060001
0.54959077 0.19998586 1.7060001
0.58810657 0.19998586 1.7060001
0.59847617 0.19702311 1.7060001
0.60588306 0.19702312 1.7060001
0.61328995 0.19406036 1.7060001
0.62514096 0.19702311 1.7060001
0.64439887 0.19603553 1.7060001
0.65624988 0.1910976 1.7060001
0.6671133 0.19504794 1.7060001
0.6873588 0.19702311 1.7060001
0.69476569 0.19702311 1.7060001
0.70809805 0.19702311 1.7060001
0.71402359 0.19406036 1.7060001
0.90512115 0.1910976 1.7060001
0.93474877 0.1910976 1.7060001
0.4192296 0.20591137 1.7060001
0.42416751 0.2039362 1.7060001
0.53181422 0.20294861 1.7060001
0.19554174 0.21776238 1.7060001
0.30071947 0.21776238 1.7060001
0.31849599 0.21776238 1.7060001
0.33923528 0.21776238 1.7060001
0.37478828 0.2177624 1.7060001
0.38565177 0.2177624 1.7060001
0.39700896 0.21776238 1.7060001
0.40441585 0.21282446 1.7060001
0.41034135 0.21183687 1.7060001
0.08591985 0.22813201 1.7060001
0.093326733 0.22368789 1.7060001
0.11702876 0.22072513 1.7060001
0.12295426 0.22072513 1.7060001
0.13776803 0.22368789 1.7060001
0.14813766 0.22368789 1.7060001
0.15554456 0.22368789 1.7060001
0.16295144 0.22368789 1.7060001
0.17628382 0.2222065 1.7060001
0.1910976 0.22072513 1.7060001
0.20591137 0.22072513 1.7060001
0.21479963 0.22368789 1.7060001
0.22813201 0.22368789 1.7060001
0.23850165 0.22072513 1.7060001
0.25775954 0.22072513 1.7060001
0.26516643 0.22072515 1.7060001
0.28738707 0.22072513 1.7060001
-0.8014248 0.23850165 1.7060001
-0.79846203 0.23850165 1.7060001
-0.9228977 0.24738991 1.7060001
-0.91993493 0.24738991 1.7060001
-0.8858633 0.24442716 1.7060001
-0.8577171 0.24146441 1.7060001
-0.83549643 0.24294579 1.7060001
-0.8117944 0.24294579 1.7060001
-0.80438757 0.24146441 1.7060001
-0.79549927 0.24294578 1.7060001
-0.78661102 0.24442716 1.7060001
-0.93178594 0.25035265 1.7060001
-0.92882317 0.25035265 1.7060001
0.88507628 0.18614897 1.715
0.8979826 0.18614896 1.715
0.90542853 0.18912734 1.715
0.91734207 0.18912734 1.715
0.93819082 0.18912734 1.715
0.94265836 0.18912734 1.715
0.47207376 0.19806249 1.715
0.49887922 0.19806249 1.715
0.5167495 0.19806249 1.715
0.54653335 0.19806249 1.715
0.55695772 0.19806249 1.715
0.56440371 0.19806251 1.715
0.58525234 0.19806251 1.715
0.5941875 0.19806251 1.715
0.60411549 0.19508412 1.715
0.61205781 0.19508411 1.715
0.62397134 0.19433951 1.715
0.63439572 0.19806249 1.715
0.65673357 0.19210573 1.715
0.66417944 0.19210573 1.715
0.67609298 0.1965733 1.715
0.68155336 0.19607691 1.715
0.70587683 0.19806249 1.715
0.71779037 0.19210573 1.715
0.92478806 0.19210573 1.715
0.93223405 0.19210573 1.715
0.40729392 0.20923144 1.715
0.41548452 0.20749405 1.715
0.42144126 0.20401926 1.715
0.43335479 0.20104088 1.715
0.46164942 0.20104088 1.715
0.52419543 0.20104088 1.715
0.53461981 0.20104088 1.715
0.54206574 0.20104088 1.715
0.57631719 0.20104088 1.715
0.10573261 0.21891119 1.715
0.19359492 0.21742199 1.715
0.20104088 0.21891119 1.715
0.24720582 0.21891119 1.715
0.29535636 0.2189112 1.715
0.30826268 0.21891119 1.715
0.31421944 0.21891119 1.715
0.32613298 0.2189112 1.715
0.33506814 0.21891119 1.715
0.35740602 0.2159328 1.715
0.37974387 0.2159328 1.715
0.38570064 0.21593282 1.715
0.39523149 0.2159328 1.715
0.40158534 0.21394722 1.715
0.084883928 0.22784632 1.715
0.096797459 0.22188959 1.715
0.10275423 0.22188957 1.715
0.11764614 0.22188957 1.715
0.1265813 0.22188957 1.715
0.14147322 0.22188957 1.715
0.15785432 0.22188957 1.715
0.16530028 0.22188959 1.715
0.17423543 0.22188959 1.715
0.18317059 0.22188957 1.715
0.20997603 0.22188957 1.715
0.21295442 0.22188957 1.715
0.22337876 0.22486795 1.715
0.23529229 0.22188957 1.715
0.27401128 0.22188957 1.715
0.28294644 0.22188957 1.715
-0.81458789 0.23975986 1.715
0.081905544 0.23082471 1.715
-0.93223405 0.24869502 1.715
-0.89649343 0.24571663 1.715
-0.88904744 0.24273825 1.715
-0.83543652 0.24273825 1.715
-0.82501221 0.24273825 1.715
-0.81756628 0.24273825 1.715
-0.80863112 0.24273825 1.715
