# .PCD v0.7 - Point Cloud Data file format
VERSION 0.7
FIELDS x y z
SIZE 4 4 4
TYPE F F F
COUNT 1 1 1
WIDTH 1401
HEIGHT 1
VIEWPOINT 0 0 0 1 0 0 0
POINTS 1401
DATA ascii
-0.20315498 -0.36307111 0.90100008
-0.19483989 -0.36464143 0.90114343
-0.1847408 -0.36504352 0.905837
-0.17687489 -0.36689052 0.90800011
-0.21045709 -0.35363048 0.90100002
-0.20435882 -0.35482824 0.90106297
-0.19515444 -0.355196 0.9034707
-0.18515757 -0.3552801 0.90702432
-0.1789774 -0.35716635 0.90800005
-0.21045709 -0.34033024 0.90100002
-0.2044939 -0.34474558 0.90137875
-0.19514433 -0.34527066 0.90600026
-0.18572176 -0.34663576 0.9074831
-0.21241303 -0.3351666 0.90100002
-0.20440893 -0.33465818 0.90268087
-0.1946675 -0.33486721 0.90706038
-0.18843876 -0.33508986 0.90800011
-0.21068063 -0.32602412 0.90100008
-0.20471156 -0.32510889 0.90346348
-0.19523486 -0.32555935 0.90753168
-0.18843876 -0.32720539 0.90800011
-0.22141024 -0.31998867 0.90100002
-0.21284537 -0.3143062 0.90099996
-0.20468384 -0.31509098 0.90256542
-0.19532299 -0.31505793 0.90684247
-0.22141024 -0.30434129 0.90100002
-0.21425958 -0.30489704 0.90124285
-0.20492022 -0.30524018 0.90436184
-0.19607198 -0.30565539 0.90791225
-0.21316928 -0.29542229 0.90100038
-0.20501187 -0.29506272 0.90361905
-0.19504492 -0.29453778 0.90784264
-0.18714857 -0.29337385 0.90800011
-0.21264772 -0.28572097 0.90100002
-0.20470114 -0.28551582 0.90372103
-0.19473927 -0.28506622 0.90687531
-0.18581519 -0.28533897 0.90757185
-0.20371215 -0.27600113 0.90148294
-0.19448471 -0.2749235 0.90589607
-0.18666475 -0.27378812 0.90800005
-0.20328538 -0.26502728 0.9010002
-0.19487193 -0.26483041 0.90389609
-0.18654664 -0.26502156 0.90786391
-0.21045709 -0.25270498 0.90100002
-0.20331511 -0.25463867 0.90204769
-0.19514132 -0.25535735 0.90549994
-0.18600777 -0.25565383 0.90800035
-0.21269244 -0.24275775 0.90100008
-0.20457593 -0.24360976 0.90148294
-0.19481507 -0.2449825 0.90432668
-0.18683457 -0.24544567 0.90786988
-0.21045709 -0.23079866 0.90100002
-0.20442139 -0.23473294 0.90136397
-0.19505383 -0.23517033 0.90579671
-0.18765032 -0.23771667 0.90800005
-0.21287428 -0.22406581 0.90130007
-0.20479161 -0.22499412 0.90363842
-0.19468521 -0.22542576 0.90771478
-0.18686187 -0.22365607 0.90800011
-0.222975 -0.21182624 0.90100002
-0.21526852 -0.21507359 0.90108389
-0.20473571 -0.21492717 0.90388393
-0.19512725 -0.21625631 0.90759504
-0.1875377 -0.21772394 0.90800011
-0.22451964 -0.20466119 0.90113819
-0.21516396 -0.20492579 0.90237802
-0.20547011 -0.20557687 0.90568215
-0.19860096 -0.20613499 0.90800011
-0.2472284 -0.19011551 0.90100002
-0.23366161 -0.19309385 0.90206921
-0.22495981 -0.19494094 0.90348953
-0.21512596 -0.19497058 0.90588713
-0.20758675 -0.19643584 0.90800011
-0.25248146 -0.18184477 0.90100008
-0.24504603 -0.18426834 0.9010005
-0.23440669 -0.18452384 0.90326703
-0.2249129 -0.18458827 0.90638489
-0.21644215 -0.18539378 0.90800041
-0.26131102 -0.17133868 0.90100002
-0.2542074 -0.17411149 0.90173185
-0.24490201 -0.17503983 0.90397835
-0.23575278 -0.17586267 0.90624362
-0.22673477 -0.17751315 0.90800011
-0.21997663 -0.1789774 0.90800005
-0.28399971 -0.16116787 0.90100002
-0.27461433 -0.16278461 0.9028573
-0.26474237 -0.16475442 0.9042713
-0.25520945 -0.16483352 0.90627944
-0.24593355 -0.16660823 0.90727621
-0.23837373 -0.16899042 0.90800011
-0.38179576 -0.15099709 0.90100002
-0.37527603 -0.15099709 0.90100002
-0.34033024 -0.15099709 0.90100002
-0.3343426 -0.1514688 0.90238458
-0.32494029 -0.152458 0.90171438
-0.31482235 -0.15216449 0.90190011
-0.30504471 -0.1533028 0.90283352
-0.29474196 -0.15404093 0.90415806
-0.28549179 -0.15675417 0.90541953
-0.27655295 -0.15798238 0.90676469
-0.26728344 -0.15847778 0.90800005
-0.39361879 -0.14592654 0.90300012
-0.38550016 -0.14709717 0.90314299
-0.37449032 -0.14845385 0.90458822
-0.36495602 -0.14735064 0.90369582
-0.35490268 -0.146079 0.90408343
-0.34531063 -0.1469319 0.90418547
-0.33492687 -0.14752193 0.90592319
-0.32468399 -0.14791216 0.90477288
-0.31545481 -0.14755416 0.90524006
-0.3054781 -0.14826396 0.90690911
-0.2988213 -0.14901643 0.90800005
-0.12155018 0.18752924 0.90700012
-0.11485182 0.18613744 0.90593779
-0.10839589 0.18748273 0.90677792
-0.092490092 0.18812616 0.90650004
-0.12441137 0.19526321 0.90596461
-0.11507744 0.19492348 0.90153098
-0.10533194 0.19537479 0.9046669
-0.09200158 0.19436321 0.90778577
-0.088309929 0.19231933 0.90400004
-0.13009372 0.20736149 0.90800011
-0.12494437 0.2050883 0.90493959
-0.11504611 0.20504555 0.90128618
-0.10428417 0.20491411 0.90304679
-0.097233251 0.20658498 0.90762502
-0.089094475 0.2010539 0.90800005
-0.13009371 0.21918818 0.90800005
-0.12508555 0.21519595 0.90522599
-0.11515906 0.21512389 0.90217417
-0.10490854 0.21503356 0.90320528
-0.097869076 0.21473691 0.90733337
-0.085278153 0.2198455 0.90100002
-0.13009371 0.22549576 0.90800011
-0.12470213 0.22505271 0.90421236
-0.11503083 0.22500038 0.90117836
-0.10482837 0.22473432 0.90209782
-0.09630882 0.22589801 0.90742344
-0.087094091 0.22489502 0.90242863
-0.13009372 0.23259179 0.90800011
-0.12476734 0.23492973 0.90528595
-0.11496215 0.23475669 0.90153688
-0.10448283 0.23493595 0.90442508
-0.098293021 0.23364304 0.90800011
-0.088306025 0.23101488 0.90800005
-0.12252462 0.24173775 0.90800011
-0.11474936 0.24509805 0.9072004
-0.10718522 0.24502964 0.9073481
0.33638105 0.25953877 0.90300006
0.34566379 0.25901145 0.90390009
0.35366568 0.25881121 0.90430003
0.36544219 0.25872731 0.90531242
0.37400579 0.25838646 0.90373337
0.3897002 0.25953877 0.90300006
0.3961747 0.25757027 0.90478951
0.40528613 0.25833735 0.90658331
0.41628054 0.25630239 0.90718192
0.49750987 0.25703362 0.90800005
-0.10405499 0.26991707 0.90100002
-0.086060524 0.26991707 0.90100002
-0.053497583 0.26856568 0.90329999
-0.047236279 0.26907247 0.90166664
-0.011772575 0.26966816 0.90366668
-0.0013110386 0.26890215 0.90550005
0.0047132173 0.2691454 0.90455556
0.014423219 0.26756003 0.90361542
0.025263293 0.26692674 0.90360004
0.034483816 0.26789692 0.90382355
0.044782683 0.26949942 0.90485728
0.05579289 0.26802784 0.90631586
0.064503543 0.26814955 0.90593749
0.073721796 0.26707378 0.90433335
0.089060031 0.26665854 0.90233338
0.094530568 0.26609576 0.9031539
0.10620274 0.26668364 0.90375006
0.11450927 0.26642349 0.90366668
0.12456199 0.26584333 0.90464288
0.13563611 0.26624072 0.90500003
0.14417727 0.2666986 0.90450007
0.15470704 0.26625317 0.90450001
0.16118656 0.26536617 0.90549999
0.17750035 0.2652663 0.90650004
0.18455002 0.26506805 0.90500003
0.19480705 0.2658169 0.90525001
0.20604289 0.26480076 0.90525001
0.21463914 0.26458818 0.9041875
0.22488889 0.26403528 0.90421426
0.23533599 0.26462922 0.90464711
0.24512236 0.26446941 0.90463156
0.25409725 0.26435283 0.90464699
0.2639091 0.26234058 0.90381813
0.27665821 0.26315439 0.90529412
0.28475618 0.26236665 0.90465003
0.29557192 0.26294249 0.90392864
0.30499896 0.26355955 0.90438473
0.31713933 0.26235813 0.90500009
0.32595652 0.26231274 0.9049167
0.33424821 0.26111946 0.90421426
0.34501228 0.26044565 0.90179998
0.35519898 0.26045951 0.90166664
0.36511248 0.26045948 0.90166676
0.37866628 0.26052865 0.90100002
0.38506499 0.26058087 0.90390009
0.39979023 0.26052865 0.90100002
0.40574217 0.26055247 0.90380001
0.41319969 0.26115322 0.90725005
-0.49593297 0.27989858 0.90800005
-0.45338956 0.27797028 0.90430003
-0.44616279 0.278045 0.90262502
-0.4358525 0.27548105 0.9018001
-0.42427155 0.27396393 0.90316671
-0.41440588 0.27593011 0.90453845
-0.40530524 0.27635559 0.90458339
-0.39418647 0.27584913 0.90609998
-0.38569385 0.27495396 0.90341663
-0.37619197 0.27488959 0.90450001
-0.36449149 0.27401313 0.90271437
-0.35492218 0.27463207 0.9038462
-0.34538847 0.27583742 0.9040001
-0.3351821 0.2751314 0.90400004
-0.32563147 0.27402553 0.90320009
-0.31500256 0.27370319 0.90316671
-0.30555543 0.27448606 0.90575004
-0.29635438 0.2738547 0.90366668
-0.28399971 0.27461129 0.90100002
-0.27572906 0.27494061 0.90725005
-0.25412166 0.27415684 0.90499997
-0.24542448 0.27451494 0.90438098
-0.23500752 0.2739248 0.90364999
-0.22596113 0.27391797 0.90356249
-0.21604115 0.27414373 0.90423071
-0.20492406 0.27464327 0.90420002
-0.19544494 0.27419582 0.90527278
-0.18460363 0.27411348 0.90426326
-0.17521536 0.2736845 0.90380007
-0.1646214 0.27524465 0.90566671
-0.15343449 0.27533787 0.90511119
-0.14462376 0.27285346 0.90336841
-0.13423769 0.27187988 0.90406674
-0.12507875 0.27192563 0.90312511
-0.11519744 0.27341023 0.90740007
-0.10574043 0.27178311 0.90200007
-0.09522821 0.27189064 0.90340006
-0.084533557 0.27086374 0.9041667
-0.074839912 0.27153513 0.90466678
-0.064821959 0.27169567 0.90379995
-0.05589382 0.27150059 0.90292859
-0.041873146 0.27111244 0.90500009
-0.034233373 0.2711522 0.90392309
-0.024710702 0.27151287 0.90409523
-0.01574176 0.27083376 0.90376467
-0.0057369452 0.270789 0.90392309
0.047958486 0.27047673 0.90550005
-0.49223477 0.28116545 0.90700006
-0.48741549 0.28087026 0.90100002
-0.47532821 0.28170463 0.90570003
-0.4686074 0.28116548 0.90700006
-0.45455605 0.28087026 0.90100002
-0.44658822 0.28141728 0.90150005
-0.17146979 -0.37138617 0.91000003
-0.16487326 -0.37161461 0.91158825
-0.15485553 -0.37253952 0.91574997
-0.17414954 -0.36420578 0.90999997
-0.16527523 -0.36472565 0.91237491
-0.15661497 -0.36572936 0.91651726
-0.17468566 -0.3549504 0.91136134
-0.16466489 -0.35512772 0.91485733
-0.15765983 -0.35513276 0.91699994
-0.18328398 -0.34270558 0.91126311
-0.1754258 -0.34500524 0.91364592
-0.16612396 -0.34573147 0.91674995
-0.15845607 -0.34876263 0.91700006
-0.18464434 -0.33476001 0.91020679
-0.17491129 -0.33489808 0.91278958
-0.16797821 -0.33449182 0.91636837
-0.19187088 -0.32217932 0.90999997
-0.18466082 -0.32463056 0.91030771
-0.1751571 -0.32507095 0.91277546
-0.16850121 -0.3255485 0.91699994
-0.19043419 -0.31370279 0.91000003
-0.18510304 -0.31483904 0.91100007
-0.17556867 -0.31522262 0.91472733
-0.16960375 -0.31770843 0.91700006
-0.19224031 -0.30410776 0.90999997
-0.18460324 -0.30500278 0.9119069
-0.17559697 -0.30507284 0.91620928
-0.16880748 -0.3017832 0.917
-0.19201458 -0.29829422 0.91000003
-0.18327247 -0.295811 0.9126668
-0.17510714 -0.29447183 0.91608131
-0.16846623 -0.29416186 0.91699994
-0.18248986 -0.28423998 0.91035712
-0.1752066 -0.28445539 0.91471833
-0.166595 -0.2850053 0.91691983
-0.18372834 -0.27620623 0.91095448
-0.1752343 -0.27497733 0.91336584
-0.16577315 -0.27487588 0.91666663
-0.15845607 -0.27152523 0.91700006
-0.18221629 -0.26534358 0.90999997
-0.17509814 -0.26515177 0.91227919
-0.16465472 -0.26511815 0.91647625
-0.15750057 -0.26372188 0.91699994
-0.18189766 -0.25494996 0.91021425
-0.17534313 -0.25510129 0.91320825
-0.16485742 -0.25500348 0.91562247
-0.15800107 -0.25628251 0.917
-0.18282175 -0.24468338 0.91104996
-0.17531891 -0.24460751 0.91322201
-0.16476938 -0.24495547 0.91626841
-0.15686356 -0.24126729 0.91700006
-0.18466286 -0.23493434 0.91096765
-0.17534189 -0.23484755 0.91371441
-0.16451664 -0.23490375 0.91623408
-0.15723106 -0.23538722 0.91699994
-0.18417238 -0.22575115 0.91029996
-0.1753196 -0.22508508 0.91469562
-0.1654267 -0.22509186 0.91615808
-0.15845607 -0.22773084 0.91700006
-0.19372663 -0.21229593 0.90999997
-0.1843888 -0.21427724 0.9101817
-0.17584765 -0.21495351 0.91526663
-0.16850121 -0.21480691 0.91699994
-0.20307712 -0.20149677 0.91000003
-0.19395955 -0.20485535 0.91069436
-0.18493198 -0.20531662 0.91388923
-0.17508063 -0.20532295 0.91649997
-0.16846623 -0.20759682 0.917
-0.21097896 -0.19043419 0.91000003
-0.20393358 -0.19423755 0.91029996
-0.19527294 -0.19544798 0.91412711
-0.18506439 -0.19576767 0.91688877
-0.1762663 -0.19813395 0.9168666
-0.21264264 -0.18271165 0.91215789
-0.20505594 -0.18506116 0.91366673
-0.19666649 -0.18558277 0.91642857
-0.18775852 -0.18744001 0.917
-0.23336749 -0.17199658 0.91000003
-0.2242128 -0.17378186 0.91041374
-0.21571769 -0.17541927 0.91488636
-0.20526719 -0.17654859 0.91667998
-0.19917919 -0.17711136 0.917
-0.2710329 -0.16040722 0.91000003
-0.26234087 -0.16040722 0.91000003
-0.25127831 -0.16040722 0.91000003
-0.24361788 -0.16242471 0.91130435
-0.23531978 -0.16496132 0.91359073
-0.22555201 -0.16701266 0.9143157
-0.21844113 -0.1677458 0.917
-0.29157767 -0.1517152 0.91000003
-0.28441951 -0.15222649 0.90999991
-0.27450788 -0.15335721 0.91222233
-0.26508296 -0.15463193 0.91327274
-0.25529304 -0.15630278 0.91428584
-0.24590723 -0.15786645 0.91590005
-0.39090458 -0.14380902 0.91500008
-0.38473341 -0.14608663 0.91435719
-0.37517151 -0.144043 0.91441673
-0.36533764 -0.14269069 0.91317391
-0.3550722 -0.14183448 0.91199994
-0.34440985 -0.14241628 0.91179991
-0.33478475 -0.14243241 0.91129172
-0.325268 -0.14312316 0.91310358
-0.31463766 -0.14307286 0.91329163
-0.30456311 -0.14474219 0.91348386
-0.29532397 -0.14646834 0.91282767
-0.28553015 -0.14798428 0.91300011
-0.27687007 -0.14857922 0.91624999
-0.2683402 -0.14890094 0.91700006
-0.37105796 -0.13934579 0.91700006
-0.36498633 -0.13890967 0.91674995
-0.35427624 -0.13807543 0.91649997
-0.34527057 -0.13779801 0.91605878
-0.33594471 -0.1388337 0.91624999
-0.32089347 -0.13934579 0.91700006
-0.11437204 0.1791063 0.91557139
-0.1082916 0.17915888 0.91700006
-0.13128766 0.18857567 0.91633338
-0.12525535 0.18492976 0.91378576
-0.1149142 0.18138492 0.91268754
-0.10450703 0.18421003 0.91247505
-0.097115777 0.18634653 0.91276473
-0.13302292 0.19585837 0.9138
-0.12840903 0.19300732 0.91042858
-0.10123127 0.19271696 0.90999997
-0.096463159 0.19572233 0.90999997
-0.13507155 0.20485719 0.91276479
-0.093699113 0.20399207 0.90999997
-0.089290716 0.20307712 0.91000003
-0.13439485 0.21459553 0.91135293
-0.093948148 0.21614695 0.91121733
-0.089585081 0.2180168 0.91300005
-0.13404018 0.22484075 0.91104352
-0.093433872 0.22445245 0.91016662
-0.088368438 0.22075081 0.91214287
-0.1326713 0.23474127 0.91125
-0.12879989 0.23942555 0.91000003
-0.094899364 0.23527698 0.9114545
-0.089781329 0.23438488 0.91500002
-0.13269837 0.24367711 0.91592306
-0.12601317 0.24571024 0.91317391
-0.11931769 0.24732739 0.91000003
-0.10256304 0.24519743 0.91186666
-0.097580053 0.24286069 0.91550004
-0.1248173 0.25311169 0.91678941
-0.10431027 0.25161868 0.91700006
0.33590466 0.25991678 0.91166675
0.34385112 0.25972176 0.91400003
0.35682753 0.25925085 0.91360009
0.36424595 0.25843158 0.91350001
0.37402055 0.2580626 0.91220009
0.386318 0.25925365 0.91380006
0.39382207 0.25781405 0.91462499
0.40761262 0.2572329 0.91150004
0.41521379 0.25665459 0.91254997
0.49811599 0.25515282 0.912
0.50168395 0.25502613 0.91433334
-0.13512136 0.26945251 0.91000003
-0.074052334 0.26993272 0.91700006
-0.064064763 0.26918834 0.91649997
-0.057610992 0.26898113 0.91512501
-0.043262541 0.26912019 0.91425002
-0.034944341 0.26924586 0.91466665
-0.024927309 0.26863155 0.91335714
-0.015194748 0.26884499 0.91499996
-0.0058166757 0.26911676 0.91333336
0.0047552828 0.26809734 0.91166675
0.014932367 0.26763722 0.91324997
0.025799487 0.26645118 0.91416669
0.035432596 0.26652557 0.91400003
0.044804681 0.26803619 0.91424
0.054005008 0.26671803 0.9145714
0.06456425 0.26695928 0.91288882
0.075451769 0.26750201 0.91463637
0.085082032 0.26853046 0.91571432
0.095254615 0.26656708 0.91420001
0.10521548 0.26558891 0.91333324
0.11477042 0.26612949 0.91446161
0.12561457 0.26498234 0.91366667
0.13503295 0.26569498 0.91543746
0.14524657 0.26566589 0.91407138
0.15465745 0.26614752 0.91494447
0.16507947 0.26590958 0.9159444
0.17409368 0.26507112 0.91425002
0.1862883 0.26432401 0.91363639
0.19541097 0.26525643 0.91406667
0.20502664 0.26383299 0.91353339
0.21522205 0.26282367 0.91374993
0.2234219 0.26310065 0.91393328
0.23525779 0.26353818 0.91390908
0.24470523 0.26308838 0.91341174
0.25511464 0.26267272 0.91358823
0.26556119 0.26264891 0.91475004
0.27411279 0.26239821 0.91338462
0.28777263 0.26206335 0.91400003
0.29539889 0.26217985 0.9145
0.3055023 0.26264095 0.91411102
0.3147797 0.26246226 0.91456246
0.32509592 0.26152036 0.91404992
0.33452719 0.26084453 0.91509092
0.34268746 0.26052752 0.91566676
0.38703656 0.26118904 0.91150004
-0.50084859 0.27948785 0.91700006
-0.49866387 0.2798543 0.91300005
-0.48014581 0.27948785 0.91700006
-0.47432077 0.27913755 0.9158572
-0.46234092 0.27920362 0.91433334
-0.45467421 0.27836585 0.91462505
-0.4458451 0.27815753 0.91525
-0.43414423 0.27587855 0.913625
-0.42379895 0.27570018 0.91499996
-0.4150365 0.27553213 0.91412497
-0.40477556 0.27495462 0.9133684
-0.39618596 0.27505323 0.91407698
-0.38418615 0.27603841 0.91350001
-0.37502944 0.27572235 0.91349995
-0.36650613 0.2751554 0.91320008
-0.3546989 0.27581167 0.91537499
-0.3438541 0.2748276 0.91370004
-0.33512536 0.27475151 0.9132666
-0.32548174 0.27527514 0.91425002
-0.31452146 0.27547985 0.91544449
-0.30523294 0.27481809 0.91383332
-0.29365811 0.27582833 0.91542864
-0.2845667 0.27514037 0.91381246
-0.27484939 0.27431953 0.91419047
-0.26598656 0.27458346 0.91352636
-0.25526747 0.27237907 0.91239995
-0.24481523 0.27254328 0.9124167
-0.23603529 0.27220359 0.91216671
-0.22416662 0.27387524 0.91333342
-0.2144765 0.274589 0.91413337
-0.20463207 0.27424499 0.91423076
-0.19444589 0.27319011 0.91399997
-0.18595329 0.27212867 0.91292864
-0.1743276 0.27304161 0.91257143
-0.16495052 0.2735984 0.91330004
-0.15532026 0.27387887 0.91284198
-0.14527236 0.271817 0.91346157
-0.13482311 0.27144748 0.91381824
-0.12455766 0.27278388 0.91366667
-0.11506206 0.27315313 0.91384619
-0.10505166 0.27353403 0.91519994
-0.095075808 0.27262083 0.91457146
-0.084545672 0.2710861 0.91309088
-0.074508034 0.27091381 0.91280001
-0.064926147 0.27078557 0.91183341
-0.059459127 0.27034083 0.91300005
-0.043279823 0.27059767 0.91280001
-0.035161424 0.27067685 0.912
-0.026535615 0.27051383 0.91225004
-0.014745863 0.27034083 0.91300005
-0.006078044 0.27034086 0.91300005
0.046774514 0.27034083 0.91300005
-0.49444872 0.28168136 0.91430008
-0.48520634 0.28242069 0.91500002
-0.47597504 0.28133115 0.91420001
-0.46726921 0.28142944 0.91390914
-0.15098581 -0.37147301 0.92000002
-0.14482716 -0.37414375 0.92241198
-0.13538006 -0.3750563 0.92641169
-0.12798625 -0.37751922 0.92700005
-0.15248956 -0.36386028 0.92000002
-0.14498395 -0.3649728 0.92293781
-0.13761026 -0.36596704 0.92676479
-0.15328929 -0.35478193 0.92281836
-0.14559603 -0.35562521 0.92638707
-0.13845056 -0.35484657 0.92700005
-0.1624307 -0.34358111 0.92052633
-0.15473111 -0.34475964 0.92265928
-0.14575467 -0.34526181 0.92700005
-0.13810559 -0.34601137 0.92700011
-0.16308661 -0.33483258 0.92086971
-0.1546485 -0.33471557 0.92382979
-0.14679654 -0.33422163 0.92700005
-0.16403091 -0.32445547 0.92012131
-0.15470494 -0.32465169 0.92315382
-0.14719765 -0.32560632 0.926889
-0.17047817 -0.31267643 0.92000002
-0.16456655 -0.31475347 0.91999996
-0.15463626 -0.31460941 0.92158514
-0.14831594 -0.31570357 0.92614293
-0.17055805 -0.3079631 0.92000002
-0.16414179 -0.30524099 0.92057157
-0.15490964 -0.30508929 0.92313057
-0.14570817 -0.30419677 0.92667997
-0.13925549 -0.30386671 0.92700005
-0.16377376 -0.29564327 0.92038465
-0.15480159 -0.29518121 0.92169726
-0.1451735 -0.29489565 0.92525005
-0.13925551 -0.2946099 0.92700005
-0.16272916 -0.28519544 0.92000002
-0.15513372 -0.28518426 0.92034125
-0.14551838 -0.28499302 0.9252221
-0.13694566 -0.28477556 0.92700005
-0.1629688 -0.27534273 0.92000002
-0.15436526 -0.27510557 0.92112505
-0.14475735 -0.27490494 0.92518896
-0.13698703 -0.27565709 0.92700005
-0.15368311 -0.26527616 0.9207859
-0.14535573 -0.26524732 0.9248569
-0.13761221 -0.265569 0.92677784
-0.16216993 -0.25084412 0.92000002
-0.15444671 -0.25435773 0.92047077
-0.14488038 -0.25460899 0.92253518
-0.13617055 -0.25454956 0.92621863
-0.15486813 -0.24468857 0.92017657
-0.14536616 -0.24495961 0.924936
-0.13663942 -0.24530701 0.92700005
-0.15320632 -0.23438615 0.92055553
-0.14530829 -0.23497568 0.92610019
-0.13752177 -0.23386753 0.92700011
-0.16190365 -0.22235124 0.92000002
-0.15464406 -0.2251052 0.92031425
-0.14533478 -0.22503713 0.92548794
-0.13700163 -0.22522362 0.92700005
-0.16369198 -0.21511677 0.92012131
-0.15488838 -0.21523558 0.9223696
-0.14642781 -0.21585852 0.92603445
-0.13925549 -0.2181401 0.92700005
-0.17055805 -0.20171383 0.92000002
-0.16460349 -0.20463103 0.92085737
-0.15501258 -0.20508601 0.92477793
-0.14891483 -0.20461702 0.92700005
-0.19172801 -0.19092914 0.92000002
-0.18320677 -0.19146174 0.92000002
-0.17434958 -0.19402669 0.92025006
-0.16481102 -0.19464312 0.92348915
-0.15768299 -0.19638002 0.92650002
-0.14891483 -0.19882143 0.92700005
-0.19284643 -0.18389912 0.92000008
-0.18441555 -0.18445478 0.92159981
-0.17510624 -0.18545651 0.92370462
-0.16546229 -0.1859417 0.92651522
-0.21223226 -0.17122377 0.91999996
-0.20455685 -0.17166235 0.92000002
-0.19458058 -0.1749149 0.9221862
-0.18533592 -0.17561187 0.92539996
-0.17751405 -0.17666174 0.92700005
-0.2324702 -0.1612113 0.92000002
-0.22480108 -0.16185039 0.92000008
-0.21434562 -0.16415828 0.9213413
-0.20516388 -0.16579503 0.92471433
-0.19710371 -0.16841051 0.92650008
-0.1846544 -0.16919947 0.92700005
-0.17950274 -0.16984341 0.92700005
-0.26202828 -0.15098581 0.92000002
-0.2536726 -0.15175092 0.92123538
-0.24447154 -0.15323587 0.92309088
-0.2351615 -0.15470274 0.92246324
-0.22567455 -0.15594624 0.92383802
-0.21644919 -0.15807478 0.92557895
-0.39257133 -0.14219147 0.92516679
-0.38546246 -0.14245522 0.92142868
-0.37866282 -0.1413994 0.92000002
-0.31235689 -0.14139941 0.92000002
-0.30415148 -0.14088188 0.92080003
-0.29449779 -0.14228192 0.92304355
-0.28467187 -0.14358377 0.92381263
-0.27470353 -0.14442776 0.92352784
-0.26546782 -0.14595971 0.92348647
-0.25606251 -0.1477505 0.92522728
-0.24550824 -0.14891483 0.92700005
-0.39160573 -0.13804808 0.92700005
-0.38357422 -0.13693368 0.92220008
-0.37589908 -0.13768539 0.92094117
-0.36488238 -0.13760479 0.92000002
-0.35513449 -0.13613886 0.92044449
-0.34372801 -0.13598023 0.92177784
-0.33414012 -0.13600323 0.92316675
-0.32537559 -0.13697925 0.9228788
-0.31514686 -0.1379226 0.92349994
-0.30528674 -0.13744529 0.92484617
-0.29583302 -0.13874249 0.92680007
-0.28495055 -0.13925551 0.92700005
-0.13308424 0.1789661 0.92700005
-0.12471439 0.17863615 0.92420012
-0.1146438 0.177494 0.92326677
-0.10780346 0.17799062 0.92157149
-0.14086539 0.18916208 0.92700005
-0.13480647 0.18486677 0.92440629
-0.12749673 0.18153463 0.92200005
-0.14134592 0.19600505 0.92575014
-0.13765442 0.1936956 0.922077
-0.14216788 0.20160529 0.92500007
-0.13980167 0.20051554 0.92000002
-0.091168925 0.23832105 0.92100006
-0.08905974 0.23829326 0.92400014
-0.1342096 0.24844754 0.92000002
-0.093698665 0.24562237 0.92117888
-0.087977566 0.24425215 0.92336369
-0.13287 0.25461435 0.92127275
-0.12705436 0.25812408 0.92260009
-0.1022137 0.25514388 0.92347068
-0.094953544 0.25494257 0.92457587
-0.089348897 0.25838736 0.92700005
0.19721155 0.25999725 0.92700005
0.30829394 0.25999725 0.92700005
0.31502426 0.25984281 0.92550009
0.32645303 0.25962806 0.92242867
0.33520269 0.25981444 0.92350006
0.34482005 0.25967109 0.92512506
0.35500866 0.25901026 0.92540008
0.36333644 0.25842065 0.92233342
0.37657022 0.25901315 0.92350006
0.38411164 0.25858444 0.92273343
0.39542797 0.25759646 0.92288899
0.40457684 0.25758848 0.92300004
0.4148519 0.25773829 0.92410004
0.42098624 0.25516757 0.92700005
0.50593251 0.2525619 0.92220002
-0.44433486 0.26820213 0.92200005
-0.13378356 0.26634228 0.92691314
-0.12841365 0.26471403 0.9266001
-0.10061813 0.26965657 0.92700005
-0.075858906 0.26972994 0.92449999
-0.066033714 0.26872897 0.92175007
-0.059116136 0.26762035 0.92000002
-0.04293409 0.26925606 0.92425007
-0.035447866 0.26938251 0.92262506
-0.026399506 0.268226 0.92116678
-0.014841221 0.26748374 0.922077
-0.007217587 0.2690109 0.92400008
0.0058474806 0.2694487 0.92471439
0.013915332 0.26870954 0.92466676
0.024857886 0.26687109 0.92362505
0.03417109 0.26735508 0.92600006
0.04570603 0.26639137 0.92350006
0.053377416 0.2665154 0.92355561
0.065775275 0.26700392 0.92375004
0.075497024 0.26611769 0.92395002
0.085014075 0.26626366 0.92362487
0.094288446 0.26596785 0.92323089
0.10360587 0.26555952 0.92333341
0.11596835 0.26513591 0.92360008
0.12434323 0.26518694 0.92385727
0.13493995 0.2649017 0.92390007
0.14588304 0.26465404 0.92500007
0.15385392 0.26453596 0.92469233
0.16526522 0.26356369 0.92500007
0.17443289 0.2636537 0.92376935
0.18518241 0.26496759 0.92500007
0.1951071 0.26308075 0.92370856
0.20439503 0.26302099 0.92350006
0.21389718 0.26269996 0.92357159
0.22878818 0.26456004 0.92233342
0.23480269 0.26335543 0.92373341
0.24527083 0.26236919 0.92308342
0.2546955 0.26218534 0.92400008
0.264947 0.26246622 0.92436367
0.27465883 0.26274055 0.9237144
0.28614372 0.26270375 0.92346168
0.2953451 0.26130334 0.92330784
0.30560219 0.26121011 0.92235726
0.31471816 0.26079741 0.92130005
0.32175463 0.2609244 0.92175007
0.33572179 0.26040775 0.92275012
0.34538031 0.26019609 0.92200005
0.35413358 0.26019609 0.92200011
-0.50148076 0.27931592 0.92700005
-0.4942925 0.27889237 0.92560005
-0.48447335 0.2777299 0.92322236
-0.47554958 0.27792105 0.92300004
-0.46445808 0.27815101 0.92481256
-0.45540985 0.27602226 0.92390007
-0.4450849 0.27618113 0.92370832
-0.43435037 0.27593374 0.92607152
-0.42518064 0.2749964 0.92260009
-0.41487578 0.27399945 0.92320007
-0.40468708 0.27389383 0.92254555
-0.39460701 0.27523318 0.92343754
-0.38516581 0.27662492 0.92492872
-0.37482926 0.27464223 0.92375004
-0.36476058 0.27595636 0.92385
-0.35505095 0.27457538 0.92325008
-0.34695974 0.27453032 0.92175007
-0.33511594 0.27396703 0.92356259
-0.32477829 0.27550101 0.92385727
-0.31540927 0.27376038 0.92404777
-0.30498698 0.27343005 0.92385185
-0.29541773 0.27418512 0.92376477
-0.28593239 0.27378154 0.92385727
-0.27526218 0.27249041 0.92272735
-0.26585454 0.27299288 0.9224546
-0.25399077 0.27278367 0.92124999
-0.24397145 0.27276888 0.9212001
-0.23271704 0.27572298 0.92575008
-0.22542602 0.27474844 0.9253847
-0.2144534 0.27405536 0.92309093
-0.20414509 0.27376804 0.92277783
-0.19480537 0.27170879 0.92254555
-0.18393299 0.27355641 0.92385727
-0.1729707 0.27393571 0.92650008
-0.16510317 0.27249849 0.92300004
-0.15496902 0.27195734 0.92280012
-0.14516668 0.27175954 0.92366672
-0.1347103 0.271826 0.9255386
-0.12514322 0.27194017 0.92383343
-0.11509388 0.27209598 0.92405564
-0.10505482 0.27217743 0.92355007
-0.096997425 0.27179495 0.92100012
-0.08476989 0.2717807 0.92388898
-0.074424848 0.27077097 0.92166674
-0.067903668 0.27081582 0.92000002
-0.052643828 0.27124155 0.92457151
-0.04764875 0.27096984 0.92380011
-0.031325124 0.2706812 0.92500007
-0.00321457 0.27097383 0.92600006
0.0024102039 0.27087629 0.92566675
-0.50244689 0.28065085 0.92433345
-0.49458197 0.28137434 0.92207146
-0.48688966 0.28117403 0.92028582
-0.47443911 0.28050694 0.92140007
-0.46864384 0.280707 0.921
-0.12202747 -0.38062876 0.9306668
-0.11485042 -0.38143983 0.93445462
-0.10637691 -0.38167021 0.93520004
-0.1311692 -0.37204987 0.93000019
-0.1242172 -0.3747597 0.93237823
-0.11605223 -0.37561601 0.93608338
-0.1078561 -0.37736115 0.93673354
-0.13290754 -0.36480147 0.9301483
-0.12488236 -0.36492893 0.93392497
-0.11899316 -0.36552256 0.93700016
-0.14466684 -0.3554374 0.93000031
-0.13353282 -0.35536373 0.93030322
-0.12520233 -0.35497794 0.93548656
-0.11960337 -0.35555559 0.93700004
-0.14275691 -0.34338823 0.93000019
-0.13414465 -0.34522811 0.9309724
-0.12553257 -0.3451246 0.93662184
-0.11960337 -0.34253755 0.93700004
-0.14310634 -0.33598334 0.93000019
-0.13520062 -0.33547914 0.93216348
-0.12529875 -0.33521485 0.93700016
-0.11960337 -0.33440125 0.93700004
-0.1425786 -0.32433343 0.93092322
-0.13470435 -0.32481727 0.93284982
-0.12645063 -0.32487211 0.93650019
-0.1434579 -0.31539956 0.93107408
-0.1348048 -0.31491745 0.93386483
-0.12607372 -0.31545517 0.93589664
-0.14309786 -0.30751508 0.93000025
-0.13475963 -0.30521461 0.93286836
-0.12618665 -0.30462804 0.93672431
-0.1342295 -0.29513445 0.93072736
-0.12502244 -0.29470748 0.93497056
-0.13182013 -0.28536817 0.93020022
-0.12490688 -0.28497386 0.93411106
-0.11878975 -0.28363082 0.93700022
-0.13221796 -0.27442017 0.93000025
-0.12473963 -0.27485698 0.93231398
-0.11656547 -0.27441955 0.93633348
-0.1324615 -0.26492375 0.9301669
-0.12473479 -0.26539716 0.93329704
-0.11732321 -0.26550794 0.93657917
-0.13100947 -0.25549641 0.93000025
-0.12460101 -0.25514743 0.93128562
-0.11656582 -0.25420284 0.93604171
-0.1318301 -0.24448709 0.93021071
-0.12470669 -0.2450538 0.93185353
-0.11520825 -0.24498793 0.93589753
-0.10983983 -0.24273247 0.93700004
-0.13386163 -0.23502623 0.93011451
-0.12457404 -0.23461924 0.93289465
-0.11565204 -0.23461975 0.93643612
-0.10983983 -0.23757948 0.93700004
-0.14132126 -0.22046116 0.93000007
-0.13444133 -0.22423996 0.93034226
-0.12515485 -0.22458625 0.93475002
-0.11732521 -0.22553781 0.93700022
-0.14293638 -0.21342398 0.93000031
-0.13505182 -0.21459462 0.93260008
-0.12527584 -0.21475905 0.9368335
-0.11860199 -0.2148605 0.93700022
-0.15101185 -0.2035026 0.93000007
-0.14470774 -0.20509161 0.93000025
-0.13534422 -0.20487557 0.93365854
-0.12529877 -0.20503433 0.93700016
-0.11890598 -0.20701031 0.93700016
-0.15314691 -0.19430397 0.93017411
-0.14499855 -0.19460788 0.9315111
-0.13533571 -0.19541305 0.93495119
-0.12753624 -0.19649124 0.93700022
-0.17200816 -0.18008368 0.93000007
-0.16408665 -0.18153507 0.93026692
-0.15535972 -0.18491869 0.93175596
-0.14534716 -0.18534209 0.93515009
-0.13677998 -0.18867138 0.93700016
-0.19461955 -0.17039305 0.93000007
-0.17368093 -0.17368093 0.93000031
-0.1645554 -0.1745519 0.93358135
-0.1555749 -0.17631811 0.9368127
-0.14780915 -0.17872703 0.93700016
-0.20447166 -0.16134849 0.93000025
-0.19436447 -0.16418637 0.93094456
-0.18521874 -0.16445838 0.93397433
-0.17522693 -0.16507997 0.93425018
-0.16702758 -0.16784023 0.93507171
-0.2309593 -0.15101185 0.93000007
-0.22352411 -0.15173258 0.9313848
-0.21418427 -0.15335427 0.93168759
-0.20506141 -0.15468305 0.9329319
-0.19576459 -0.15559733 0.93469238
-0.18713453 -0.1578439 0.93700016
-0.40249285 -0.14188418 0.93371439
-0.39793199 -0.14220391 0.93050015
-0.26409185 -0.14130104 0.93187517
-0.25473845 -0.14321455 0.93290013
-0.24482198 -0.14430963 0.93345004
-0.23523605 -0.14589123 0.93358988
-0.22536245 -0.14681865 0.93417239
-0.21526136 -0.14826891 0.93600017
-0.20544116 -0.14889398 0.93700004
-0.39408439 -0.13970615 0.93000007
-0.33217919 -0.13238554 0.93533343
-0.32411504 -0.13276041 0.9332943
-0.31507376 -0.13294502 0.93336004
-0.30483636 -0.13260835 0.93277293
-0.29554734 -0.1344531 0.93300003
-0.28513888 -0.13611042 0.93306667
-0.2750116 -0.13751726 0.93303704
-0.26600933 -0.13861075 0.93570012
-0.25547931 -0.13913046 0.93700016
-0.24490213 -0.13913044 0.93700004
-0.3153716 -0.12793867 0.93686688
-0.30625924 -0.12809166 0.93592334
-0.2986016 -0.1293669 0.93700004
-0.14119998 0.17914152 0.93633336
-0.13459191 0.17656249 0.93342119
-0.12471242 0.17561968 0.93294746
-0.11602343 0.1758254 0.93435735
-0.14316446 0.18547811 0.93322235
-0.13930237 0.18250631 0.93000007
-0.15052125 0.19933894 0.93700004
-0.14613965 0.19473879 0.93290007
-0.15052125 0.20096621 0.93700004
-0.14792319 0.20075172 0.93600005
0.21398425 0.25954744 0.93700004
0.27826089 0.25954744 0.93700004
0.28517675 0.25859824 0.93700022
0.29500955 0.25915 0.93508339
0.30598664 0.2594012 0.93381834
0.31450817 0.25938594 0.93350017
0.32624209 0.25926179 0.93500018
0.33556449 0.25947928 0.93383348
0.34561077 0.25886878 0.93300015
0.35463348 0.25752488 0.93400019
0.36476609 0.25820565 0.93558347
0.37487501 0.2592532 0.93369251
0.38435459 0.2583991 0.93383336
0.39507246 0.25814119 0.93310004
0.40410447 0.25729266 0.93292326
0.41471657 0.25769722 0.93355006
0.4218891 0.25662485 0.93525004
0.50794899 0.25437826 0.93000007
0.5112769 0.25261816 0.93477792
-0.31324691 0.26931098 0.93700004
-0.30586922 0.26817292 0.93375015
-0.14066392 0.26839402 0.93100005
-0.1374854 0.26568395 0.93000019
-0.12642367 0.26738542 0.93293351
-0.11168157 0.26949248 0.93200004
-0.10429202 0.26702994 0.93368196
-0.095000833 0.26593772 0.93415147
-0.08437074 0.26831782 0.93425012
-0.074615166 0.26925772 0.93400013
-0.067022607 0.26943198 0.93366671
-0.045704722 0.26935634 0.93575013
-0.035297077 0.26928744 0.93566686
-0.024968307 0.26933691 0.93628585
-0.014798311 0.26908106 0.93620008
-0.0040512709 0.26843077 0.93314302
0.0048621362 0.26830137 0.93350011
0.014383834 0.26823002 0.93325019
0.023907281 0.26806462 0.93337512
0.035810396 0.267104 0.93462509
0.044398196 0.26603907 0.93450022
0.055499524 0.26677704 0.9344002
0.065199614 0.26634663 0.93407714
0.072316207 0.26495314 0.93312514
0.086933196 0.2656779 0.93566674
0.095808737 0.26552948 0.93392873
0.10469685 0.2648218 0.93300021
0.11484458 0.26445776 0.93137515
0.12507446 0.2637285 0.93381274
0.13476454 0.26430622 0.93492872
0.1441876 0.26325163 0.9333638
0.15606263 0.26418164 0.93300015
0.16191119 0.26364917 0.93233347
0.17654638 0.26339492 0.93262511
0.18523438 0.26442078 0.93328589
0.19254452 0.26276085 0.93300009
0.20615895 0.26225111 0.93287516
0.2150691 0.26334435 0.93700016
0.22480389 0.26434156 0.93464303
0.23419707 0.26229778 0.93361121
0.24423733 0.26283595 0.93446171
0.25592902 0.26257923 0.93390006
0.26482838 0.26181686 0.93350017
0.27519345 0.26221347 0.93418771
0.28479365 0.26200816 0.93390483
0.29423371 0.26095182 0.93233341
0.3028782 0.26101583 0.93228585
0.31826156 0.26061723 0.93500006
0.32332826 0.26076484 0.93166673
0.33434081 0.26090655 0.9314
0.36616313 0.26061723 0.93500012
0.37187159 0.26111913 0.93100005
-0.50568295 0.27833843 0.9345386
-0.49625236 0.27806899 0.9320001
-0.48419166 0.27733672 0.93300009
-0.47423765 0.27638519 0.93247831
-0.46515736 0.27399859 0.93178278
-0.45425302 0.27243456 0.93178588
-0.44501555 0.27385169 0.93247831
-0.43489689 0.27392504 0.9329288
-0.42522565 0.27475601 0.93277794
-0.41425386 0.27384421 0.93360013
-0.40511021 0.27385479 0.93308353
-0.39421883 0.27462435 0.93345469
-0.38450372 0.27366623 0.93244457
-0.37494919 0.27295357 0.9331252
-0.36520419 0.27287075 0.93273926
-0.35579857 0.27434906 0.93300015
-0.34476289 0.2745325 0.93578589
-0.33433065 0.27372682 0.93368775
-0.32547706 0.27372649 0.93300021
-0.3152281 0.27153617 0.93180019
-0.30412623 0.27090767 0.93130785
-0.2959435 0.27281818 0.93120015
-0.2853142 0.27333117 0.93240005
-0.27401763 0.27347216 0.9357779
-0.26483491 0.2733959 0.93366677
-0.25469869 0.27461988 0.93513352
-0.2442828 0.27395862 0.93546689
-0.2346482 0.27289292 0.93323994
-0.22504234 0.27261636 0.93278968
-0.21475837 0.27394918 0.93276942
-0.20540148 0.27375361 0.93392873
-0.19553582 0.27206066 0.93360013
-0.18373871 0.27317962 0.93112522
-0.17521372 0.27251452 0.93233347
-0.16506945 0.2722024 0.93361557
-0.15591098 0.27210268 0.9335556
-0.14491761 0.2720176 0.93233347
-0.12340818 0.27093801 0.93350005
-0.11514578 0.27125403 0.93250018
-0.10578906 0.27052927 0.93000013
-0.094450958 0.27200902 0.93370008
-0.08636184 0.27177793 0.93383354
-0.07510215 0.27052927 0.93000007
-0.061703771 0.27035993 0.93500006
-0.054323196 0.2707926 0.93370008
-0.046168044 0.27043253 0.93285722
-0.035050385 0.27049616 0.933375
-0.023802031 0.27048513 0.9345001
-0.0016151001 0.27052927 0.93000007
0.00080755004 0.27052927 0.93000007
-0.5106799 0.28010264 0.93500006
-0.50633389 0.28021985 0.93000007
-0.10134687 -0.38250455 0.94125003
-0.094937228 -0.38317922 0.9440369
-0.088141777 -0.38464892 0.94730771
-0.11254952 -0.37247452 0.94000012
-0.10388412 -0.37455451 0.94205892
-0.096124031 -0.37564752 0.94711763
-0.11400311 -0.36538664 0.94028604
-0.10484698 -0.36493036 0.94297367
-0.097849451 -0.36588511 0.94783336
-0.12161877 -0.35669398 0.94000006
-0.11505988 -0.35512951 0.94065219
-0.10500154 -0.35448834 0.94305116
-0.098471142 -0.35657692 0.94718188
-0.12161877 -0.34689918 0.94000006
-0.11513223 -0.34508681 0.94308895
-0.10539598 -0.34562218 0.94727039
-0.099604785 -0.34985152 0.94800007
-0.12161877 -0.33057451 0.94000006
-0.11514323 -0.33469895 0.94162869
-0.10624242 -0.3354069 0.94750005
-0.12325122 -0.32649338 0.94000024
-0.11515104 -0.32523239 0.94146532
-0.1063908 -0.32467902 0.94727582
-0.12234429 -0.31388703 0.94000012
-0.11529174 -0.31511742 0.94228256
-0.10545955 -0.31455648 0.94783795
-0.122435 -0.30690372 0.94000006
-0.11525083 -0.30476058 0.94168299
-0.1051007 -0.30483431 0.94763637
-0.099604785 -0.30375344 0.94800007
-0.11533387 -0.2951943 0.94170713
-0.10520206 -0.29489401 0.94454533
-0.098690137 -0.29350942 0.94800007
-0.11387941 -0.28556013 0.94090331
-0.10497645 -0.28541005 0.94449985
-0.096669368 -0.28461361 0.94764
-0.11163757 -0.27536705 0.94026697
-0.10475466 -0.27499428 0.94252777
-0.095384821 -0.27492508 0.94700009
-0.11314251 -0.26439682 0.94000041
-0.10454888 -0.26478639 0.94223684
-0.095549144 -0.26508254 0.94751358
-0.11194057 -0.25618064 0.9400003
-0.1048515 -0.25487888 0.94167656
-0.095445096 -0.25507396 0.94758344
-0.088903442 -0.25683218 0.94800007
-0.11019151 -0.24623041 0.94000006
-0.10463277 -0.24523878 0.94141674
-0.095238581 -0.24509351 0.94671434
-0.089726619 -0.24777719 0.94800013
-0.1101915 -0.23344275 0.94000006
-0.10459291 -0.23534001 0.9410556
-0.095214047 -0.23503961 0.9453333
-0.089726619 -0.23789904 0.94800007
-0.11262119 -0.22408625 0.94041693
-0.1047243 -0.22499657 0.94223815
-0.096021116 -0.22575039 0.9466874
-0.089726619 -0.22884405 0.94800007
-0.11344852 -0.21505876 0.94042879
-0.10495702 -0.21484277 0.94436103
-0.098591655 -0.21586317 0.94800007
-0.11427616 -0.20506404 0.94022882
-0.10494095 -0.20490173 0.94592303
-0.097711481 -0.20505416 0.94800007
-0.13141356 -0.19018237 0.94000006
-0.12402739 -0.19365126 0.94014323
-0.11511718 -0.19516879 0.94268006
-0.10598893 -0.19563933 0.9472
-0.099604785 -0.19838639 0.94800007
-0.14243272 -0.1807957 0.94000006
-0.1346436 -0.18401869 0.94072247
-0.12458653 -0.18483444 0.9432196
-0.11618154 -0.18577543 0.94744444
-0.10783658 -0.1852155 0.94800007
-0.15331583 -0.17236128 0.94000024
-0.14473815 -0.17444006 0.94144452
-0.13506699 -0.17514427 0.94580019
-0.12656628 -0.17689566 0.94709998
-0.1193611 -0.17863007 0.94800007
-0.18365251 -0.16079797 0.94000006
-0.17255782 -0.16139916 0.94033337
-0.16434728 -0.1635251 0.94313169
-0.15488407 -0.16523308 0.94473785
-0.14536807 -0.16727495 0.94622213
-0.13780034 -0.16809337 0.94800007
-0.19219317 -0.15205051 0.94184613
-0.18455748 -0.15415406 0.94248569
-0.17498796 -0.15600848 0.94470268
-0.1652294 -0.15717447 0.94768423
-0.15887375 -0.15805057 0.94800007
-0.233374 -0.1413321 0.94083345
-0.22505192 -0.14234279 0.9442609
-0.2151428 -0.14325975 0.94280005
-0.20505333 -0.14480187 0.94371432
-0.1954979 -0.14730796 0.94599998
-0.18727344 -0.14858399 0.94800007
-0.40407717 -0.13932757 0.94200003
-0.33286899 -0.13114855 0.94280005
-0.32847488 -0.1307354 0.94100004
-0.29335427 -0.13206656 0.94000006
-0.28497556 -0.13156989 0.94236857
-0.27493149 -0.13308525 0.94355994
-0.26425335 -0.13457885 0.94276661
-0.25533974 -0.1358501 0.9442758
-0.24481915 -0.13767835 0.94381821
-0.23576273 -0.13855879 0.94422233
-0.22555134 -0.13911742 0.94800007
-0.21814272 -0.13911742 0.94800013
-0.33397403 -0.12883028 0.94500005
-0.32385603 -0.12918264 0.94040006
-0.31424984 -0.12814863 0.94000006
-0.30347472 -0.12764934 0.94033337
-0.2953909 -0.12759525 0.94109553
-0.28560719 -0.12885617 0.94520015
-0.27609459 -0.12858073 0.94800007
-0.11710474 0.16756533 0.94749999
-0.14405033 0.17635308 0.94510531
-0.13491806 0.17260334 0.94358337
-0.12493424 0.17195442 0.94360882
-0.11791272 0.17244111 0.94300002
-0.15099394 0.18637505 0.94762498
-0.14737968 0.1836724 0.94291681
-0.15267175 0.19380254 0.94441676
-0.14952961 0.19120093 0.94100004
-0.47063583 0.22832739 0.94700003
-0.46514925 0.22846374 0.94700003
-0.48109314 0.23685008 0.9460001
-0.47441694 0.23558544 0.94531024
-0.46727449 0.23158582 0.94575012
-0.47559223 0.24222073 0.94800001
0.26506397 0.25930172 0.94800007
0.27944791 0.25902122 0.94100004
0.28417817 0.2587525 0.94450009
0.29549384 0.25898415 0.9434287
0.30434665 0.25898337 0.94257152
0.3160091 0.25929651 0.94200009
0.32497716 0.25811943 0.94331253
0.33507213 0.2578969 0.94429421
0.3460947 0.25867102 0.94630003
0.354406 0.25665092 0.94130003
0.36566702 0.25653023 0.94266683
0.37516695 0.25756621 0.94266659
0.38574854 0.25776574 0.94419998
0.39548534 0.25703898 0.94365215
0.40429458 0.25603688 0.94366664
0.41473666 0.25550032 0.94295251
0.42368871 0.25510734 0.94426668
0.51570427 0.25187644 0.9424001
-0.33287996 0.26942214 0.94500005
-0.24078885 0.26854077 0.94000006
-0.20596433 0.2699692 0.94500005
-0.14323333 0.26753351 0.94800007
-0.12260074 0.26874548 0.94400007
-0.11095347 0.26957452 0.94650006
-0.10741474 0.26795951 0.94140005
-0.086712733 0.26794973 0.94111103
-0.075585201 0.26879531 0.94171441
-0.068033919 0.26968354 0.94400012
-0.053074796 0.26883027 0.94620001
-0.045004852 0.2682842 0.94450009
-0.035704304 0.26890394 0.94300014
-0.023959551 0.26895857 0.94228578
-0.01470812 0.26882645 0.9410001
-0.0050230604 0.2682164 0.94214296
0.0048985584 0.26709759 0.94066679
0.015338984 0.26713994 0.94371432
0.023913903 0.26825851 0.94476944
0.033575103 0.266904 0.94328576
0.045665167 0.26607385 0.94477779
0.055050246 0.26648659 0.94464707
0.063484721 0.2664066 0.94460011
0.077352442 0.26655275 0.94570011
0.084801123 0.26622701 0.94421434
0.094509415 0.26564416 0.94480002
0.10505541 0.26417837 0.94337499
0.1150912 0.26423967 0.94427276
0.12416473 0.2637327 0.94422227
0.13546769 0.26316115 0.94266689
0.14229596 0.26326174 0.94450009
0.15549603 0.26391923 0.94450009
0.16405958 0.26482096 0.94671428
0.17521426 0.26498473 0.94625002
0.18470147 0.26319537 0.94300008
0.19328016 0.26339808 0.94450009
0.20544934 0.26255518 0.94391674
0.21459739 0.26245224 0.94208354
0.22523883 0.2633245 0.94324994
0.23456827 0.26162162 0.94400001
0.24481376 0.26195982 0.94463646
0.25543711 0.26302457 0.94437504
0.26484156 0.26123139 0.9446668
0.2738874 0.26091152 0.94284636
0.31629014 0.26030004 0.94366682
0.34491307 0.26032871 0.94575
0.39424071 0.26037845 0.94000006
-0.51313138 0.27929443 0.94325006
-0.50580287 0.27893433 0.94511116
-0.49789768 0.27901307 0.94340003
-0.48380637 0.27755773 0.94179994
-0.47801059 0.2749896 0.94533342
-0.46345037 0.27411896 0.94800007
-0.44349605 0.27336353 0.94200003
-0.43451884 0.27350459 0.94286692
-0.42492479 0.27358657 0.94289488
-0.41488051 0.27303717 0.94356257
-0.4057073 0.27365869 0.94358337
-0.39557347 0.27316973 0.94318187
-0.38503128 0.27255294 0.94322228
-0.37398136 0.27209345 0.94288892
-0.3631075 0.27342778 0.94466674
-0.35464153 0.27493563 0.94368434
-0.34360474 0.27199793 0.94066668
-0.33483994 0.271943 0.9420557
-0.32484868 0.27218932 0.9427501
-0.31700364 0.27222079 0.94333339
-0.3014279 0.2727344 0.94416678
-0.29530165 0.2739374 0.94631249
-0.28484613 0.27435586 0.94576925
-0.27583665 0.27280337 0.94476938
-0.26515797 0.27233639 0.94315392
-0.25433892 0.27319282 0.94400001
-0.24559717 0.27212301 0.94300008
-0.23673642 0.27114153 0.94337505
-0.22540385 0.2725215 0.9455384
-0.21523044 0.27362436 0.9451052
-0.20535225 0.27170545 0.94344455
-0.19424783 0.27253574 0.94310009
-0.18472196 0.27257147 0.94493347
-0.17520267 0.27167544 0.94333345
-0.16510303 0.27155885 0.94307715
-0.1545213 0.27270484 0.94514298
-0.14660063 0.27251735 0.94609088
-0.12093018 0.27046067 0.94100004
-0.11662793 0.27092561 0.94320005
-0.083212972 0.27039093 0.94266671
-0.06280496 0.27063045 0.94350004
-0.056413017 0.27060264 0.94150001
-0.013875967 0.27017325 0.94000006
-0.49473119 0.28070438 0.94800013
-0.072145477 -0.39058071 0.9550001
-0.066549063 -0.39097574 0.95800012
-0.08338403 -0.38376859 0.95191193
-0.075317293 -0.38519078 0.95535898
-0.067380935 -0.38748196 0.95800012
-0.091601238 -0.37362725 0.95037496
-0.085257515 -0.37457594 0.95456564
-0.078551672 -0.37469503 0.95800018
-0.092645034 -0.36506152 0.95200014
-0.085190989 -0.36478218 0.95731443
-0.079027019 -0.36435616 0.95800006
-0.094025783 -0.35425219 0.95269227
-0.085681915 -0.35473976 0.95800006
-0.079027019 -0.3568694 0.95800006
-0.10146476 -0.34069058 0.95000005
-0.095218435 -0.34483084 0.95361567
-0.086539447 -0.34419611 0.95745462
-0.10219802 -0.33445784 0.94999993
-0.095073193 -0.33472517 0.95214307
-0.085371204 -0.33415994 0.95736378
-0.079027019 -0.33191347 0.95800006
-0.10187721 -0.32481095 0.94999993
-0.095150337 -0.32482445 0.95253503
-0.085001945 -0.32469812 0.95761305
-0.079027019 -0.32359487 0.95800006
-0.095039696 -0.31488702 0.95179474
-0.085395657 -0.31459078 0.95722592
-0.079027027 -0.31444436 0.95800012
-0.094434604 -0.30523872 0.95042878
-0.08484789 -0.30470264 0.95691186
-0.079027027 -0.30446202 0.95800012
-0.094620988 -0.2957173 0.95000023
-0.085347183 -0.2949107 0.95482504
-0.077363297 -0.2943328 0.95800006
-0.092225686 -0.28608108 0.94999993
-0.085495047 -0.28539884 0.95410264
-0.076365061 -0.28466365 0.95800006
-0.085104331 -0.27514726 0.95112526
-0.075105421 -0.27423489 0.95683342
-0.085029498 -0.2653569 0.95118624
-0.074881926 -0.26477891 0.95735151
-0.069044657 -0.26120508 0.95800006
-0.084669247 -0.255225 0.95121622
-0.07462091 -0.25459507 0.95614702
-0.069044657 -0.25455022 0.95800012
-0.084763102 -0.24485247 0.95076758
-0.074867383 -0.2451221 0.95515156
-0.06798593 -0.24328224 0.95800012
-0.084763557 -0.23444796 0.95052528
-0.074545264 -0.23523577 0.95388871
-0.067333467 -0.23442109 0.95733345
-0.093032278 -0.22226922 0.94999993
-0.084851861 -0.22429393 0.95007348
-0.074470446 -0.22521153 0.95543593
-0.068212792 -0.22876242 0.95800006
-0.093932897 -0.21429907 0.95000011
-0.085059017 -0.21471851 0.95107162
-0.075719312 -0.2153777 0.95620012
-0.093258433 -0.20401461 0.95044994
-0.084862642 -0.20520529 0.95409316
-0.077702127 -0.2061362 0.95778584
-0.10403116 -0.19147235 0.94999993
-0.094848074 -0.19486116 0.95329559
-0.085374095 -0.1951872 0.95766693
-0.11361353 -0.18215661 0.94999993
-0.1049367 -0.18489292 0.95122528
-0.09574759 -0.18573163 0.95684856
-0.087012917 -0.18733564 0.95800012
-0.12416885 -0.17315903 0.95031577
-0.11483876 -0.1746617 0.95247632
-0.10567186 -0.17726995 0.95548159
-0.09843716 -0.17829606 0.95800006
-0.15178467 -0.16085875 0.95000005
-0.14369272 -0.16236171 0.95238107
-0.13464281 -0.1643912 0.9546845
-0.12504216 -0.16627051 0.95568436
-0.11638279 -0.16828015 0.9568463
-0.18230662 -0.15095976 0.95000005
-0.17446987 -0.15137221 0.94999993
-0.16430812 -0.15229253 0.95131826
-0.15488917 -0.15456761 0.9531669
-0.14535525 -0.15614675 0.95594138
-0.13781205 -0.15777676 0.95800012
-0.2021046 -0.14106075 0.95000005
-0.19384281 -0.14241205 0.95254552
-0.1849536 -0.14512043 0.95442867
-0.1754574 -0.14708449 0.95462972
-0.16592492 -0.14723612 0.95565236
-0.15639031 -0.14890353 0.95800006
-0.25364113 -0.13201676 0.95192862
-0.24523023 -0.1330888 0.95249987
-0.23475546 -0.13359836 0.953879
-0.22510809 -0.13437535 0.95379996
-0.21486282 -0.1368995 0.95511121
-0.20494792 -0.13770713 0.95381802
-0.19685006 -0.13875367 0.9558183
-0.28412491 -0.12691933 0.94999999
-0.27964675 -0.12786208 0.95000005
-0.2614986 -0.12951192 0.95000005
-0.25625914 -0.12884544 0.95172727
-0.24499787 -0.12902108 0.954
-0.23417336 -0.12716211 0.95494127
-0.14348878 0.16884807 0.95618188
-0.13478951 0.16802441 0.95427787
-0.12551229 0.16741805 0.95126325
-0.11906298 0.1663582 0.95000005
-0.15265289 0.17646943 0.95542866
-0.14654548 0.17310064 0.95212501
-0.13858601 0.17075776 0.95000005
-0.48172531 0.18936658 0.95650005
-0.47394314 0.18785588 0.95462507
-0.46486384 0.1879621 0.95536858
-0.16054963 0.18883298 0.95800006
-0.15576279 0.18480873 0.95370853
-0.48450828 0.19575295 0.95625007
-0.47479722 0.19538806 0.9528482
-0.46477714 0.19535494 0.9531002
-0.16083987 0.19242464 0.95725
-0.15668742 0.19229156 0.95042861
-0.49499664 0.20470294 0.95700014
-0.48473278 0.20518391 0.95496297
-0.47420725 0.20488207 0.95141667
-0.46475312 0.20530345 0.95346159
-0.48355889 0.21497785 0.95405
-0.47467914 0.2148319 0.9520539
-0.464385 0.21441482 0.95322496
-0.45773035 0.21729665 0.9536472
-0.48401532 0.22571099 0.95495015
-0.47509071 0.22438194 0.95120031
-0.46526277 0.2238521 0.95031053
-0.45612422 0.22488555 0.95360982
-0.51881737 0.23461704 0.95700014
-0.49250805 0.23464637 0.95647073
-0.48607394 0.23409425 0.95329994
-0.47566175 0.23291993 0.95027268
-0.46420601 0.23543605 0.95089996
-0.45476046 0.23462439 0.95438015
-0.49163124 0.24623156 0.95800006
-0.48435739 0.24438933 0.95152193
-0.47422087 0.2452202 0.95256698
-0.46453968 0.24415304 0.95416003
-0.45667499 0.24259147 0.95350003
