# .PCD v0.7 - Point Cloud Data file format
VERSION 0.7
FIELDS x y z
SIZE 4 4 4
TYPE F F F
COUNT 1 1 1
WIDTH 1487
HEIGHT 1
VIEWPOINT 0 0 0 1 0 0 0
POINTS 1487
DATA ascii
0.34482831 0.25119781 1.0953333
0.35591856 0.25054309 1.0947144
0.36563343 0.25181252 1.0949286
0.37481144 0.25254285 1.095143
0.38575777 0.25151485 1.098
0.39304763 0.25029537 1.0960001
0.40600228 0.250067 1.095
-0.59272641 0.26999527 1.0910001
-0.49429044 0.26914445 1.0968001
-0.48416305 0.26665545 1.0942726
-0.47450623 0.2670224 1.0953999
-0.46640512 0.26741198 1.0944002
-0.4544428 0.26659623 1.0926001
-0.44580323 0.2674163 1.0946667
-0.43597111 0.26583099 1.0946667
-0.4240573 0.2664001 1.09375
-0.41509634 0.26574922 1.0943333
-0.40575182 0.26680595 1.0943334
-0.39399663 0.26720703 1.0951111
-0.38605118 0.26698297 1.0955
-0.37463197 0.26769176 1.0942726
-0.3649109 0.26685661 1.0942001
-0.35651585 0.26783359 1.0942223
-0.34483427 0.26730317 1.0955
-0.33559746 0.26578721 1.0948572
-0.32635036 0.26773208 1.0946667
-0.31469899 0.26712584 1.0957501
-0.3045758 0.26707742 1.0940669
-0.29486009 0.26791465 1.0943528
-0.28509223 0.26710305 1.0946925
-0.27574205 0.26686516 1.0954443
-0.26869535 0.26679024 1.0960001
-0.24469808 0.26675168 1.0948
-0.2353504 0.26629287 1.094909
-0.22473192 0.26585793 1.0945456
-0.21410473 0.2645987 1.0958668
-0.20537598 0.26541305 1.095
-0.19930682 0.26574302 1.0930001
-0.10173828 0.26337853 1.095
-0.09499567 0.26256579 1.0940001
-0.085286766 0.26156354 1.094154
-0.075115182 0.26147687 1.0950001
-0.064796016 0.26179934 1.0933751
-0.056020334 0.2623693 1.0934445
-0.044209965 0.26287976 1.0949168
-0.035179656 0.26290023 1.095
-0.025436861 0.26205364 1.0938889
-0.016189555 0.26152533 1.0968001
-0.00095343002 0.26028639 1.098
0.0059003248 0.26033345 1.0966001
0.037086517 0.26038051 1.0952001
0.043289401 0.26042086 1.0940001
-0.59780061 0.27172756 1.098
-0.30031049 0.27188993 1.0910001
-0.60186356 -0.44008264 1.1090001
-0.57578576 -0.44024849 1.1070001
-0.60376167 -0.43712956 1.107625
-0.59422165 -0.43799061 1.1074617
-0.58431339 -0.4373695 1.1075001
-0.57800001 -0.43838245 1.1063335
-0.57297409 -0.31104308 1.1090001
-0.56579554 -0.31384447 1.1090002
-0.58260393 -0.30285776 1.1090001
-0.57518518 -0.30469671 1.1058462
-0.56502491 -0.30726039 1.1047646
-0.55757087 -0.3045522 1.1071001
-0.58332616 -0.29756135 1.1090001
-0.57684124 -0.29799941 1.1035
-0.55541414 -0.2964302 1.1060002
-0.58084035 -0.28228649 1.102
-0.5771867 -0.28420028 1.1020002
-0.55316818 -0.28540444 1.1024288
-0.54830563 -0.28228649 1.102
-0.58131999 -0.27573377 1.1090001
-0.57557207 -0.27606305 1.1043333
-0.55021942 -0.27845886 1.102
-0.54866111 -0.27768666 1.1040001
-0.57666451 -0.26962185 1.105
-0.55178851 -0.262894 1.1090001
-0.54930079 -0.26745886 1.1040001
-0.54772693 -0.25544247 1.1041429
-0.48488101 -0.16122693 1.1085001
-0.47485679 -0.16052791 1.1070001
-0.46704611 -0.16081794 1.1090001
-0.53746074 -0.15342352 1.102
-0.50715876 -0.15023383 1.102
-0.48470676 -0.15452893 1.1057811
-0.47513071 -0.1547492 1.1081302
-0.46814892 -0.15640469 1.1065556
-0.49308726 -0.14512931 1.1049334
-0.48515391 -0.147202 1.108
-0.47646195 -0.14776421 1.1090001
-0.22215471 0.13840684 1.1043334
-0.21828815 0.13864896 1.105
-0.34544212 0.14465189 1.1020002
-0.33276832 0.14624825 1.1044168
-0.32862163 0.14844072 1.1076667
-0.23238719 0.14819567 1.1068001
-0.22499058 0.1444135 1.1046668
-0.21729058 0.14155802 1.104
-0.34314555 0.15099935 1.1020001
-0.33281097 0.1506166 1.1020001
-0.32426542 0.15435512 1.1054999
-0.31656569 0.15651913 1.1076669
-0.2423504 0.15825 1.1090001
-0.23629868 0.15446125 1.1048824
-0.32141539 0.16463089 1.1023
-0.3150976 0.16508608 1.1053528
-0.30743188 0.16683657 1.1090001
-0.24379565 0.16491869 1.1061176
-0.23848516 0.16186169 1.103
-0.32056266 0.1731995 1.102
-0.31433067 0.17500544 1.1042413
-0.30549774 0.1746558 1.1085553
-0.29871693 0.17661084 1.1090001
-0.24564597 0.17528796 1.1061251
-0.32482493 0.18869479 1.1062859
-0.31463537 0.18508816 1.104409
-0.3065725 0.18354237 1.1077272
-0.29948729 0.18007758 1.1090001
-0.24636164 0.18212476 1.1074002
-0.34268093 0.19612819 1.103125
-0.33603781 0.19454333 1.1072915
-0.32837677 0.19163336 1.1090001
-0.31184021 0.19094217 1.105
-0.30749357 0.19209552 1.1075001
-0.34490797 0.20302865 1.1090002
-0.33736461 0.20447311 1.1090001
0.59707063 0.23803239 1.1047143
0.60503817 0.23817256 1.1060001
0.31419978 0.2496386 1.1043334
0.33587307 0.24975178 1.102
0.34956235 0.24941225 1.1090001
0.35656968 0.24955778 1.1060002
0.36635002 0.24954808 1.1062001
0.37171096 0.24941225 1.1090001
0.38698167 0.24949713 1.1072501
0.394474 0.24890459 1.1053334
0.4044176 0.24821281 1.1036668
0.41465747 0.24711606 1.104125
0.42621145 0.24766213 1.1055
0.43641445 0.24726991 1.1046001
0.44469109 0.24766216 1.1055001
0.45500767 0.24702422 1.1055001
0.46597636 0.24606347 1.1038573
0.47447979 0.24485996 1.104889
0.48424923 0.24548478 1.1057779
0.49215919 0.24415451 1.1070001
0.59519392 0.24018274 1.1020001
0.60435224 0.2404007 1.103
-0.087078206 0.25932083 1.102
0.0074940636 0.25852579 1.1068001
0.014532138 0.25567973 1.1035001
0.022883317 0.25691107 1.1045715
0.036151946 0.25853163 1.1080002
0.04483733 0.25805011 1.1053574
0.050853942 0.25618872 1.105
0.065951534 0.25789765 1.1052858
0.07452257 0.25651282 1.1057693
0.085410319 0.25738546 1.1052002
0.095635287 0.25886756 1.1058002
0.10401257 0.25666931 1.1047144
0.12620032 0.2557652 1.10525
0.13467616 0.25603592 1.1067145
0.14433119 0.2560223 1.1056668
0.15445039 0.25495794 1.1059167
0.16421096 0.25489128 1.1059288
0.17473298 0.25442314 1.1056668
0.1844468 0.25537449 1.1038573
0.19456868 0.25591052 1.1038001
0.20573422 0.25357938 1.102
0.21673167 0.25320756 1.1054001
0.22435406 0.25375697 1.1041667
0.23507956 0.25426972 1.105
0.2443949 0.25302756 1.1051667
0.25139117 0.25426972 1.105
0.26598078 0.25478044 1.1058335
0.27412745 0.25379249 1.1046001
0.29584309 0.25180262 1.1026001
0.30425823 0.25178486 1.1053333
0.31663775 0.25043169 1.105
0.32477424 0.25187418 1.1046001
0.33182925 0.25103605 1.1076669
0.34526455 0.25063732 1.1045001
0.35190058 0.25074017 1.10425
0.36429334 0.25043172 1.105
0.37539041 0.2512179 1.1037779
0.38456532 0.25094372 1.1044445
-0.59201664 0.26962185 1.105
-0.50566089 0.26962185 1.105
-0.49438924 0.26797938 1.1048335
-0.48513874 0.26610452 1.1063335
-0.47609782 0.26535088 1.1032001
-0.46451926 0.26721832 1.103
-0.45636842 0.26828429 1.1074001
-0.44696036 0.26717469 1.1060001
-0.43427327 0.26728189 1.10525
-0.42437086 0.26573467 1.1032
-0.4148607 0.26539898 1.1034001
-0.40550649 0.26746058 1.1040001
-0.39639801 0.2665002 1.1032
-0.38333842 0.26766649 1.1048572
-0.37496197 0.26678881 1.1044
-0.36504853 0.26610452 1.1063335
-0.35491055 0.26770082 1.1056668
-0.34537888 0.26575071 1.1048751
-0.3351666 0.26679215 1.1060001
-0.32462105 0.26856527 1.1054001
-0.31629348 0.26686096 1.1055
-0.30105466 0.26585993 1.1053334
-0.29529557 0.26454946 1.106375
-0.28631124 0.26562193 1.1052223
-0.27517039 0.26556244 1.1062727
-0.26543763 0.2674754 1.1055626
-0.25487557 0.26767531 1.105778
-0.24544263 0.2663137 1.1036668
-0.23394699 0.26550841 1.106143
-0.22446027 0.26417348 1.1047002
-0.2158642 0.26307225 1.1062859
-0.2063676 0.26434308 1.1054001
-0.19546749 0.26542303 1.1035
-0.18479633 0.26457965 1.1070001
-0.1016335 0.2638596 1.1076669
-0.095255539 0.26100975 1.1040001
-0.086850479 0.26056403 1.10525
-0.07772018 0.26194578 1.105
-0.064217247 0.26166132 1.1038001
-0.053921409 0.26192051 1.1055835
-0.045569651 0.26135316 1.1061113
-0.034025125 0.2619873 1.1068001
-0.02450555 0.260986 1.1046363
-0.015788658 0.26125258 1.1067144
0.0047949376 0.26042938 1.1040001
0.036250141 0.26026833 1.1044
0.09307231 0.26002675 1.105
-0.60378957 0.27252382 1.1090001
-0.59512269 0.27252382 1.1090001
-0.5033232 0.27064931 1.10725
-0.35309735 0.27080366 1.102
-0.57504076 -0.44166994 1.113
-0.60363477 -0.43584144 1.11375
-0.59470683 -0.43533424 1.1146001
-0.58527696 -0.43629751 1.1140909
-0.57736117 -0.43906561 1.11375
-0.57446015 -0.32234627 1.115625
-0.56667501 -0.32196236 1.1148001
-0.58273524 -0.31288692 1.1155716
-0.57497734 -0.31633472 1.1135001
-0.56443107 -0.31679752 1.1140001
-0.55861104 -0.31119853 1.113
-0.58364964 -0.30802366 1.11375
-0.55764455 -0.30443335 1.113
-0.55749959 -0.29309899 1.1140001
-0.55608612 -0.28819832 1.11375
-0.55184585 -0.27157387 1.113
-0.55184585 -0.26674157 1.113
-0.54991293 -0.2580435 1.113
-0.4861269 -0.1633309 1.1130002
-0.46583134 -0.16139799 1.113
-0.47066361 -0.15173344 1.113
-0.46411458 -0.15455407 1.1143001
-0.45836538 -0.15472658 1.1160001
-0.49355504 -0.14129129 1.1145
-0.48496422 -0.14218692 1.1139374
-0.47477546 -0.14535469 1.1143335
-0.46665478 -0.14780416 1.1151819
-0.49228251 -0.13857558 1.1160001
-0.48840624 -0.13857558 1.1160001
-0.43261611 -0.12722374 1.1160002
-0.4292936 -0.12694687 1.1160001
-0.32467926 0.14669152 1.1145715
-0.31860518 0.1476807 1.1152501
-0.23483868 0.14733048 1.1148001
-0.22823773 0.14313108 1.1137501
-0.32376248 0.15173344 1.1130002
-0.314152 0.15427795 1.1143335
-0.3079434 0.15722106 1.1147144
-0.24434546 0.15529945 1.1146364
-0.31119853 0.16139799 1.113
-0.30527791 0.1655606 1.1140715
-0.29943955 0.16958551 1.1160001
-0.25098655 0.16570929 1.1160001
-0.24773465 0.1620423 1.1130002
-0.30056751 0.17202899 1.113
-0.29699108 0.1751003 1.1140909
-0.25071669 0.17520814 1.1148001
-0.24837895 0.17396191 1.113
-0.30324903 0.18683961 1.1138182
-0.29792702 0.1832113 1.1148751
-0.25098655 0.18315235 1.1160001
-0.33149406 0.19619039 1.1130002
-0.32558492 0.1946854 1.1148334
-0.31639394 0.19436322 1.1136
-0.30459535 0.19049428 1.1136
-0.34115863 0.20392202 1.1130002
-0.33575654 0.20171188 1.11325
0.60630858 0.23741971 1.1160001
0.6116215 0.2371006 1.1145
0.35467595 0.24904843 1.1160001
0.36339751 0.24904843 1.1160001
0.38684055 0.24854632 1.11375
0.39532703 0.24822915 1.1145
0.40514034 0.2480706 1.1148751
0.41226339 0.24871369 1.1145
0.42524022 0.24837895 1.113
0.43497074 0.24860212 1.1140001
0.44643384 0.24742746 1.1152501
0.45408016 0.24753319 1.1150001
0.46538439 0.24673855 1.1155715
0.47371536 0.24532588 1.1145
0.48606375 0.24416001 1.1143334
0.49310777 0.24374568 1.1148001
-0.095775753 0.25951239 1.114125
-0.053226665 0.25935772 1.1145
-0.048322752 0.25997642 1.113
-0.023678148 0.25997642 1.113
-0.015065832 0.25944611 1.1142858
0.0067697442 0.25724962 1.1137501
0.010631005 0.25611058 1.113
0.027113492 0.25904837 1.1152501
0.035536297 0.25788721 1.1147144
0.042582631 0.25645575 1.1145
0.056205481 0.25873902 1.1160001
0.064821258 0.2575475 1.1142
0.071517676 0.25611058 1.113
0.085589886 0.25700799 1.11375
0.094531402 0.25735319 1.1146667
0.10562754 0.25680092 1.1160001
0.11225857 0.25645575 1.1145
0.12500875 0.25680092 1.1160001
0.13510573 0.25634071 1.1140001
0.14562681 0.25624865 1.1136001
0.15618734 0.25386441 1.11375
0.16816318 0.25417766 1.113
0.17521231 0.25458875 1.1148001
0.18605223 0.25536188 1.1148001
0.19385988 0.25581524 1.1148751
0.20461135 0.25636882 1.114125
0.21502154 0.25318557 1.1147144
0.2250616 0.25376004 1.1140001
0.2350997 0.25445172 1.1142
0.24451314 0.25301793 1.113
0.25498784 0.25348154 1.1146667
0.26479942 0.25484532 1.1147144
0.27532637 0.25355119 1.1145
0.2841329 0.25315294 1.1148751
0.2952455 0.2526527 1.1148001
0.30476472 0.25212914 1.1142001
0.31522 0.25081789 1.1152501
0.32469767 0.25150323 1.1140001
0.33595991 0.25108382 1.115
0.34520838 0.2504468 1.1136001
0.35275608 0.25031185 1.113
0.36435354 0.25031185 1.113
0.37742674 0.25064921 1.1145
0.38243398 0.25076169 1.1150001
-0.59050405 0.26964095 1.113
-0.51291019 0.26806885 1.1145
-0.50628114 0.26933813 1.1137501
-0.49688122 0.26859289 1.1140001
-0.48388007 0.26613331 1.1145
-0.47732025 0.26689702 1.1150001
-0.46406826 0.26813993 1.1148001
-0.4560166 0.26818824 1.1150001
-0.44456932 0.26770803 1.113
-0.43455777 0.26785237 1.1136001
-0.4252958 0.26601392 1.1140001
-0.41863394 0.2664915 1.1160001
-0.38501465 0.26818913 1.1150001
-0.37655589 0.26659155 1.1148001
-0.36420116 0.26581031 1.1145
-0.35556287 0.26546064 1.1146364
-0.34839141 0.26613331 1.1145
-0.3343778 0.2670792 1.1136
-0.3263956 0.2686719 1.1154001
-0.31530488 0.26754308 1.1150001
-0.30561563 0.26635832 1.1142858
-0.29543263 0.26249674 1.1155001
-0.28490788 0.26507536 1.114125
-0.27621287 0.26461539 1.113
-0.26439881 0.26633698 1.1140001
-0.253968 0.26589367 1.1135
-0.24484268 0.26516429 1.1145002
-0.23534526 0.26458728 1.1143334
-0.22711694 0.26384223 1.1130002
-0.21396862 0.26270208 1.1150001
-0.20522155 0.26528245 1.1155716
-0.19387583 0.26581031 1.1145002
-0.18669426 0.26375628 1.1140001
-0.10412373 0.26286498 1.1147144
-0.090122581 0.26067716 1.1160001
-0.083532982 0.26222762 1.1160001
-0.074579589 0.26402354 1.1154001
-0.063874602 0.26226228 1.1145
-0.058064148 0.26129323 1.1145
-0.043095164 0.2609852 1.1152501
-0.035359293 0.26204246 1.115625
-0.028062362 0.26129323 1.1145
-0.010645333 0.26129323 1.1145
-0.0040146774 0.26206151 1.1160002
0.0019361663 0.26146972 1.1152501
-0.60202533 0.27272332 1.1137501
-0.59490216 0.27117187 1.1140001
-0.51166368 0.27036774 1.1160001
-0.58254749 -0.4405576 1.12
-0.57787555 -0.44354615 1.1210001
-0.61265653 -0.4321726 1.1235001
-0.60552198 -0.43281561 1.1223043
-0.59396052 -0.43256509 1.1218421
-0.58708829 -0.43489477 1.1235386
-0.57845718 -0.43919998 1.1215
-0.60576063 -0.42961055 1.1270001
-0.59499592 -0.42961055 1.1270001
-0.59300089 -0.34221107 1.126
-0.58389878 -0.3449876 1.126158
-0.57692593 -0.3438966 1.1255715
-0.5909307 -0.33583039 1.1256
-0.58385444 -0.33458081 1.1233636
-0.57426584 -0.3347412 1.123625
-0.56806719 -0.33194432 1.126
-0.59094173 -0.32392049 1.1270001
-0.58422863 -0.32535347 1.122077
-0.57437527 -0.32764676 1.1202726
-0.56465733 -0.32529673 1.1231112
-0.55878729 -0.32196325 1.1270001
-0.58655584 -0.31727058 1.1212858
-0.56201249 -0.31847385 1.12075
-0.55920666 -0.31412828 1.12
-0.56074452 -0.29651934 1.1270001
-0.557612 -0.29348779 1.1228889
-0.55582887 -0.28961611 1.123
-0.55325574 -0.27151722 1.12075
-0.55366898 -0.26564282 1.1206
-0.46000829 -0.15366027 1.12
-0.45453835 -0.15414476 1.1222273
-0.44551277 -0.15391459 1.1253999
-0.43841803 -0.15364206 1.1270001
-0.4746944 -0.14179161 1.1210001
-0.46502915 -0.14438926 1.1219131
-0.4551453 -0.14521652 1.1223998
-0.44523922 -0.14548494 1.1244667
-0.43809184 -0.14711794 1.127
-0.42765331 -0.14189869 1.1270001
-0.4807432 -0.13944478 1.123
-0.47298798 -0.13903172 1.1264286
-0.46549293 -0.13831046 1.127
-0.45527187 -0.13907158 1.127
-0.44575763 -0.13994147 1.1270001
-0.43354097 -0.13332598 1.124
-0.42640337 -0.13432291 1.125
-0.43100098 -0.12836984 1.1242502
-0.42724803 -0.12736844 1.1240001
-0.28086156 -0.12036924 1.1270001
-0.27596849 -0.12134786 1.127
-0.3136842 0.13974279 1.1254001
-0.30826268 0.13994147 1.1270001
-0.32219422 0.14243996 1.1210001
-0.31454939 0.14492066 1.1227243
-0.30619383 0.14744177 1.1255715
-0.24340785 0.14819054 1.124625
-0.23531245 0.14465514 1.1226
-0.22915752 0.14139506 1.123
-0.31250739 0.15139103 1.12
-0.30435216 0.15448967 1.1219168
-0.29702595 0.15578605 1.1252222
-0.2525177 0.15675764 1.1252859
-0.24762577 0.1536365 1.1216249
-0.30306223 0.16356575 1.1207999
-0.29469591 0.16491424 1.1237998
-0.28803807 0.16701642 1.1270001
-0.25562787 0.16529925 1.1240001
-0.29395655 0.17435251 1.121143
-0.28756529 0.17511381 1.1244117
-0.25655022 0.17451397 1.1246923
-0.30051282 0.18964401 1.12
-0.2937704 0.18543899 1.1224211
-0.28731316 0.18300281 1.1251539
-0.25452691 0.18471161 1.1245
-0.32450199 0.19872099 1.12
-0.31672171 0.19872099 1.1200001
-0.30051282 0.19158907 1.12
-0.29719678 0.19120677 1.1242857
-0.33185464 0.20290931 1.12075
-0.32706299 0.20214425 1.1210001
0.49752173 0.2394762 1.1256667
0.59793651 0.23858979 1.1215
0.60569012 0.23896208 1.12325
0.61624789 0.23638813 1.1240001
0.30630547 0.24954598 1.1270001
0.31621635 0.24953008 1.1240001
0.32463905 0.24916899 1.1238335
0.33057189 0.24866028 1.123
0.34622186 0.24994108 1.12
0.35643989 0.24952689 1.1234001
0.36497587 0.24958879 1.1234287
0.37564826 0.24913064 1.1236666
0.38508746 0.24795957 1.1216002
0.39577097 0.24747625 1.1214285
0.40485537 0.24720296 1.1227144
0.41610357 0.24801262 1.1240002
0.42590463 0.2476972 1.1242728
0.43497157 0.24799493 1.1244168
0.44507605 0.24752924 1.1237779
0.45520204 0.24711637 1.12375
0.464757 0.24651876 1.1232501
0.47485134 0.2448557 1.1244446
0.48468891 0.24391532 1.1241111
0.49397907 0.24180274 1.1232728
0.59971011 0.24085918 1.123
0.60177469 0.24129307 1.1220001
-0.10201441 0.25886843 1.125
-0.095132522 0.25921488 1.1248001
-0.061652537 0.25933209 1.1270001
-0.055578437 0.25813758 1.122875
-0.046323556 0.25898439 1.1245556
-0.033770353 0.25844431 1.124
-0.024380872 0.25951782 1.1231111
-0.014636256 0.25916466 1.1238571
-0.0044457703 0.25927612 1.123
0.0032471325 0.25854322 1.1221666
0.010764728 0.25737488 1.1270001
0.025373569 0.25864178 1.1240001
0.034519032 0.25723925 1.123
0.045341767 0.25670719 1.1240909
0.055959746 0.25942761 1.125
0.06456992 0.25707728 1.1224999
0.075101808 0.25650707 1.1232001
0.084955126 0.25682679 1.1246001
0.095004745 0.25591469 1.1237273
0.10444357 0.25573403 1.1241001
0.11464606 0.25652036 1.1232729
0.12483472 0.25734338 1.1244286
0.13520937 0.25594544 1.1246364
0.1457473 0.2553826 1.1237273
0.15373738 0.25467348 1.1220001
0.16518176 0.2537694 1.1211667
0.17483579 0.25491905 1.1248001
0.18571559 0.25457665 1.1233
0.19514926 0.25369415 1.1237143
0.20456493 0.2545248 1.1230769
0.21593609 0.25260338 1.1232001
0.22598116 0.25298807 1.1224287
0.23450983 0.25403214 1.124125
0.24454315 0.25345945 1.1232858
0.25534895 0.25209078 1.1247778
0.26487711 0.25334927 1.1233636
0.27574286 0.25232631 1.1237
0.28515148 0.2519477 1.1246251
0.29536304 0.2533105 1.1263335
0.3046104 0.25143382 1.1227274
0.31427503 0.25083372 1.1240001
0.32671133 0.25112078 1.1217999
0.33492267 0.25126952 1.1245002
0.34227356 0.25061056 1.123
0.35167676 0.25105688 1.125
0.36372662 0.25061056 1.123
0.37542826 0.25061056 1.123
-0.61261094 0.26911822 1.1270001
-0.60576063 0.26716101 1.1270001
-0.51253712 0.26733118 1.1218573
-0.50491071 0.26774147 1.1231766
-0.49487492 0.26744708 1.1241001
-0.48539752 0.26709908 1.1240001
-0.4741663 0.26810819 1.1236001
-0.46546564 0.26753661 1.1233637
-0.45564437 0.26689392 1.1236364
-0.44604751 0.26814744 1.1256669
-0.43634015 0.26759022 1.1233335
-0.42499709 0.26744667 1.12
-0.41377386 0.26919639 1.125
-0.40655786 0.26928234 1.1228
-0.39230019 0.26918659 1.1252501
-0.38429612 0.26737678 1.1251668
-0.37413415 0.26536024 1.1239091
-0.36583793 0.26409692 1.123
-0.35741848 0.26554242 1.1256667
-0.34190801 0.26668686 1.125
-0.33404967 0.26696694 1.1229
-0.32538012 0.26726222 1.1237777
-0.31484425 0.26697192 1.1225555
-0.30652884 0.2650429 1.1242501
-0.29245293 0.26288271 1.1226667
-0.28524137 0.26341733 1.1219
-0.27523422 0.26469859 1.1232001
-0.26477876 0.26629582 1.1224445
-0.25525889 0.26585576 1.1238571
-0.24398543 0.26377052 1.1232858
-0.23488602 0.26329023 1.1224287
-0.22513452 0.26412129 1.1224
-0.2142947 0.2621659 1.1251668
-0.204632 0.26301044 1.1228751
-0.19527856 0.26394671 1.1233335
-0.18769895 0.26225984 1.1200001
-0.10655617 0.26171893 1.1228571
-0.090687871 0.26036194 1.123
-0.084095582 0.26106235 1.122875
-0.075271912 0.2625491 1.1233333
-0.065084733 0.26203772 1.122875
-0.059403986 0.26098669 1.1215
-0.04388123 0.26036197 1.123
-0.037429638 0.26089746 1.1217144
-0.0072998614 0.26129907 1.12075
-0.61310852 0.27225223 1.1253999
-0.60634059 0.27186546 1.123
-0.59890902 0.27267274 1.1215
-0.41443381 0.27011332 1.123
-0.40858299 0.27011332 1.123
-0.39590618 0.27011332 1.123
-0.58661562 -0.44094443 1.1335001
-0.61613798 -0.43066347 1.1327143
-0.5919627 -0.43344599 1.1348572
-0.58930939 -0.43737647 1.1361668
-0.61551553 -0.42685506 1.1348182
-0.60524291 -0.42737377 1.1331909
-0.59599453 -0.42788094 1.1349415
-0.58835244 -0.42866525 1.138
-0.59190983 -0.36067963 1.138
-0.58894539 -0.36067963 1.138
-0.59492326 -0.35498533 1.1357648
-0.58513916 -0.35492367 1.1343335
-0.57790625 -0.3514699 1.1338
-0.59445739 -0.34691676 1.1312501
-0.57532406 -0.34508848 1.1340001
-0.57109421 -0.33715129 1.1320001
-0.56490415 -0.33249441 1.1322001
-0.56301534 -0.32563135 1.131
-0.56273472 -0.31917763 1.131
-0.56175268 -0.29953593 1.131
-0.4517591 -0.16007987 1.131
-0.43420318 -0.15370126 1.1332002
-0.42764509 -0.15316051 1.1326363
-0.4422656 -0.14109288 1.131
-0.43510357 -0.14428942 1.1325003
-0.42654061 -0.14512765 1.1311878
-0.47827542 -0.13847399 1.131
-0.4628427 -0.13594864 1.131
-0.45357952 -0.13550107 1.1322354
-0.44496077 -0.1360666 1.1324377
-0.43579599 -0.13732664 1.1323334
-0.42818907 -0.13650982 1.131
-0.27177447 -0.12111688 1.1340001
-0.28198606 -0.11860088 1.1335001
-0.27536896 -0.1154736 1.1366403
-0.26666868 -0.11386359 1.1374288
-0.25494614 -0.11265063 1.1380002
-0.2748192 -0.10672162 1.1380002
-0.26581594 -0.10573347 1.1380004
-0.25511649 -0.10586979 1.1380004
-0.24802901 -0.10968614 1.138
-0.27174494 -0.098816335 1.138
-0.26621124 -0.098618709 1.1380001
-0.25692245 -0.098816335 1.138
-0.30260721 0.13871625 1.1370001
-0.30388045 0.1443274 1.1342275
-0.29538986 0.14600676 1.1357371
-0.28783786 0.14780101 1.138
-0.2638396 0.14921269 1.138
-0.25476617 0.14738965 1.1368464
-0.24475932 0.14422356 1.1350669
-0.23594874 0.1417919 1.1328572
-0.22882581 0.14043815 1.131
-0.2931411 0.15363455 1.1322634
-0.28521451 0.15494394 1.1365602
-0.27569759 0.15522401 1.1380004
-0.26559284 0.155008 1.1370403
-0.25640565 0.15361756 1.1340625
-0.29266134 0.16007987 1.131
-0.28458512 0.16435711 1.132929
-0.27488413 0.16453382 1.1346403
-0.26444685 0.16465184 1.1324446
-0.25828835 0.16106194 1.131
-0.28303647 0.17463082 1.1326668
-0.27472851 0.17429012 1.1340002
-0.26507047 0.17530976 1.1325003
-0.28334427 0.18444343 1.1341429
-0.27523392 0.18407963 1.1357394
-0.26472065 0.18467335 1.1325655
-0.25828835 0.18856034 1.131
-0.31083381 0.19857916 1.1340001
-0.30448318 0.19707762 1.1348
-0.29562551 0.19425625 1.1356001
-0.2885437 0.19071552 1.138
-0.26291221 0.19004518 1.1340001
-0.31423596 0.20059717 1.138
-0.30731881 0.20059717 1.138
0.62345695 0.22766773 1.1366668
0.61805481 0.23550259 1.1340001
0.62205619 0.23201892 1.1342858
0.31861627 0.24879704 1.1325001
0.3253718 0.24760744 1.1346924
0.33255023 0.24768379 1.1364286
0.35583135 0.24881299 1.1351428
0.36138123 0.24912658 1.1340001
0.37598705 0.24844123 1.1342502
0.38472435 0.24637572 1.1344446
0.39385256 0.24759398 1.1330001
0.40506205 0.24737516 1.1350001
0.41587076 0.24743572 1.1352857
0.42562464 0.24597448 1.1348462
0.43548304 0.24431188 1.133375
0.44424444 0.24450421 1.1331252
0.45517007 0.24613346 1.1343335
0.46473163 0.24595675 1.1315
0.47505599 0.24442206 1.1338751
0.48469502 0.24333134 1.133
0.4947865 0.24197643 1.1343334
0.5009988 0.2401237 1.138
0.60969681 0.2401237 1.138
0.61364949 0.24012372 1.138
-0.25099349 0.25988695 1.138
-0.11363879 0.25988695 1.138
-0.10545423 0.25742525 1.1350001
-0.09619686 0.25872022 1.1343334
-0.082908474 0.25859433 1.1366668
-0.075406328 0.25921315 1.1362858
-0.063593261 0.25812322 1.1372
-0.055483703 0.2575148 1.1343335
-0.044315394 0.25901917 1.1342001
-0.033436477 0.25863093 1.1325001
-0.024665182 0.25952157 1.1364001
-0.0049241446 0.2591562 1.1348
0.0044337101 0.25885931 1.1335001
0.015424496 0.25882122 1.1333334
0.024575051 0.25856242 1.1322001
0.032868013 0.25734204 1.1355001
0.045608342 0.25567231 1.1357501
0.054443344 0.25730425 1.1331668
0.065368764 0.25655991 1.1332859
0.075175241 0.2567125 1.1341667
0.085210502 0.25617331 1.1350911
0.095514931 0.25503471 1.1340001
0.10584115 0.25425631 1.1344446
0.11542582 0.2552225 1.1337501
0.12517747 0.25626522 1.1351
0.1352388 0.25495481 1.1347501
0.14465801 0.2538912 1.1333001
0.15384746 0.25406703 1.1347144
0.16490954 0.25440547 1.1326668
0.17534907 0.25415897 1.1345001
0.18448697 0.25400278 1.1344287
0.19617549 0.25250527 1.1352857
0.2054251 0.25254908 1.1349092
0.21390292 0.25303292 1.132889
0.22555827 0.25243843 1.1326668
0.23503433 0.25153074 1.1343126
0.24370433 0.25218621 1.134154
0.25412673 0.25159392 1.1337144
0.26538754 0.25123352 1.1346365
0.27552927 0.25144157 1.1355715
0.28587937 0.25047135 1.1326667
0.29579121 0.25173008 1.1344546
0.3042199 0.25052091 1.13475
0.31562704 0.25017589 1.1352
0.33683059 0.25073242 1.1353334
0.34558204 0.25119323 1.1357143
0.35212588 0.25032508 1.13275
0.3665359 0.25011194 1.13625
0.37056127 0.25000533 1.138
-0.61355913 0.2692945 1.136
-0.60791063 0.2681092 1.131
-0.51459742 0.26639402 1.1368573
-0.50486362 0.26471493 1.1316003
-0.49776569 0.264808 1.1320002
-0.48381031 0.26774836 1.1354287
-0.47489241 0.26653078 1.1354445
-0.46572843 0.26478407 1.1343638
-0.45516703 0.26679677 1.1337779
-0.44452843 0.26776695 1.1351113
-0.43479186 0.2697686 1.138
-0.42211017 0.26879376 1.1366668
-0.41563034 0.2678932 1.1342499
-0.40625104 0.26820913 1.1355834
-0.39488342 0.26729149 1.1352859
-0.38511547 0.2659336 1.1343001
-0.37757739 0.26453429 1.1353334
-0.36180386 0.26519307 1.1353334
-0.35513797 0.2669273 1.1343335
-0.34480399 0.26702145 1.1339
-0.33474731 0.2648696 1.1346154
-0.32561153 0.26538369 1.1343573
-0.31420594 0.26525682 1.1349168
-0.30527303 0.26467463 1.1348
-0.28137392 0.2643007 1.1343334
-0.27485299 0.26452041 1.1331668
-0.26567107 0.26599729 1.1331668
-0.25409365 0.26348835 1.1345385
-0.24506602 0.26315182 1.1342727
-0.23346835 0.26499841 1.1345
-0.22233675 0.26581594 1.138
-0.2183841 0.26383963 1.138
-0.20186146 0.26291224 1.1340001
-0.19614837 0.26218575 1.135125
-0.11237926 0.26418325 1.1352501
-0.10817393 0.26059771 1.1325001
-0.091576174 0.26094285 1.1340001
-0.085487761 0.26039061 1.1316001
-0.07483384 0.26101097 1.1318572
-0.067306131 0.26148954 1.1327143
-0.024552125 0.26025254 1.131
-0.61576736 0.27072811 1.131
-0.60987478 0.27007338 1.131
-0.42131448 0.27007338 1.131
-0.40345395 0.27061066 1.13325
-0.39879945 0.27078977 1.1340001
-0.58707094 -0.44179127 1.1433334
-0.59125346 -0.43668517 1.1440001
-0.58670992 -0.43590337 1.1456
-0.62260717 -0.42623878 1.1460001
-0.61486804 -0.4252454 1.1433334
-0.60540575 -0.42421302 1.1423335
-0.59392798 -0.42480102 1.1432729
-0.58804059 -0.42541212 1.1420001
-0.6040318 -0.36122495 1.146
-0.5940367 -0.36464038 1.1442223
-0.5843361 -0.36293343 1.1451112
-0.60549319 -0.35792786 1.1450001
-0.59994018 -0.35996413 1.1420001
-0.58210886 -0.35848239 1.1436001
-0.57814586 -0.35478929 1.1445
-0.57556123 -0.34541816 1.1444
-0.57217437 -0.33814812 1.1420001
-0.28485096 -0.1137071 1.1436667
-0.26476702 -0.11641815 1.1420001
-0.25502917 -0.11610277 1.1428001
-0.24473594 -0.11368324 1.1434001
-0.28385904 -0.10467606 1.1440001
-0.2772333 -0.10185526 1.1420002
-0.25154519 -0.1008164 1.1420001
-0.24579872 -0.10460223 1.1444348
-0.2831088 -0.098018333 1.146
-0.27541161 -0.096218288 1.1443334
-0.26467386 -0.094026521 1.1441177
-0.25514698 -0.093870163 1.1445456
-0.24863537 -0.09538842 1.1460001
-0.26171395 -0.088564791 1.146
-0.25632864 -0.084467299 1.146
-0.24977262 -0.085579462 1.146
-0.26171395 -0.077618584 1.146
-0.25892764 -0.077021517 1.146
-0.27831417 -0.061882645 1.1433334
-0.28211975 -0.058609027 1.1440001
-0.26702118 -0.045443363 1.1460001
-0.25375307 0.01094621 1.146
-0.27166504 0.055726159 1.146
-0.26569438 0.055273827 1.146
-0.25972372 0.052740835 1.1460001
-0.27166504 0.060701713 1.146
-0.26509732 0.061895844 1.146
-0.30046591 0.13982077 1.1420001
-0.29848266 0.13982077 1.1420001
-0.24465571 0.13892049 1.1444001
-0.23700118 0.13982078 1.1420001
-0.2949329 0.14319269 1.1436001
-0.2837728 0.14726236 1.1433334
-0.27508998 0.14818926 1.1442858
-0.26547903 0.14589889 1.1440001
-0.25542134 0.14267085 1.1440001
-0.24743508 0.14090793 1.1444001
-0.27666664 0.15370369 1.1420001
-0.28360808 0.18940261 1.1420001
-0.275675 0.18940261 1.1420001
-0.29542649 0.19581091 1.1446667
-0.28592831 0.19271964 1.146
-0.27962592 0.19205624 1.146
-0.31137392 0.20328552 1.1420001
-0.30408597 0.20280883 1.1435001
-0.29853302 0.20001711 1.146
0.59551686 0.22390714 1.1435001
0.6007148 0.22655338 1.146
0.61790317 0.22894073 1.1446667
0.62468278 0.22555912 1.1443334
0.6040318 0.23186064 1.146
0.61643857 0.23645493 1.1447827
0.6217562 0.23105136 1.1420001
0.23683619 0.24977262 1.146
0.24181174 0.24977262 1.146
0.26768461 0.24977264 1.1460001
0.27564549 0.24977262 1.146
0.29853302 0.24977262 1.146
0.30549878 0.24977262 1.146
0.31544992 0.24977262 1.146
0.324339 0.24734823 1.1440001
0.33607385 0.24703701 1.1444
0.34427702 0.24907947 1.1454287
0.35529655 0.24867332 1.1440001
0.36607572 0.24883036 1.1442858
0.37608737 0.24880217 1.1452
0.38145363 0.24734996 1.1440001
0.39529625 0.2478317 1.1444
0.40161285 0.24890082 1.1420001
0.41475788 0.24651347 1.1442223
0.42461401 0.24601865 1.1452001
0.43708253 0.24337646 1.1440001
0.44821978 0.24295099 1.1420001
0.45569265 0.24522023 1.1433334
0.46514404 0.24610692 1.1440001
0.47345412 0.24484281 1.1446667
0.48558837 0.24329138 1.1436001
0.49474335 0.24257123 1.1433334
0.50065839 0.24138972 1.1440001
0.60985655 0.24096772 1.1420001
-0.52143764 0.25972372 1.146
-0.51664269 0.25881717 1.1420001
-0.11304659 0.25881717 1.1420001
-0.095362104 0.25927043 1.1440001
-0.086272396 0.25881717 1.1420001
-0.0732335 0.25860044 1.1428001
-0.066514909 0.25779486 1.1433334
-0.046713442 0.25942156 1.1446667
-0.032800429 0.25942153 1.1446667
-0.024841627 0.25936109 1.1444
-0.014926651 0.25972372 1.146
-0.0049755503 0.25972372 1.146
0.004477127 0.25949708 1.145
0.014429096 0.25972372 1.146
0.025279885 0.25843629 1.1442223
0.034730207 0.25661579 1.1428002
0.045775063 0.25574327 1.146
0.057070341 0.25656125 1.1430001
0.063521191 0.2570588 1.1430001
0.075248472 0.25628859 1.1440001
0.084373482 0.25453705 1.1431431
0.094923884 0.2546677 1.1426668
0.1034783 0.25394014 1.1442858
0.1160215 0.25485063 1.1420001
0.12568134 0.25520393 1.1448572
0.13442323 0.25422347 1.1442858
0.14549075 0.25308916 1.1442858
0.15552762 0.25366712 1.1445
0.16482143 0.25401974 1.1442223
0.17425758 0.25270194 1.1435001
0.18553624 0.25378838 1.1446668
0.19426064 0.25249919 1.1433334
0.20481291 0.25154316 1.145
0.21586941 0.25259122 1.1430001
0.22582746 0.25264683 1.1440001
0.23105136 0.25088409 1.1420001
0.24635834 0.25132346 1.1440001
0.25602114 0.25203899 1.145
0.26324046 0.25132346 1.1440001
0.27170846 0.25088409 1.1420001
0.28526083 0.25088412 1.1420001
0.29501191 0.25088409 1.1420001
0.30641574 0.25088409 1.1420001
0.31137392 0.25088409 1.1420001
0.34409794 0.25088409 1.1420001
-0.61787999 0.26920417 1.1440001
-0.52180564 0.26504374 1.1451111
-0.51581472 0.2637597 1.1428002
-0.49482673 0.2672461 1.1420001
-0.48531228 0.26671556 1.1442858
-0.4748489 0.26385313 1.1437778
-0.46390423 0.26423788 1.1440001
-0.45469642 0.26706177 1.1433334
-0.4450542 0.26716399 1.1437778
-0.43685329 0.26967481 1.146
-0.42342889 0.26741135 1.1420001
-0.41522717 0.26721746 1.1440001
-0.40420803 0.26670974 1.1446667
-0.39495447 0.26451495 1.1437778
-0.38547379 0.26459581 1.1437144
-0.37482738 0.264965 1.145
-0.36495048 0.26550889 1.1452001
-0.35385674 0.26536757 1.1438183
-0.34546345 0.26544678 1.1437144
-0.3356207 0.26339734 1.1446667
-0.32401475 0.26439688 1.1442223
-0.31519228 0.2635982 1.1426668
-0.30839902 0.26476699 1.1420001
-0.28162482 0.26278374 1.1420001
-0.27402228 0.26410592 1.1420001
-0.26431352 0.26573014 1.1437144
-0.25755638 0.26251802 1.143
-0.24614212 0.26202047 1.1430001
-0.23464695 0.26609242 1.146
-0.22593822 0.26593056 1.1451111
-0.20065968 0.26224884 1.1440001
-0.19668967 0.2612572 1.1440001
-0.11668258 0.26410592 1.1420001
-0.090238936 0.26080045 1.1420001
-0.088564791 0.26171395 1.146
-0.014874551 0.26080045 1.1420001
0.016857823 0.26080045 1.1420001
-0.62592423 0.27166504 1.146
-0.43517107 0.2710329 1.1433334
-0.4273954 0.27071682 1.1420001
-0.5937047 -0.44953358 1.153
-0.58616841 -0.44037527 1.1500001
-0.59066206 -0.43288589 1.1500001
-0.58616841 -0.4383781 1.1500001
-0.6319322 -0.42095324 1.1570001
-0.62534297 -0.42293394 1.1554666
-0.61591548 -0.42348376 1.1542351
-0.60668439 -0.42575857 1.156111
-0.59476322 -0.42295229 1.1522858
-0.6218856 -0.41894394 1.1570001
-0.61395031 -0.41668093 1.1559333
-0.60595435 -0.41518125 1.1551818
-0.59612906 -0.4150281 1.1533333
-0.5879795 -0.41244373 1.1512001
-0.61311764 -0.40451333 1.1569999
-0.60597855 -0.40471119 1.1569998
-0.59658426 -0.40588841 1.1558331
-0.58937842 -0.40795374 1.1543334
-0.61368084 -0.39566931 1.1569999
-0.60473943 -0.39603767 1.1569999
-0.59689462 -0.39520872 1.1569998
-0.58873177 -0.39483204 1.1570001
-0.60480636 -0.38389236 1.1569998
-0.59603834 -0.38487682 1.1569998
-0.58848059 -0.38453424 1.1570001
-0.61284363 -0.37172484 1.1570001
-0.60553223 -0.3750084 1.1549332
-0.59540969 -0.37479579 1.1529545
-0.58555794 -0.37451455 1.154238
-0.57968986 -0.37473881 1.1570001
-0.61335582 -0.36585999 1.1551249
-0.60501623 -0.36676797 1.1508999
-0.59482282 -0.36847728 1.1500001
-0.58399522 -0.36612085 1.1502142
-0.57748234 -0.36467516 1.1505998
-0.57618058 -0.35511333 1.152
-0.5753175 -0.34541297 1.1529999
-0.29058775 -0.12082858 1.1500001
-0.24815144 -0.12156407 1.1570001
-0.29243246 -0.11401216 1.1528889
-0.28859058 -0.11583567 1.1500001
-0.26476163 -0.11889342 1.1506001
-0.25452662 -0.11875688 1.1525
-0.24226752 -0.1160669 1.1508572
-0.23610206 -0.11449771 1.1518946
-0.2927025 -0.10456926 1.1524166
-0.28792486 -0.10152265 1.1500001
-0.24122924 -0.10399533 1.1500002
-0.2346431 -0.10534547 1.1530713
-0.2280582 -0.10950813 1.1570001
-0.29296058 -0.095308498 1.1554165
-0.28526112 -0.09408547 1.1513332
-0.27505425 -0.091758721 1.1500001
-0.26762033 -0.090871088 1.1500001
-0.24450652 -0.094615236 1.1501303
-0.23686129 -0.095546976 1.1542221
-0.29034722 -0.089414895 1.1570001
-0.28449911 -0.085581586 1.1549999
-0.27484232 -0.084949814 1.1509597
-0.26578087 -0.084669352 1.1499999
-0.25409409 -0.084879577 1.15
-0.24439232 -0.084797435 1.1518214
-0.23844175 -0.086170048 1.1558571
-0.28331459 -0.078363612 1.1570001
-0.27431363 -0.075973086 1.1519523
-0.26550189 -0.075486086 1.1525713
-0.25452349 -0.075562052 1.1526498
-0.24578524 -0.077747539 1.1553334
-0.27508557 -0.062045723 1.1562001
-0.26409653 -0.062115241 1.1564287
-0.25554305 -0.06257683 1.156111
-0.24815144 -0.061284363 1.1570001
-0.29058775 -0.054922085 1.1500001
-0.28426507 -0.054118011 1.1529411
-0.27509943 -0.055021387 1.1520399
-0.26492772 -0.054988045 1.1513197
-0.25489059 -0.055185232 1.1521921
-0.24505116 -0.054629929 1.1551538
-0.28411373 -0.046013109 1.1555713
-0.27484238 -0.04497356 1.1509598
-0.26417071 -0.044845462 1.1499999
-0.25482333 -0.044967413 1.1508397
-0.24477983 -0.04529462 1.1536429
-0.2384979 -0.043486714 1.1556667
-0.28190809 -0.03516316 1.1570001
-0.27486467 -0.035170469 1.1517498
-0.2646246 -0.034950417 1.1499997
-0.25503421 -0.035005119 1.1517998
-0.24456784 -0.035082117 1.1543334
-0.23810482 -0.039181806 1.1570001
-0.28105411 -0.025870038 1.1570001
-0.27401939 -0.025000796 1.1516999
-0.26467896 -0.024969377 1.1502398
-0.25474378 -0.024976043 1.1504798
-0.24510452 -0.025191085 1.1532307
-0.28030062 -0.014065264 1.1570001
-0.27456614 -0.015030853 1.1539999
-0.26487371 -0.014993859 1.1510798
-0.25463873 -0.014978748 1.1499997
-0.24514909 -0.015008864 1.1523597
-0.28087473 -0.00416217 1.1570002
-0.27428064 -0.0050066365 1.1528
-0.26462457 -0.0049929162 1.1499997
-0.25463876 -0.0049929162 1.1499997
-0.24505426 -0.0048509776 1.1529999
-0.28119364 0.005023309 1.1570001
-0.27425501 0.0050054207 1.1526999
-0.2647087 0.0049951053 1.1503597
-0.25463876 0.0049929172 1.1499997
-0.24445994 0.0050099078 1.1538333
-0.28230995 0.01580059 1.1569999
-0.2746098 0.015210682 1.1531905
-0.26479253 0.014988338 1.1507198
-0.25469327 0.015149087 1.1502498
-0.24460252 0.015038176 1.1544999
-0.28443745 0.024525566 1.1569998
-0.27494782 0.024765244 1.1528696
-0.26465264 0.024966771 1.1501198
-0.25479609 0.024980836 1.1507198
-0.24553466 0.024750173 1.1549197
-0.28173587 0.035450205 1.1570002
-0.27422631 0.035092782 1.1515713
-0.26462457 0.03495042 1.1499997
-0.25471723 0.034960944 1.1503597
-0.24476422 0.034946255 1.1544482
-0.23789729 0.03864561 1.156
-0.29034722 0.049228422 1.1570001
-0.28413585 0.045429464 1.1562499
-0.27480477 0.04516086 1.1515
-0.26462457 0.044936251 1.1499997
-0.25463876 0.044936251 1.1499997
-0.24490589 0.044981472 1.1511998
-0.23587349 0.045361318 1.1542172
-0.29084957 0.053247068 1.1570001
-0.28475291 0.055177782 1.1553158
-0.2765851 0.054717217 1.1509373
-0.26422516 0.05372379 1.1500001
-0.25463873 0.054922085 1.1499997
-0.24465291 0.054922093 1.1499997
-0.23454513 0.055227768 1.1534828
-0.28419247 0.06484326 1.1559333
-0.27542537 0.065448381 1.1514999
-0.26450709 0.066200204 1.1499999
-0.25463876 0.064907916 1.1499997
-0.24511035 0.065030456 1.1521598
-0.23467103 0.065000951 1.1541034
-0.28438893 0.075476706 1.1553527
-0.27518559 0.075050041 1.1523999
-0.2646246 0.07489375 1.1499997
-0.25463873 0.074893735 1.1499997
-0.24472825 0.074916564 1.1503597
-0.23571473 0.0750091 1.1543332
-0.29034722 0.085396253 1.1570001
-0.28464943 0.085030079 1.1548946
-0.27512869 0.085039213 1.1521598
-0.26462457 0.08487957 1.1499997
-0.25463873 0.084879585 1.1499997
-0.24465291 0.084879577 1.1499997
-0.23664604 0.085233174 1.1547998
-0.28438744 0.095129393 1.1562499
-0.27524206 0.095083408 1.1526399
-0.26470867 0.094895743 1.1503597
-0.25463876 0.094865419 1.1499997
-0.24475357 0.094905622 1.1504798
-0.23668687 0.095277891 1.1549999
-0.28381693 0.10582437 1.1569999
-0.27507138 0.10502528 1.1519198
-0.26473564 0.1048946 1.1504797
-0.25471908 0.10488534 1.1503597
-0.24503319 0.1050162 1.1517998
-0.23754279 0.10522757 1.1554998
-0.28381693 0.11520122 1.1569999
-0.27498606 0.11499286 1.1515598
-0.26470634 0.11487199 1.1503597
-0.25516897 0.1150751 1.1523999
-0.24509203 0.1153066 1.1531538
-0.23748159 0.11529656 1.1559333
-0.28230995 0.12508038 1.1570001
-0.27454588 0.12468939 1.1511737
-0.2646246 0.12482293 1.1499997
-0.25495511 0.12497943 1.1514398
-0.24457709 0.12520844 1.1535517
-0.2372987 0.12554324 1.1566364
-0.29857641 0.13880309 1.1500001
-0.28130528 0.13688515 1.1570001
-0.27404246 0.13502 1.1517999
-0.26476347 0.13487931 1.1505998
-0.2546649 0.1348224 1.1501198
-0.24452738 0.13432883 1.1518694
-0.23668256 0.1366113 1.1539999
-0.29434115 0.14254518 1.152
-0.28478488 0.1430431 1.1519998
-0.27523959 0.14297955 1.1503999
-0.2653735 0.14154918 1.1500001
-0.23307285 0.14104514 1.152
-0.29225987 0.19851229 1.1526667
-0.28646857 0.19642785 1.1521667
-0.27829129 0.19389971 1.1570001
-0.30057359 0.203711 1.1500001
-0.29375869 0.20426439 1.1542498
-0.28833792 0.20796499 1.1570001
0.60672015 0.21926025 1.153
0.60704482 0.22515696 1.1517142
0.61585402 0.22701749 1.1529999
0.62462485 0.22333395 1.1538999
0.63364398 0.22158544 1.156
0.60766745 0.23354058 1.151
0.61452794 0.23412381 1.1509472
0.23728165 0.24929591 1.153
0.2412864 0.24929591 1.153
0.26931968 0.24929591 1.153
0.2745505 0.24830832 1.1525555
0.28257737 0.24900979 1.1539999
0.29835415 0.24929591 1.153
0.30492556 0.24859826 1.1524286
0.31537434 0.24929591 1.153
0.32500255 0.24792437 1.1528335
0.33652258 0.24665008 1.1500001
0.34507939 0.24754646 1.1528572
0.35466489 0.24826396 1.1538
0.36637971 0.24731992 1.1522
0.37438887 0.24719124 1.1515999
0.38367659 0.24698123 1.1546668
0.3950052 0.24790744 1.154
0.40422809 0.24737228 1.1533846
0.41366997 0.24637897 1.1528889
0.42469841 0.2453198 1.1531428
0.43423375 0.2451316 1.1522501
0.45714802 0.24507841 1.1520001
0.46529701 0.24471414 1.1537273
0.47528267 0.24495135 1.1532999
0.48591328 0.24425852 1.1537999
0.49523324 0.2415664 1.1536154
0.50237602 0.24067944 1.1525
0.61172611 0.2412864 1.153
-0.44406047 0.25819805 1.1570001
-0.43602318 0.25819805 1.1570001
-0.11313429 0.2593078 1.1530001
-0.10112002 0.25930777 1.153
-0.09570694 0.25830668 1.154125
-0.084408373 0.2588979 1.1526667
-0.07511355 0.25838831 1.153375
-0.068512082 0.25834307 1.1546668
-0.054027047 0.25913909 1.1522499
-0.046225108 0.25860828 1.1537144
-0.031036839 0.25930777 1.153
-0.024211045 0.25792503 1.1522001
-0.015477641 0.25757551 1.1528462
-0.0057643224 0.2588073 1.154125
0.0050054207 0.25917286 1.1524
0.015330116 0.25790834 1.1550713
0.024667615 0.25659457 1.1530907
0.035238028 0.25599381 1.1521111
0.044208717 0.25593692 1.1532857
0.054598 0.25609225 1.1525557
0.065101214 0.25639069 1.1534001
0.075081401 0.25467828 1.1529
0.085669138 0.25335726 1.1532726
0.095325887 0.25374147 1.1533637
0.10482248 0.2526952 1.1528572
0.11517904 0.25438762 1.1533998
0.1252404 0.25348321 1.1538461
0.13470683 0.25208172 1.1530768
0.14484042 0.25237963 1.1538889
0.15622109 0.25251168 1.1551249
0.16520943 0.2522248 1.1530907
0.17528667 0.25180203 1.151875
0.18545203 0.25252056 1.1528749
0.19502921 0.25250247 1.1544443
0.20531516 0.25218433 1.1534001
0.21515341 0.25237215 1.1540002
0.22426449 0.25209719 1.1529999
0.23338109 0.25040257 1.1535001
0.24618292 0.25068694 1.1525
0.25393754 0.25221723 1.1532857
0.26414022 0.25110075 1.1551667
0.28614348 0.25054771 1.1514001
0.2941792 0.25048321 1.1523335
0.41090664 0.25016075 1.1570001
-0.6319322 0.26824468 1.1570001
-0.62570739 0.26779157 1.1542728
-0.52625346 0.26562318 1.1500001
-0.51613885 0.26444724 1.1524999
-0.50452745 0.26655263 1.1551249
-0.49610049 0.26674211 1.1534166
-0.48481211 0.26491928 1.152375
-0.47441283 0.26274192 1.1530002
-0.46269807 0.26518497 1.1546249
-0.45464447 0.26394415 1.1538332
-0.44433662 0.26440218 1.1536189
-0.43490797 0.26486227 1.1538571
-0.42538083 0.26563442 1.1526667
-0.41509461 0.26602009 1.152909
-0.40537027 0.26516566 1.1533333
-0.39501286 0.26394033 1.154
-0.38504544 0.26415589 1.1537777
-0.3765516 0.26538962 1.1533334
-0.36543375 0.26531491 1.153
-0.35549951 0.26361823 1.1525999
-0.3475115 0.26428246 1.1520001
-0.33447978 0.26402006 1.1526
-0.32538623 0.26331255 1.153
-0.30536246 0.2673173 1.1530001
-0.29444653 0.26640043 1.153375
-0.28652248 0.26453581 1.1508572
-0.27329046 0.26435691 1.1551818
-0.26517764 0.26408279 1.1539999
-0.24395624 0.26464745 1.1530001
-0.23534031 0.26478061 1.1532999
-0.22572456 0.26396856 1.1515
-0.20329595 0.26338464 1.1533334
-0.19818899 0.26101813 1.1546668
-0.091147646 0.26041883 1.1535001
-0.088873923 0.26063025 1.1500001
-0.042360485 0.26048931 1.1523335
-0.03708009 0.26037654 1.1542001
0.0069900835 0.26063025 1.1500001
0.016975917 0.26063025 1.1500001
-0.6319322 0.27025399 1.1570001
-0.62571234 0.27141497 1.1500001
-0.49959299 0.27132204 1.153
-0.43381053 0.2711567 1.1506001
-0.63371956 -0.42204759 1.1655716
-0.62706 -0.4203923 1.161
-0.6075694 -0.42375278 1.1610001
-0.5978241 -0.42341673 1.161
-0.63354826 -0.41546342 1.1678236
-0.62400228 -0.41555035 1.1634446
-0.61683458 -0.41434348 1.1610001
-0.63036573 -0.40501758 1.169
-0.62330699 -0.40510017 1.1634002
-0.6179868 -0.40627846 1.161
-0.59350598 -0.40292591 1.162143
-0.63036573 -0.39588186 1.169
-0.62418741 -0.39458859 1.1658003
-0.61396569 -0.39258543 1.1615001
-0.60857755 -0.3935087 1.1610001
-0.5943293 -0.39471847 1.1610001
-0.58882904 -0.39449847 1.1646923
-0.63036573 -0.3887763 1.169
-0.6237368 -0.3853175 1.16775
-0.61445832 -0.38460359 1.1610003
-0.60992169 -0.38712385 1.161
-0.59278339 -0.38409945 1.161
-0.58685637 -0.38550761 1.1652501
-0.62337846 -0.37597185 1.1658001
-0.61598372 -0.37619719 1.1615001
-0.58371019 -0.37805063 1.161
-0.62000304 -0.36998555 1.161
-0.27238029 -0.13263735 1.1690001
-0.26574841 -0.13236666 1.169
-0.25681567 -0.13094553 1.169
-0.29944909 -0.12079472 1.169
-0.27308697 -0.12562312 1.1675456
-0.26481995 -0.12552063 1.1652107
-0.25532734 -0.12535337 1.1656318
-0.24480645 -0.12362062 1.1650001
-0.23975118 -0.12240461 1.1650001
-0.30185375 -0.11379834 1.1675
-0.29700318 -0.11730646 1.1625999
-0.23172808 -0.11485764 1.1636667
-0.22669449 -0.11233672 1.1655
-0.30214867 -0.10461921 1.1672223
-0.2979039 -0.10635825 1.161
-0.23086292 -0.10282977 1.161
-0.22665837 -0.10458349 1.1662729
-0.30198404 -0.093669727 1.1683334
-0.29760477 -0.093818389 1.1618
-0.23264547 -0.094612114 1.1627145
-0.22766863 -0.094895713 1.16725
-0.30181214 -0.08618816 1.1676668
-0.295647 -0.084985003 1.1652
-0.28933474 -0.082667068 1.161
-0.23404169 -0.085267827 1.1644286
-0.22901425 -0.088161021 1.1670001
-0.29336643 -0.079917058 1.1650001
-0.28799057 -0.078970581 1.161
-0.27396441 -0.071526937 1.1656668
-0.26446745 -0.071577594 1.161
-0.25402138 -0.072030164 1.1618
-0.24616015 -0.074727029 1.1630001
-0.23651057 -0.079848461 1.164
-0.27474475 -0.067276366 1.1645294
-0.26482445 -0.067035958 1.162143
-0.25473684 -0.066756293 1.161706
-0.24742031 -0.065141067 1.1630001
-0.29235917 -0.051414888 1.161
-0.24161637 -0.05880788 1.161
-0.23658425 -0.054313388 1.1637501
-0.29197252 -0.044819679 1.1665
-0.28731853 -0.04334981 1.161
-0.23425202 -0.045716494 1.1628183
-0.22910947 -0.043401908 1.1623335
-0.2919085 -0.03639793 1.1690001
-0.2867547 -0.035004653 1.1639092
-0.23479407 -0.035126835 1.1613333
-0.22842725 -0.034367766 1.164
-0.2922475 -0.024946349 1.1677999
-0.28630006 -0.024740411 1.1630001
-0.24094427 -0.024195241 1.161
-0.23540981 -0.025258388 1.16356
-0.22864906 -0.025728621 1.1645555
-0.29282558 -0.015197051 1.1668668
-0.28495896 -0.015249863 1.1623335
-0.24094427 -0.015122025 1.1610001
-0.23514138 -0.015051357 1.1663796
-0.2296351 -0.019220559 1.1650001
-0.29211998 -0.0055230828 1.1685555
-0.28614435 -0.0055169235 1.163154
-0.24094427 -0.0060488102 1.161
-0.23525158 -0.0052849022 1.1650004
-0.2296351 -0.0030348252 1.1650002
-0.2909297 0.0050642937 1.1674001
-0.2865741 0.005048254 1.1631819
-0.23544244 0.0050524846 1.16372
-0.22794907 0.0059010489 1.1650001
-0.29148549 0.014898988 1.1661431
-0.28664234 0.014235169 1.161889
-0.23550749 0.015161342 1.1640402
-0.22805254 0.014662821 1.1646667
-0.29135102 0.026211511 1.161
-0.28731847 0.028429409 1.1610001
-0.24175079 0.026816392 1.1610001
-0.2356364 0.025284095 1.1646802
-0.22761185 0.026012784 1.1650002
-0.29172158 0.035676125 1.1655
-0.28602231 0.034852669 1.1610001
-0.23489155 0.034950003 1.1644787
-0.22746414 0.035101615 1.1675
-0.29257962 0.044843338 1.1650001
-0.28799057 0.044693988 1.161
-0.23166624 0.044543643 1.162143
-0.22694707 0.045592021 1.1668003
-0.29448295 0.055980928 1.1638001
-0.28933474 0.055447426 1.161
-0.23086292 0.051414888 1.161
-0.22581916 0.055835564 1.1633638
-0.29223046 0.065927126 1.1635001
-0.2888307 0.066536918 1.161
-0.23086292 0.069561318 1.161
-0.22536933 0.065440685 1.1651602
-0.29168564 0.075692326 1.1623334
-0.28933474 0.074265949 1.161
-0.23119895 0.076282218 1.1610001
-0.22578788 0.074785218 1.1665002
-0.29135102 0.085691482 1.161
-0.28933474 0.089724019 1.161
-0.23195057 0.085721701 1.1614002
-0.22506064 0.084638588 1.1681114
-0.21799366 0.086185858 1.1676668
-0.29336733 0.095574841 1.1655716
-0.28933474 0.096780963 1.161
-0.23187104 0.095772825 1.1610001
-0.2271812 0.09432184 1.1680001
-0.29370192 0.1037586 1.1676667
-0.28782254 0.10383791 1.161
-0.23312391 0.10581023 1.162231
-0.22727206 0.10456683 1.1678891
-0.21621241 0.10658358 1.169
-0.29113635 0.1140641 1.1666001
-0.28782257 0.11694366 1.161
-0.23296291 0.11518206 1.162143
-0.22813053 0.11457339 1.1676668
-0.29253307 0.12455586 1.167909
-0.28730631 0.12596796 1.1636667
-0.23309173 0.12481818 1.1628463
-0.22825678 0.12441244 1.1675714
-0.29252973 0.13533172 1.1686363
-0.28586948 0.13399041 1.1627145
-0.23292945 0.13430592 1.1638
-0.22758345 0.13459602 1.1686363
-0.29417345 0.14153364 1.1626002
-0.28832662 0.14013077 1.161
-0.23126061 0.14138377 1.1630001
-0.22485718 0.14380911 1.1667145
-0.21569186 0.14715384 1.1676667
-0.21269032 0.15289137 1.1673334
-0.20584358 0.15514186 1.1677692
-0.20469396 0.16213694 1.1670001
-0.19469266 0.16627038 1.169
-0.18982027 0.16850357 1.169
-0.18535392 0.17439103 1.169
-0.2832489 0.19808835 1.1645555
-0.2737208 0.19794072 1.1675
-0.26481301 0.19810504 1.164
-0.25703362 0.19815743 1.1623334
-0.2850939 0.20482457 1.1653335
-0.27469727 0.20489533 1.1687779
-0.26497856 0.20521815 1.1654214
-0.25603262 0.20546755 1.1646671
-0.24750686 0.20771693 1.1650001
-0.28640527 0.21194467 1.1678572
-0.27250332 0.21325943 1.1689999
-0.26559812 0.21446644 1.1666472
-0.25575304 0.21492085 1.1650004
-0.24624676 0.21579723 1.1651908
-0.23830606 0.21691775 1.1650002
0.62517405 0.21884462 1.1650001
0.63524705 0.21882392 1.164
-0.27660978 0.22128782 1.169
-0.26419812 0.22193381 1.1689999
