# .PCD v0.7 - Point Cloud Data file format
VERSION 0.7
FIELDS x y z
SIZE 4 4 4
TYPE F F F
COUNT 1 1 1
WIDTH 1399
HEIGHT 1
VIEWPOINT 0 0 0 1 0 0 0
POINTS 1399
DATA ascii
-0.40472764 0.2753354 0.91380006
-0.39599854 0.27527139 0.91471434
-0.38425097 0.27584329 0.91309088
-0.37530485 0.27541924 0.91407692
-0.36620468 0.27564794 0.91483343
-0.35559732 0.27604458 0.91614294
-0.34457964 0.27569315 0.91393334
-0.33482257 0.2746245 0.91460001
-0.32474157 0.27434143 0.91260004
-0.31330696 0.27459228 0.91462493
-0.30525273 0.27522346 0.91500008
-0.29422349 0.27557403 0.91554546
-0.28487891 0.27479029 0.91226315
-0.2751025 0.27409831 0.9146843
-0.26640663 0.27421173 0.91330773
-0.25541645 0.27248779 0.91284615
-0.24520113 0.27301413 0.91346663
-0.23692928 0.27249607 0.91255558
-0.22457445 0.27418932 0.91299999
-0.21456605 0.27478081 0.91406667
-0.20449841 0.27423182 0.91400003
-0.19467241 0.27302396 0.91389477
-0.18594213 0.27167177 0.91263634
-0.17394336 0.27284303 0.91318178
-0.16472787 0.27363008 0.91368425
-0.15501989 0.27365658 0.9127
-0.1456452 0.2714704 0.91299999
-0.13525182 0.27143773 0.9135834
-0.12411572 0.2731331 0.91463637
-0.11527306 0.27310583 0.91341662
-0.10417818 0.273577 0.91587496
-0.09599822 0.2725496 0.91471434
-0.084196202 0.27125409 0.91474998
-0.075256497 0.27090895 0.91225004
-0.06525249 0.27071831 0.91136372
-0.043367919 0.27070779 0.9127143
-0.035203971 0.27076307 0.91200006
-0.028524751 0.27098298 0.91250002
-0.015062978 0.27034083 0.91300005
-0.0063423067 0.27034083 0.91300005
0.046774514 0.27034083 0.91300005
-0.49355194 0.28119868 0.91308326
-0.48487195 0.28334427 0.9163636
-0.47524667 0.28156039 0.91339999
-0.46629554 0.28085634 0.91420001
-0.15098581 -0.37386963 0.92000002
-0.14457688 -0.37406 0.92232358
-0.13543218 -0.37519899 0.92676473
-0.12798627 -0.37751925 0.92700005
-0.15247704 -0.36337784 0.92000008
-0.1451178 -0.36492401 0.92272913
-0.13732615 -0.3664405 0.92676479
-0.15348844 -0.35467842 0.92179424
-0.14511825 -0.35528803 0.92644215
-0.13814098 -0.35473308 0.92700011
-0.16205582 -0.34408334 0.92000008
-0.15456073 -0.34487841 0.9220888
-0.14600171 -0.34578142 0.92700005
-0.13871887 -0.34639472 0.92700005
-0.16290087 -0.33535787 0.92016006
-0.15473701 -0.33495814 0.92414588
-0.14792411 -0.33467141 0.92700011
-0.1638114 -0.32452807 0.92025012
-0.15480262 -0.32485905 0.92374361
-0.14792411 -0.3255074 0.92700011
-0.17055805 -0.31195745 0.92000002
-0.16445242 -0.31463939 0.92000002
-0.15449966 -0.31491387 0.92216271
-0.14810988 -0.31553844 0.92700005
-0.17055804 -0.3079631 0.92000002
-0.16425641 -0.30548471 0.92030323
-0.1550224 -0.30518964 0.92313337
-0.14604796 -0.30416796 0.92650008
-0.16310196 -0.29611325 0.92000002
-0.15475018 -0.29484075 0.92139417
-0.14521728 -0.29518399 0.92552501
-0.16110478 -0.28439653 0.92000002
-0.15448841 -0.28486711 0.92074388
-0.14523132 -0.28511918 0.92531693
-0.13694565 -0.2847755 0.92700005
-0.16137107 -0.27500987 0.92000002
-0.15440707 -0.2751801 0.9213751
-0.14456785 -0.27487257 0.9250809
-0.13739142 -0.27567253 0.92700005
-0.15341651 -0.26524228 0.92039996
-0.14536378 -0.26496372 0.92420918
-0.13744453 -0.26536044 0.92678952
-0.15441763 -0.25430915 0.92029423
-0.14483641 -0.25453094 0.92225629
-0.13582243 -0.25508997 0.92620587
-0.15479214 -0.24471986 0.92018193
-0.14534584 -0.24492602 0.92480832
-0.13648495 -0.24514398 0.9269287
-0.15330252 -0.23430757 0.92000002
-0.14547294 -0.23492274 0.92561907
-0.13718563 -0.23469895 0.92700005
-0.16190365 -0.22235124 0.92000002
-0.15475515 -0.2251066 0.92005885
-0.1455048 -0.22505756 0.92511642
-0.13710897 -0.22511631 0.92700005
-0.1627025 -0.21497124 0.92000002
-0.15466951 -0.21492392 0.92214584
-0.14621142 -0.21619987 0.92606902
-0.17015861 -0.20211327 0.92000002
-0.1645629 -0.20458023 0.92062867
-0.15522213 -0.20490573 0.92490727
-0.14891483 -0.20848076 0.92700005
-0.18373933 -0.19146173 0.92000002
-0.17398573 -0.19382265 0.920138
-0.16477892 -0.1946052 0.92331111
-0.1574713 -0.19616292 0.92654544
-0.19270439 -0.18258543 0.91999996
-0.18440711 -0.18423255 0.92108107
-0.17524575 -0.18538637 0.9232173
-0.16533446 -0.18574609 0.92648554
-0.15857416 -0.18835713 0.92700005
-0.21261267 -0.17061512 0.92000008
-0.20504245 -0.17122379 0.92000002
-0.19419894 -0.17461278 0.92212826
-0.18526147 -0.17554066 0.92502499
-0.17661113 -0.17676444 0.9267143
-0.23140505 -0.16110478 0.92000002
-0.22480109 -0.16185038 0.92000008
-0.2144413 -0.16419244 0.92158115
-0.20502065 -0.16573308 0.92444128
-0.19597459 -0.1676551 0.92613047
-0.18562032 -0.16919945 0.92700005
-0.17950274 -0.16984341 0.92700005
-0.26202828 -0.15098581 0.92000002
-0.25371397 -0.15184782 0.92100006
-0.24457277 -0.15343712 0.92330539
-0.23481627 -0.15450747 0.92247498
-0.22551143 -0.1559391 0.92389756
-0.21666785 -0.15797774 0.92587507
-0.41142061 -0.144253 0.925143
-0.40697858 -0.14452437 0.92383337
-0.39342916 -0.14350702 0.92518193
-0.38544658 -0.14246562 0.92082357
-0.32134354 -0.14053687 0.92133343
-0.31601059 -0.14091422 0.92075002
-0.30408585 -0.14131127 0.92116678
-0.29475906 -0.14170584 0.92310536
-0.2849533 -0.14332654 0.92353344
-0.27483043 -0.14439778 0.92348647
-0.2654762 -0.14573972 0.92366678
-0.25607696 -0.14793961 0.92476201
-0.24550824 -0.14891483 0.92700005
-0.39200822 -0.13845055 0.92700005
-0.3844057 -0.13713133 0.92200011
-0.3774139 -0.13828929 0.92057151
-0.36108774 -0.13820393 0.92000002
-0.35456368 -0.13514161 0.92000002
-0.34453401 -0.13541608 0.92060006
-0.33406791 -0.13554733 0.92279184
-0.32575777 -0.13765813 0.92311108
-0.31427035 -0.13782838 0.92405564
-0.30555528 -0.13753158 0.92496008
-0.29564866 -0.13864279 0.92681825
-0.28495055 -0.13925551 0.92700005
-0.27931592 -0.13925549 0.92700005
-0.13319454 0.17870213 0.92642868
-0.1251673 0.17846037 0.92400008
-0.11487306 0.177406 0.92328578
-0.10757504 0.17854358 0.92040008
-0.14086539 0.1875522 0.92700005
-0.1349165 0.18462332 0.9234376
-0.12808959 0.18117951 0.92080003
-0.14131264 0.19570096 0.92609107
-0.13755089 0.19373207 0.92250013
-0.1414623 0.20476191 0.92475003
-0.13860336 0.20411043 0.92000002
-0.14230695 0.21391504 0.92514294
-0.1392691 0.21596031 0.92000002
-0.1366062 0.23886114 0.92000002
-0.092146836 0.23830576 0.92280006
-0.087120123 0.23751196 0.92663646
-0.1366062 0.24365434 0.92000002
-0.09305539 0.2452579 0.92142314
-0.087190352 0.2445596 0.9237501
-0.13334255 0.25506958 0.92109525
-0.12711243 0.25742206 0.92066669
-0.10269388 0.25518638 0.92316669
-0.094881706 0.25427747 0.92356271
-0.08901155 0.25421631 0.92350006
0.19882143 0.25999725 0.92700005
0.29541484 0.25999725 0.92700005
0.30829394 0.25999725 0.92700005
0.31419688 0.25999725 0.92700005
0.3273702 0.25885832 0.92180008
0.33633256 0.25925902 0.9228183
0.34369475 0.25930932 0.9245556
0.35529253 0.25928906 0.92492318
0.36373469 0.25824583 0.92266673
0.37506214 0.25840566 0.92378581
0.38415822 0.25836673 0.92327285
0.3957845 0.25755665 0.92230004
0.40435916 0.25758719 0.92366672
0.41501662 0.25802407 0.92340004
0.50679785 0.25352991 0.92300004
-0.14528911 0.26972997 0.92450005
-0.13443206 0.2656447 0.92666668
-0.1283748 0.26457796 0.92663646
-0.10061813 0.26965657 0.92700005
-0.075858906 0.26972994 0.92449999
-0.065403737 0.26883167 0.92233342
-0.058760986 0.26965657 0.92700005
-0.044033185 0.26873589 0.92200011
-0.035064802 0.26952386 0.92354554
-0.025700351 0.26849255 0.92177784
-0.01363023 0.26863694 0.9235
-0.0053923498 0.26951081 0.92571437
0.0053911107 0.26942772 0.92542869
0.013663661 0.26868364 0.92550009
0.025570681 0.26737764 0.92400008
0.034949116 0.26713711 0.92525005
0.04461896 0.26595226 0.92420006
0.052809775 0.2665945 0.92420006
0.06618128 0.26703712 0.92444444
0.075121008 0.2660636 0.92362499
0.084975779 0.26614401 0.92320836
0.094072007 0.26586759 0.92280012
0.10389076 0.26513466 0.92387503
0.11628348 0.26510406 0.92357147
0.12461004 0.26541048 0.92483348
0.1338477 0.26475126 0.92300004
0.14550778 0.26475665 0.92435724
0.15381375 0.26525828 0.92500007
0.16581096 0.26370031 0.92547619
0.17344967 0.26352987 0.92376924
0.18591091 0.26425326 0.92500007
0.19556378 0.26277384 0.92357135
0.20435253 0.26281002 0.92381257
0.21519375 0.2624571 0.92433345
0.22587641 0.26396197 0.92478585
0.23434205 0.2630426 0.92388898
0.24539308 0.26278242 0.92330784
0.2539002 0.26263598 0.92433339
0.26474333 0.2625306 0.92600012
0.27483651 0.2628001 0.92412508
0.28566128 0.26263902 0.92335725
0.29534507 0.26130337 0.92330784
0.30516613 0.26111254 0.92241669
0.31456047 0.2611022 0.92263651
0.32149974 0.26094806 0.92240012
0.34666124 0.26019609 0.92200005
0.35226548 0.26019609 0.92200005
-0.50148076 0.27931592 0.92700005
-0.49520105 0.27849814 0.92429417
-0.48494419 0.27788678 0.92310536
-0.47651741 0.27700615 0.92200005
-0.4631432 0.27703217 0.92570591
-0.45457467 0.27529612 0.92329025
-0.44544247 0.27529198 0.92324013
-0.43543205 0.27637231 0.92456257
-0.42519748 0.27559006 0.92216671
-0.41447335 0.27426946 0.92266673
-0.40495291 0.27413926 0.92292321
-0.39525303 0.27432656 0.92264706
-0.38475415 0.27578396 0.92400008
-0.37451246 0.27441925 0.92377788
-0.36529362 0.27543634 0.92394751
-0.35547006 0.27474937 0.9233889
-0.34513769 0.27486691 0.92180008
-0.33439347 0.27425051 0.92350006
-0.32446685 0.27513933 0.92264295
-0.31505969 0.27403277 0.92412508
-0.30478463 0.27374831 0.92369229
-0.29539868 0.27404082 0.92381257
-0.2858063 0.27378434 0.92283338
-0.2741589 0.27216128 0.92050004
-0.26621395 0.27349505 0.92218196
-0.25112838 0.27413052 0.92400002
-0.24418402 0.27300575 0.92200005
-0.23345315 0.27589869 0.92580014
-0.22556047 0.27491695 0.92535734
-0.21416588 0.27378875 0.92215395
-0.20402923 0.27342957 0.92290002
-0.19447859 0.27174464 0.92255563
-0.18594429 0.27232188 0.92357147
-0.17179585 0.27374601 0.92450005
-0.16468222 0.27233565 0.92307705
-0.15566808 0.272066 0.9230001
-0.14450391 0.2710025 0.92200005
-0.13502033 0.27164873 0.92478579
-0.12515719 0.27197307 0.92394459
-0.11478897 0.27263567 0.92510003
-0.10479984 0.27210301 0.92352647
-0.096858107 0.27135345 0.9218334
-0.084281847 0.2717016 0.92437506
-0.074555099 0.27072608 0.92333341
-0.053087179 0.27115792 0.92428577
-0.048407268 0.27092117 0.92400002
-0.0040160418 0.2706812 0.92500013
0.0024096253 0.2706812 0.92500007
-0.50347638 0.28064337 0.92475009
-0.49376693 0.28095403 0.92050004
-0.48604581 0.28194952 0.92053342
-0.47692341 0.28040221 0.92000002
-0.46680245 0.28072378 0.92633343
-0.45934835 0.28040221 0.92000002
-0.44976196 0.28040221 0.92000002
-0.12202747 -0.38062876 0.9306668
-0.11481799 -0.38132828 0.93418193
-0.1063204 -0.38146573 0.93470013
-0.13082311 -0.37228057 0.93000019
-0.12411319 -0.37468553 0.93186104
-0.11598274 -0.37536028 0.93583792
-0.10766647 -0.37642613 0.93650019
-0.1330727 -0.36466652 0.93000031
-0.12484989 -0.36491445 0.93353647
-0.11849017 -0.36577415 0.93677789
-0.14616655 -0.3537069 0.93000007
-0.13348262 -0.35536626 0.93025023
-0.12503091 -0.35507551 0.93502778
-0.11913844 -0.35369593 0.93700016
-0.14379776 -0.34385481 0.93000031
-0.13452709 -0.3452909 0.93050015
-0.12545086 -0.34521934 0.93612826
-0.11878974 -0.34904656 0.93700004
-0.14355755 -0.33538175 0.93000025
-0.13520667 -0.33549842 0.93195832
-0.12529877 -0.33521488 0.93700016
-0.11960337 -0.33358762 0.93700004
-0.14308216 -0.32464674 0.93096679
-0.13468465 -0.32479453 0.93278551
-0.12678321 -0.32528618 0.93621743
-0.14356151 -0.31535679 0.93084639
-0.13488361 -0.31476799 0.93381077
-0.12674418 -0.31560919 0.93616676
-0.14261334 -0.30719203 0.93000025
-0.13529684 -0.30513325 0.93279082
-0.12606516 -0.3044939 0.93665528
-0.1350393 -0.29509297 0.93065786
-0.12502651 -0.29471678 0.935
-0.13188802 -0.28512305 0.93019068
-0.12492221 -0.28500718 0.9342221
-0.11878975 -0.28363085 0.93700022
-0.13251716 -0.27445722 0.93008363
-0.12474599 -0.27487409 0.9323712
-0.11671848 -0.27441114 0.93646169
-0.13216902 -0.26537636 0.93000025
-0.12464676 -0.26521441 0.93264854
-0.11666487 -0.26540795 0.93603855
-0.13082312 -0.25518581 0.93000025
-0.12451912 -0.25497541 0.93119442
-0.11604216 -0.25468358 0.93586671
-0.13132629 -0.24504529 0.93013364
-0.12474572 -0.24488245 0.93167478
-0.11517614 -0.24492034 0.93564111
-0.10983983 -0.24002036 0.93700004
-0.13279429 -0.23466928 0.93007171
-0.12460562 -0.23467922 0.93313158
-0.11564548 -0.23460704 0.93638486
-0.10983983 -0.23757948 0.93700004
-0.13430098 -0.22411963 0.93055284
-0.12517157 -0.22461644 0.93487513
-0.11732521 -0.22553781 0.93700022
-0.14325938 -0.21324706 0.93000031
-0.13513441 -0.21478876 0.93192858
-0.12528351 -0.21477199 0.93688899
-0.11878973 -0.21479788 0.93700022
-0.15101185 -0.2035026 0.93000007
-0.14524366 -0.20500237 0.93000019
-0.13525319 -0.20513766 0.93274415
-0.12525341 -0.20496057 0.93666673
-0.11919656 -0.20706843 0.93700004
-0.15296701 -0.19470453 0.93000019
-0.14490618 -0.19469918 0.9309113
-0.13526525 -0.19547996 0.93469065
-0.12735677 -0.19656305 0.93700022
-0.1712006 -0.18008366 0.93000007
-0.16411033 -0.18126141 0.93030792
-0.15498042 -0.18492921 0.93160963
-0.14543125 -0.1854303 0.93492681
-0.13652684 -0.18859906 0.93700022
-0.17370246 -0.17325053 0.93008018
-0.16466255 -0.17454688 0.93418187
-0.15548526 -0.17652327 0.93654853
-0.14780916 -0.17872703 0.93700016
-0.20527922 -0.16134849 0.93000025
-0.19427371 -0.163054 0.93052018
-0.18496749 -0.16431887 0.93358535
-0.17516458 -0.16518256 0.93465859
-0.16714078 -0.16795383 0.93591684
-0.23015176 -0.15101185 0.93000007
-0.22341576 -0.15185188 0.93020022
-0.21401155 -0.15365385 0.93119371
-0.20505631 -0.15467969 0.93290919
-0.19554083 -0.15562628 0.93422508
-0.1865921 -0.15716588 0.93700022
-0.40399814 -0.14298905 0.93257904
-0.39793199 -0.14220391 0.93050015
-0.26330727 -0.1412733 0.93215406
-0.25491002 -0.14342888 0.93290323
-0.24476518 -0.14436893 0.93309551
-0.23515511 -0.14600591 0.93418431
-0.22495723 -0.14738223 0.93407154
-0.21552072 -0.14810282 0.93544465
-0.20584798 -0.14889398 0.9370001
-0.39653051 -0.13864331 0.93100005
-0.33152881 -0.13252981 0.93350005
-0.32500294 -0.13444585 0.93363178
-0.31523111 -0.1330194 0.93386978
-0.30457935 -0.13267933 0.93240005
-0.29521927 -0.13461767 0.93275023
-0.28522202 -0.13566633 0.93350005
-0.27505866 -0.13779534 0.93304193
-0.26646981 -0.13864636 0.93466687
-0.25547931 -0.13913046 0.93700016
-0.24761423 -0.13913044 0.93700004
-0.3156206 -0.1280375 0.93680018
-0.30787152 -0.1283462 0.93550003
-0.28883806 -0.12367151 0.93700004
-0.14119998 0.17914152 0.93633336
-0.13452928 0.17620353 0.93385023
-0.1249757 0.17562908 0.93300015
-0.11608779 0.17616068 0.93490922
-0.14358369 0.18529625 0.93287522
-0.13930237 0.18129498 0.93000007
-0.14610088 0.1946864 0.93265009
-0.15052125 0.20177984 0.93700004
-0.14648993 0.20441307 0.93264729
-0.14455146 0.21561585 0.93000007
-0.091253154 0.23822726 0.93000007
-0.085600302 0.24226502 0.93000007
0.27826089 0.25954744 0.93700004
0.28476992 0.25954747 0.93700016
0.29446107 0.25930402 0.93612504
0.30588111 0.25945097 0.9349001
0.31522438 0.25944158 0.9337002
0.3253437 0.25955293 0.93436372
0.33522624 0.25955227 0.93436384
0.34679094 0.25908056 0.93372738
0.35464305 0.25771403 0.93347377
0.36405638 0.25822943 0.93460017
0.37398142 0.25891289 0.93325007
0.38488036 0.25847781 0.93314296
0.39524516 0.25823346 0.93275011
0.404596 0.25698867 0.9330911
0.41463423 0.25762576 0.93300021
0.42382121 0.25679776 0.93454552
0.4304094 0.25792018 0.93700004
0.50904131 0.25654387 0.93200004
0.51250601 0.2537142 0.93500006
-0.31210071 0.26902357 0.93600005
-0.30559674 0.26819289 0.93386692
-0.14132126 0.26891416 0.93000007
-0.13889861 0.26810661 0.93000007
-0.1263123 0.26755342 0.93250024
-0.11168157 0.26949248 0.93200004
-0.10434293 0.26693261 0.93339151
-0.095192894 0.26570457 0.93428576
-0.083590731 0.26930615 0.93457156
-0.074223638 0.2692529 0.93372738
-0.065626614 0.26923919 0.93300015
-0.058951151 0.26891416 0.93000007
-0.045400463 0.26931098 0.9370001
-0.034081943 0.26940173 0.9345001
-0.024957746 0.26930675 0.93487513
-0.01459156 0.26911327 0.93350023
-0.0047976756 0.26878184 0.93300021
0.0048600622 0.26892152 0.93283343
0.014212186 0.26818442 0.93346685
0.024298787 0.2674799 0.93275011
0.035117138 0.26680523 0.93500018
0.044997633 0.26568618 0.93438482
0.05504394 0.26673087 0.93366688
0.065159336 0.26617333 0.93481827
0.071509853 0.26419014 0.93233341
0.086933196 0.2656779 0.93566674
0.095929861 0.26523283 0.933231
0.10451385 0.26483357 0.93306267
0.11584396 0.26463762 0.93409097
0.12450957 0.26398265 0.9331336
0.1354308 0.26446587 0.93462515
0.14393553 0.26488245 0.93440014
0.15521182 0.2643584 0.93281269
0.1615162 0.26413235 0.93237501
0.17752193 0.26343948 0.93350017
0.18418966 0.26411608 0.93360013
0.19406708 0.26199895 0.93125004
0.205746 0.26188183 0.93244445
0.21478435 0.26212186 0.93458343
0.22462742 0.26312178 0.9333334
0.234492 0.26158571 0.93350011
0.24449973 0.26280865 0.93414307
0.25585279 0.26247507 0.93391681
0.26507157 0.26195279 0.93353862
0.27535936 0.2623719 0.93475014
0.28515416 0.26210198 0.93480009
0.29500315 0.26112098 0.93462503
0.3038874 0.26093829 0.93325001
0.31685632 0.26076484 0.93166673
0.32352972 0.26079437 0.93100005
0.33368748 0.26061723 0.93500006
0.37066546 0.26083866 0.93000007
-0.50589669 0.27849868 0.93416685
-0.49408174 0.27752432 0.93257159
-0.48335734 0.27655375 0.93400002
-0.47415763 0.27573103 0.93269235
-0.46589997 0.2736963 0.93141192
-0.45547616 0.27211645 0.93246168
-0.44461456 0.27342251 0.93321067
-0.43483853 0.27400851 0.93286377
-0.42537621 0.27467009 0.93310535
-0.41506863 0.27396405 0.93391681
-0.40535519 0.27375409 0.93440008
-0.39448512 0.27410951 0.93350017
-0.38502294 0.27402449 0.93305576
-0.37446189 0.27261114 0.93368769
-0.36516064 0.27258599 0.93204772
-0.35531622 0.27425876 0.93353355
-0.34486532 0.27477565 0.93450016
-0.335329 0.2732884 0.93363178
-0.32501742 0.27493435 0.93300009
-0.31528345 0.27220848 0.93300021
-0.30410448 0.27132991 0.93206269
-0.29511362 0.2735492 0.93370008
-0.28486031 0.27395737 0.93318194
-0.27473363 0.27355161 0.93481839
-0.26485458 0.2734457 0.93335021
-0.25558996 0.27486068 0.93443769
-0.24442691 0.27376181 0.9351877
-0.23497544 0.2729004 0.93238461
-0.22508661 0.27334622 0.93292874
-0.21514913 0.27430934 0.93325007
-0.20533304 0.27360666 0.93400019
-0.19538693 0.27192453 0.93227291
-0.18339293 0.2735166 0.93193769
-0.17470545 0.27290779 0.93209541
-0.16495872 0.2716924 0.93321449
-0.15631671 0.27193487 0.93274999
-0.14562818 0.271606 0.93000007
-0.1231984 0.27081284 0.93257159
-0.1156175 0.2712014 0.93325019
-0.10578906 0.27052927 0.93000013
-0.093990512 0.27208218 0.93395007
-0.08597859 0.2714797 0.93327284
-0.07510215 0.27052927 0.93000007
-0.054280706 0.27081037 0.93300015
-0.045713842 0.27057314 0.93350011
-0.037701949 0.27040225 0.93375003
-0.023950804 0.27035993 0.93500006
0.018613594 0.27111104 0.93200004
-0.50633389 0.28021985 0.93000007
-0.48307556 0.28010264 0.93500006
-0.47428802 0.28097618 0.93050015
-0.10121839 -0.38281149 0.94114292
-0.094966032 -0.38330001 0.9443332
-0.088141784 -0.38464892 0.94730771
-0.1125236 -0.37255225 0.94000012
-0.10341024 -0.37446827 0.94206452
-0.096748173 -0.37590379 0.94727582
-0.11393041 -0.36517236 0.9404574
-0.10494632 -0.36506596 0.94369233
-0.098055273 -0.36573404 0.94800007
-0.11436633 -0.35540199 0.9407897
-0.10503545 -0.35452747 0.94349974
-0.099055998 -0.35643697 0.94800007
-0.12161877 -0.34689918 0.94000006
-0.11521604 -0.34512264 0.94288915
-0.10535994 -0.34550303 0.94694591
-0.099604785 -0.34820518 0.94800013
-0.12161877 -0.33057451 0.94000006
-0.11527941 -0.3348926 0.94159484
-0.10619862 -0.33542877 0.94761288
-0.12290142 -0.32521072 0.9400003
-0.11515374 -0.32524008 0.94148833
-0.10650475 -0.32475898 0.94755554
-0.12274894 -0.31437537 0.9400003
-0.11528965 -0.31511047 0.94226086
-0.10552065 -0.3148182 0.94781822
-0.12284312 -0.30731183 0.94000006
-0.11522976 -0.30470508 0.94151217
-0.10530237 -0.30470288 0.94658816
-0.099604785 -0.30375344 0.94800007
-0.11530135 -0.29511058 0.94143885
-0.10519237 -0.29486465 0.94445443
-0.098987401 -0.29366949 0.94800001
-0.1138794 -0.28556013 0.94090331
-0.10491941 -0.28525865 0.94399983
-0.096537657 -0.28428438 0.94764
-0.11176611 -0.27548754 0.94037521
-0.10474575 -0.27497017 0.94244438
-0.095367901 -0.27487633 0.94683331
-0.11200534 -0.26373407 0.94000036
-0.10457592 -0.26484427 0.94191897
-0.095647648 -0.2651512 0.94733334
-0.11073566 -0.25548103 0.94000012
-0.10474604 -0.25492829 0.94140017
-0.095552586 -0.25493047 0.9474858
-0.089726619 -0.25765535 0.94800007
-0.1101915 -0.24568625 0.94000006
-0.10460527 -0.24517365 0.94116676
-0.095058031 -0.2451632 0.94599986
-0.089726619 -0.24942355 0.94800007
-0.1101915 -0.23344274 0.94000006
-0.10456229 -0.23527043 0.9407779
-0.095201969 -0.23536985 0.94499993
-0.11265078 -0.22414564 0.94066691
-0.10469527 -0.22493343 0.94197619
-0.095843233 -0.22565916 0.94620001
-0.089726619 -0.22884405 0.94800007
-0.11367335 -0.21527605 0.94035745
-0.104954 -0.21483739 0.94433331
-0.098428823 -0.21614358 0.94800007
-0.11452094 -0.20536843 0.94015396
-0.10481279 -0.20465039 0.94476914
-0.097431593 -0.20484014 0.94800001
-0.13141356 -0.19018237 0.94000006
-0.12414005 -0.19352567 0.9400773
-0.11520247 -0.19521421 0.9425801
-0.10602344 -0.19570194 0.94750005
-0.099604785 -0.1975632 0.94800007
-0.14243272 -0.18079568 0.94000006
-0.13466685 -0.18392262 0.94091451
-0.12452544 -0.18474297 0.94275618
-0.11615089 -0.18588939 0.94725001
-0.10783658 -0.1852155 0.94800007
-0.15364023 -0.17209969 0.9400003
-0.14474277 -0.17444535 0.94147205
-0.13506699 -0.17514427 0.9458003
-0.12653677 -0.17674305 0.94714284
-0.11853792 -0.17863007 0.94800007
-0.17249732 -0.16134213 0.94000006
-0.16439424 -0.16341735 0.94267577
-0.1549798 -0.16520247 0.94460475
-0.14538458 -0.16729476 0.94633323
-0.13780035 -0.16809337 0.94800007
-0.19222431 -0.15207523 0.94200021
-0.18430796 -0.15383433 0.94254845
-0.17493907 -0.1558975 0.94471067
-0.16504981 -0.15706965 0.94755
-0.15887377 -0.15722738 0.94800013
-0.233605 -0.14137807 0.94114292
-0.22514372 -0.14247738 0.94367993
-0.21488507 -0.14305644 0.94299996
-0.20501888 -0.1448181 0.94338471
-0.19565797 -0.147378 0.94591308
-0.18727346 -0.14858399 0.94800007
-0.4065311 -0.13987288 0.94200009
-0.3321625 -0.13087104 0.94080013
-0.3259851 -0.13138652 0.94161552
-0.29466027 -0.13168566 0.94000006
-0.28422794 -0.13155639 0.94260013
-0.27519605 -0.13327447 0.94388467
-0.26472992 -0.13389699 0.94324338
-0.25555015 -0.13552737 0.94392872
-0.24493949 -0.13754658 0.94371426
-0.23580441 -0.13879767 0.94375008
-0.22555134 -0.13911742 0.94800007
-0.21814272 -0.13911742 0.94800013
-0.3320958 -0.12842129 0.94200003
-0.32583466 -0.12795155 0.94255555
-0.31561026 -0.12787655 0.94000006
-0.30513883 -0.12843238 0.94211113
-0.29502502 -0.1276162 0.94066691
-0.28625637 -0.12873459 0.94338477
-0.27609459 -0.12858073 0.94800007
-0.2656067 -0.12910295 0.94700003
-0.13047142 0.16985904 0.94500005
-0.12265383 0.16875193 0.94800013
-0.11766154 0.1682045 0.94757146
-0.14434882 0.17627063 0.94499999
-0.1355134 0.17214112 0.94322729
-0.12473983 0.17204906 0.94335997
-0.11790162 0.17300466 0.94160002
-0.1511395 0.18630049 0.94725001
-0.14747323 0.18420833 0.94209093
-0.15377118 0.19525948 0.94527775
-0.1493707 0.19099861 0.94000006
-0.47314554 0.20643528 0.94800007
-0.46838942 0.20497182 0.94800007
-0.15344754 0.20103741 0.94500005
-0.47464705 0.22776942 0.94560009
-0.46470526 0.22823873 0.94762504
-0.4739227 0.23465799 0.94615382
-0.46681723 0.23247661 0.94663638
-0.474792 0.24247225 0.94800007
0.27996805 0.25874597 0.94000006
0.28535998 0.25872502 0.94263649
0.29467413 0.25899294 0.94355565
0.30458391 0.25885606 0.94040006
0.31511194 0.25918642 0.94160002
0.32534146 0.25834772 0.94452637
0.33474088 0.25798076 0.94519055
0.34621498 0.25788465 0.94483346
0.35445088 0.25627434 0.9409169
0.3659544 0.25627321 0.94153863
0.37492204 0.25757086 0.94263166
0.3856245 0.25775734 0.94457889
0.3950429 0.25728136 0.94387496
0.40459999 0.25619552 0.94350016
0.41498601 0.25547206 0.94381827
0.42535853 0.25528347 0.94321752
0.43188429 0.25581491 0.94200003
0.50958622 0.25397056 0.94350004
0.51415431 0.2531693 0.94421059
0.52107298 0.2510699 0.94800007
-0.3336224 0.26886383 0.94400012
-0.32964191 0.26911214 0.94200003
-0.14270906 0.2689656 0.94725001
-0.12284473 0.26927403 0.94585723
-0.11497494 0.26936027 0.94575012
-0.10739243 0.26745841 0.94050002
-0.090601906 0.26527584 0.94000006
-0.08693935 0.26791713 0.94308341
-0.075738095 0.26895052 0.94287503
-0.067961842 0.26939783 0.94300002
-0.052922383 0.26853144 0.9466154
-0.044962849 0.26833895 0.94505262
-0.035108887 0.26977187 0.94575006
-0.023992548 0.26928508 0.94342864
-0.014145646 0.2690402 0.94257146
-0.0050021792 0.26838315 0.94200009
0.0052376133 0.26845571 0.94200003
0.015068922 0.26736656 0.94384623
0.023473656 0.26838204 0.94520009
0.033599641 0.26673189 0.94400007
0.045113068 0.26575983 0.94462508
0.055504642 0.26654664 0.94417638
0.064051211 0.26623866 0.94476938
0.076103583 0.26650178 0.94513333
0.084264487 0.26649958 0.94381821
0.095642343 0.26557317 0.94581825
0.1051919 0.26396751 0.94350016
0.11461851 0.26377004 0.94380951
0.12432122 0.26348749 0.94400007
0.13556218 0.26412669 0.94366676
0.14449635 0.26316863 0.94309098
0.15419304 0.26414868 0.94500005
0.16288656 0.26482099 0.9467144
0.17587948 0.26505846 0.94700009
0.18579182 0.26295865 0.94257152
0.19392954 0.26362571 0.94433343
0.20532611 0.26292005 0.94400001
0.21324506 0.26188824 0.94310009
0.22479738 0.26309675 0.94390923
0.23467785 0.26129642 0.94423091
0.24457389 0.26206273 0.94411117
0.25575107 0.26211888 0.94366676
0.26450646 0.26113012 0.94411772
0.27441466 0.26095408 0.94335723
0.31590548 0.26020765 0.94333339
0.34363601 0.26094288 0.9460001
0.37138617 0.26037845 0.94000006
0.39424071 0.26037845 0.94000006
-0.51321918 0.27916715 0.94466674
-0.50530308 0.27891812 0.94530004
-0.49621606 0.27921882 0.94457155
-0.48485506 0.2779426 0.94342864
-0.47851247 0.27401996 0.94200003
-0.46295977 0.27382982 0.94700003
-0.45597142 0.2737968 0.94500005
-0.44426021 0.27377859 0.94400007
-0.43395081 0.27339423 0.94337505
-0.42443347 0.27327856 0.94292319
-0.41503611 0.2733615 0.94405884
-0.4056215 0.27310997 0.94200009
-0.39471632 0.2724773 0.94375002
-0.38558447 0.27245677 0.94307148
-0.37580216 0.27154809 0.94288892
-0.36557007 0.27290112 0.94450003
-0.35449609 0.27376345 0.94411772
-0.34658468 0.27340689 0.94400012
-0.33419481 0.27209401 0.9410001
-0.32662329 0.27320874 0.94345009
-0.31824723 0.27161339 0.94216669
-0.30154631 0.27236161 0.94420004
-0.29544678 0.27398911 0.94566673
-0.28540504 0.27402058 0.94540018
-0.27584705 0.27311081 0.94388896
-0.26451281 0.2730127 0.94418192
-0.2544291 0.27329007 0.94443762
-0.24540035 0.27214864 0.94308347
-0.23524086 0.27182081 0.94460011
-0.22484787 0.27306068 0.94466674
-0.21525916 0.27380431 0.94486368
-0.20556092 0.27216512 0.94358826
-0.19525768 0.27215034 0.94200009
-0.18521129 0.27286848 0.9440667
-0.17548767 0.27191749 0.94400001
-0.16483493 0.27150431 0.94350016
-0.15422218 0.27305028 0.94537497
-0.14654538 0.27314433 0.94585717
-0.122435 0.27017325 0.94000006
-0.11580423 0.27045479 0.94288892
-0.083212972 0.27039093 0.94266671
-0.079174638 0.27017325 0.94000006
-0.062169023 0.2708368 0.94460005
-0.055942252 0.27034867 0.94142866
-0.0465253 0.27017325 0.94000006
-0.035506152 0.27017325 0.94000006
-0.0269357 0.27017325 0.94000006
-0.017140901 0.27017325 0.94000006
-0.49555439 0.28070438 0.94800007
-0.071993001 -0.39089677 0.95740002
-0.06654907 -0.39097577 0.95800012
-0.091565751 -0.3802866 0.95000005
-0.083365194 -0.3837111 0.9522
-0.075570531 -0.38517472 0.95583797
-0.067380935 -0.38848019 0.95800006
-0.092094392 -0.373501 0.95093334
-0.085279353 -0.3747752 0.95527297
-0.078028783 -0.37500402 0.95800012
-0.092874721 -0.3646231 0.95218533
-0.085027374 -0.36464036 0.95741677
-0.079027027 -0.36435616 0.95800012
-0.093971677 -0.35450909 0.95275694
-0.085444249 -0.35536408 0.95800012
-0.079027019 -0.3568694 0.95800006
-0.094997413 -0.34453088 0.95266664
-0.086587004 -0.34403417 0.95736855
-0.10245466 -0.3345862 0.94999993
-0.095155105 -0.3346276 0.95218611
-0.08545392 -0.33424559 0.95711762
-0.079027019 -0.33191347 0.95800006
-0.1020147 -0.32437557 0.94999993
-0.095099948 -0.32479426 0.95280993
-0.085164227 -0.32485837 0.95780021
-0.079027019 -0.32442671 0.95800006
-0.10146476 -0.31511816 0.95000005
-0.095058106 -0.31484124 0.95239019
-0.085456595 -0.31445619 0.95725012
-0.079027027 -0.31444436 0.95800012
-0.10146476 -0.30934376 0.95000005
-0.094355807 -0.30493057 0.95076495
-0.084668107 -0.30471033 0.95708835
-0.078789346 -0.30434316 0.95800018
-0.094533853 -0.29555118 0.9501037
-0.085220054 -0.29482016 0.95530778
-0.07746727 -0.29416767 0.95800012
-0.09255565 -0.286906 0.94999993
-0.085426919 -0.28530544 0.95426321
-0.076365061 -0.28466365 0.95800006
-0.085134827 -0.27524844 0.95147514
-0.075245678 -0.27432933 0.95665526
-0.091565751 -0.2614986 0.95000005
-0.085019499 -0.26532462 0.95106965
-0.074806258 -0.26487809 0.95725018
-0.069044657 -0.26037323 0.95800006
-0.091565751 -0.25984874 0.95000005
-0.084973678 -0.25534555 0.95104998
-0.074704997 -0.2548413 0.95597053
-0.069044657 -0.25455022 0.95800012
-0.085099146 -0.24486208 0.95071763
-0.074831218 -0.24523872 0.95508832
-0.06842076 -0.24352801 0.95800012
-0.084895387 -0.23452196 0.95058566
-0.074451059 -0.2351387 0.95413518
-0.067840837 -0.23500778 0.95778584
-0.092390671 -0.22190261 0.94999999
-0.084845699 -0.22427672 0.95000035
-0.074569181 -0.22507465 0.95536858
-0.068711914 -0.2264332 0.95800012
-0.093815535 -0.21447834 0.95000011
-0.085053131 -0.21470208 0.95100033
-0.075886525 -0.21530202 0.95606893
-0.092574574 -0.20434658 0.95019996
-0.084991433 -0.20516904 0.95415926
-0.077702127 -0.2061362 0.95778584
-0.10403116 -0.19147232 0.94999993
-0.094714977 -0.19483723 0.95290506
-0.085247524 -0.19524032 0.95767576
-0.11361353 -0.18215661 0.94999993
-0.1049451 -0.18490738 0.95130026
-0.095429935 -0.18569374 0.95661122
-0.087012917 -0.18733564 0.95800012
-0.12401247 -0.17304921 0.94999993
-0.1146017 -0.17456241 0.95214301
-0.10547832 -0.17675683 0.95600015
-0.097743943 -0.1784347 0.95800006
-0.15178467 -0.16085875 0.95000005
-0.14367151 -0.16233702 0.95223808
-0.13463192 -0.1643777 0.95460528
-0.12524016 -0.16598015 0.95552635
-0.11617513 -0.1683159 0.95613343
-0.18230659 -0.15095976 0.95000005
-0.17452881 -0.15119545 0.94999999
-0.16421932 -0.15212558 0.95168179
-0.15468082 -0.15467459 0.95287198
-0.14556386 -0.15635473 0.95590633
-0.13630676 -0.15841055 0.95800018
-0.20276451 -0.14139073 0.94999999
-0.19384204 -0.14262028 0.95278275
-0.18491003 -0.14494759 0.95422226
-0.17540227 -0.14703862 0.95433331
-0.16602539 -0.14760715 0.95555001
-0.15722218 -0.14890353 0.95800006
-0.25328758 -0.13225245 0.95192862
-0.2450393 -0.13298994 0.95271987
-0.2348011 -0.13377742 0.95357174
-0.22512843 -0.13438763 0.95388585
-0.21503212 -0.13688567 0.95499998
-0.20530786 -0.13782258 0.95409095
-0.19690621 -0.13879322 0.95609105
-0.28294644 -0.12786208 0.95000005
-0.27964675 -0.12868699 0.95000005
-0.2623235 -0.12951192 0.95000005
-0.25618652 -0.12885322 0.95225
-0.24537495 -0.12857369 0.95530003
-0.2344373 -0.12727508 0.95487505
-0.22460312 -0.12893882 0.95800006
-0.14313856 0.16922602 0.95600015
-0.13486882 0.16812146 0.95483333
-0.12590469 0.16638047 0.95139998
-0.15272832 0.17615531 0.95525008
-0.14662212 0.17264216 0.95253336
-0.48134822 0.18838948 0.95574999
-0.47393003 0.18598436 0.95407128
-0.46596488 0.18727328 0.95521438
-0.16038203 0.18863414 0.95700014
-0.15571505 0.18475175 0.95341671
-0.48355025 0.19584222 0.95540005
-0.47528192 0.19504248 0.9525311
-0.46407595 0.19526124 0.95267993
-0.45835671 0.19881535 0.95800006
-0.16221336 0.19216044 0.95800006
-0.15735006 0.19321492 0.95054543
-0.4832474 0.20460656 0.95321053
-0.47537303 0.20337601 0.95209998
-0.46401024 0.20520699 0.9534893
-0.45669302 0.205924 0.95800012
-0.15673417 0.20045476 0.95000005
-0.48407876 0.21544878 0.95295459
-0.47467956 0.21488814 0.95162505
-0.4647969 0.21509734 0.95397425
-0.45751792 0.21739915 0.95486677
-0.48396283 0.22437766 0.95319039
-0.4747695 0.22372156 0.95126951
-0.46521831 0.22349598 0.9505772
-0.45604375 0.22529027 0.95343924
-0.49317563 0.23555888 0.9563334
-0.48470506 0.23516937 0.95130789
-0.47333717 0.23609117 0.94999999
-0.46389613 0.23609611 0.95108014
-0.45478389 0.2348979 0.95465297
-0.44671062 0.23208988 0.95800006
-0.49089122 0.24648315 0.95574999
-0.48476738 0.24435908 0.95177776
-0.47454602 0.24528947 0.95253146
-0.46460533 0.2440611 0.95484
-0.45675713 0.2421387 0.95388901
0.52326202 0.24960676 0.95500004
-0.49167264 0.2523461 0.95700014
-0.48437622 0.25497901 0.95455176
-0.47651672 0.25392804 0.95526093
0.2660211 0.25940499 0.95241666
0.27476278 0.25947398 0.95376927
0.28120756 0.25970331 0.95250005
0.29438671 0.25955787 0.95500004
0.3068614 0.25977603 0.95125002
0.31515834 0.25928569 0.95324999
0.32383743 0.25737843 0.95307696
0.33565721 0.25658676 0.95260012
0.34447879 0.25664699 0.95299995
0.35643038 0.25696105 0.95460004
0.36404637 0.25686148 0.95500004
0.37573218 0.25681913 0.95100009
0.38540569 0.25535399 0.95395458
0.39479184 0.25409353 0.95252639
0.4049888 0.25453448 0.95350009
0.41364217 0.25474122 0.95422226
0.42506102 0.25388256 0.95237505
0.43038508 0.25292379 0.95500004
0.51747966 0.25143242 0.95250005
0.5231635 0.25065267 0.95583344
-0.49329495 0.26286882 0.95800006
-0.48523474 0.26203856 0.95757157
-0.47855911 0.26203698 0.95800018
-0.42358607 0.26910043 0.95650005
-0.35561293 0.26966816 0.95166671
-0.30185002 0.26950896 0.95500004
-0.23345143 0.26974776 0.95000005
-0.22466776 0.26909959 0.95271426
-0.21491423 0.26876655 0.95120013
-0.20782372 0.26893011 0.95100009
-0.15100187 0.2688182 0.95550007
-0.1470369 0.26846305 0.95129997
-0.12400267 0.26849771 0.95362508
-0.11446892 0.26949218 0.95300007
-0.083707474 0.26884401 0.95446163
-0.078820795 0.2688182 0.95550007
-0.061888374 0.26895636 0.95540011
-0.055499528 0.26742968 0.95136356
-0.044637162 0.26608145 0.94999993
-0.036727276 0.26866037 0.95200014
-0.024148203 0.26940417 0.95366669
-0.015597004 0.26940417 0.95366669
-0.0037225452 0.26936439 0.95450002
0.0051157866 0.26900271 0.95566672
0.014939098 0.2672523 0.95583344
0.024814144 0.26744601 0.95258331
0.035794675 0.26744547 0.95463645
0.045058399 0.26499024 0.95500004
0.054584898 0.26463121 0.95473683
0.064718917 0.26549989 0.95550007
0.07462512 0.2635873 0.95448011
0.084808163 0.2649624 0.95310533
0.09446907 0.26464987 0.9543125
0.10453889 0.26448098 0.95481825
0.11508705 0.26216683 0.95157152
0.12596118 0.26385999 0.95342875
0.13499117 0.26419079 0.95376933
0.14623277 0.26384005 0.95550007
0.15513724 0.26381701 0.9554168
0.16587506 0.26430425 0.9545626
0.17571622 0.26326185 0.95416677
0.1844307 0.26257631 0.95473337
0.19612727 0.26287547 0.95300007
0.20527726 0.26321942 0.95325005
0.21571377 0.26219183 0.9558183
0.22527182 0.26173827 0.9545002
0.2334576 0.26151156 0.95508337
0.24615166 0.26231825 0.95450008
0.25458527 0.26261708 0.95453852
0.26112232 0.26112521 0.95466679
0.27823788 0.26079482 0.95650005
0.29537866 0.26057065 0.95466679
0.30460021 0.26061246 0.95583344
-0.52160352 0.27946007 0.95500004
-0.51529783 0.2779381 0.95385724
-0.50430167 0.27774304 0.95347059
-0.49531776 0.2772975 0.95438468
-0.4861227 0.27597222 0.95442867
-0.47526219 0.2752822 0.95562506
-0.46571654 0.27398792 0.95327282
-0.45403475 0.27568489 0.95533341
-0.44484288 0.27405715 0.954
-0.43570361 0.27372822 0.95333338
-0.42509565 0.27249721 0.95430779
-0.41575563 0.27256009 0.95407152
-0.40436265 0.27325734 0.95458335
-0.39403319 0.27207261 0.95333338
-0.3869755 0.27245745 0.95371443
-0.37277898 0.27336523 0.95400006
-0.364517 0.27220261 0.9531765
-0.35464394 0.27181154 0.95282352
-0.3461079 0.27247199 0.95128584
-0.33484381 0.27292123 0.95533341
-0.32512558 0.27287361 0.9551667
-0.31843519 0.27282599 0.95500004
-0.30290818 0.27125269 0.95312506
-0.29486349 0.27161488 0.9528001
-0.28528178 0.27242166 0.95315385
-0.27594888 0.272919 0.95291674
-0.26508147 0.27253735 0.95400012
-0.25571498 0.2720035 0.95358336
-0.24531426 0.27158752 0.95469236
-0.2346119 0.27103168 0.95328575
-0.22492512 0.27103487 0.95136368
-0.21564321 0.2709986 0.95150006
-0.20483346 0.27161199 0.95333332
-0.19510046 0.27269706 0.95340008
-0.18589185 0.27139077 0.95230001
-0.17507711 0.27238429 0.9542858
-0.16498576 0.2720848 0.95553857
-0.15458244 0.27117249 0.95290917
-0.148485 0.27139759 0.95000005
-0.11636171 0.27072638 0.95580006
-0.083579689 0.2705996 0.95300007
-0.073297322 0.27076155 0.95650011
-0.065016977 0.27116558 0.95500004
-0.032773942 0.27047759 0.95550007
-0.027451489 0.27035558 0.95800006
-0.016637268 0.27035558 0.95800006
-0.0051549482 0.2704044 0.95700008
0.0024890776 0.27047759 0.95550007
-0.52051115 0.28052986 0.95300007
-0.061750658 -0.39220011 0.96100003
-0.055413343 -0.3929691 0.96699989
-0.072042435 -0.38246471 0.96100008
-0.064632043 -0.38489601 0.96197319
-0.057736058 -0.38594323 0.96833324
-0.073747188 -0.37493771 0.9612146
-0.065547608 -0.37512881 0.96527916
-0.059740465 -0.37695396 0.96900004
-0.084281303 -0.36215925 0.96100003
-0.074391469 -0.36528444 0.96264511
-0.0657207 -0.36521006 0.96867579
-0.08428131 -0.35409278 0.96100026
-0.074915141 -0.35528317 0.96354544
-0.066592924 -0.35548821 0.96888459
-0.082389854 -0.34619313 0.96100026
-0.075299338 -0.34532195 0.96329725
-0.066006489 -0.34494165 0.9673447
-0.059740465 -0.34077308 0.96900004
-0.080943428 -0.33712521 0.96100003
-0.07502944 -0.33520749 0.96351415
-0.066359915 -0.33526719 0.96811754
-0.059740465 -0.33488318 0.96900004
-0.080943428 -0.32377374 0.96100003
-0.074947238 -0.32517952 0.96378124
-0.066536509 -0.3256276 0.96899998
-0.058899052 -0.32899326 0.96900004
-0.081277214 -0.3169311 0.96100008
-0.07432574 -0.31485 0.96177793
-0.067511313 -0.31427604 0.96785712
-0.074188337 -0.30525145 0.96148306
-0.065697007 -0.30501974 0.96803212
-0.059740465 -0.30375084 0.96900004
-0.07312578 -0.29544565 0.96100026
-0.065293483 -0.29504991 0.96585703
-0.058282021 -0.29432699 0.96899998
-0.071688429 -0.28500891 0.96100014
-0.065292642 -0.28470978 0.96335274
-0.056868464 -0.28396907 0.9683181
-0.070929818 -0.27587521 0.96100008
-0.065149009 -0.27480733 0.9619413
-0.055562589 -0.27456844 0.96785277
-0.049643487 -0.27345988 0.96900004
-0.065025955 -0.26515019 0.96188581
-0.055685986 -0.26515496 0.96772712
-0.049643487 -0.26756996 0.96900004
-0.064380087 -0.25514165 0.96206903
-0.055429261 -0.25532958 0.96724999
-0.048878562 -0.25540772 0.96899998
-0.06421572 -0.24558245 0.96137059
-0.055375058 -0.24501573 0.96633321
-0.048661839 -0.24541271 0.96899998
-0.063216597 -0.23524268 0.96291304
-0.05539706 -0.23502919 0.96666646
-0.048059642 -0.23584372 0.96899998
-0.064575359 -0.22507229 0.96264517
-0.05595902 -0.22582555 0.96841919
-0.049082544 -0.22914535 0.96900004
-0.071671568 -0.21408749 0.96100003
-0.065103084 -0.21514602 0.9622702
-0.056515671 -0.21495846 0.96835709
-0.073542058 -0.2045899 0.96100032
-0.06540218 -0.20544806 0.96573693
-0.058225919 -0.20749295 0.96899998
-0.080943428 -0.19192773 0.96100003
-0.075051874 -0.19527559 0.96183789
-0.066038176 -0.19557676 0.96762848
-0.092292204 -0.18174721 0.96100008
-0.084151059 -0.18398827 0.96157169
-0.07579954 -0.18563984 0.96602631
-0.067649774 -0.18797214 0.96899998
-0.10353826 -0.17273496 0.9610002
-0.094489537 -0.17445472 0.96392334
-0.085775137 -0.17647725 0.96659994
-0.079093009 -0.17838 0.96900004
-0.12377948 -0.16133057 0.96100008
-0.11462629 -0.16331163 0.96359372
-0.10550748 -0.16578631 0.96497303
-0.096915029 -0.16820304 0.96669221
-0.15187323 -0.15103877 0.96100003
-0.14367035 -0.15171631 0.96145469
-0.13463469 -0.15361978 0.96238899
-0.12528433 -0.15565398 0.96471798
-0.11617181 -0.15871042 0.96810001
-0.10854254 -0.15902744 0.96900004
-0.18233134 -0.14144239 0.96100003
-0.17439674 -0.14216125 0.9620589
-0.16465805 -0.14282832 0.96427578
-0.15516004 -0.14544471 0.96497053
-0.1452627 -0.14788829 0.96604341
-0.13618903 -0.14844966 0.96900004
-0.22169042 -0.13156787 0.96100008
-0.21459047 -0.13213487 0.9624446
-0.20468704 -0.13341129 0.96421748
-0.19473633 -0.13447769 0.96459371
-0.18606265 -0.13663577 0.96579993
-0.17590787 -0.13864036 0.96600014
-0.16660018 -0.13883348 0.96900004
-0.22480386 -0.12806453 0.96300012
-0.21616037 -0.12847582 0.96435726
-0.20802489 -0.12917414 0.96600002
-0.15262131 0.16858041 0.96750009
-0.14529249 0.1669707 0.96426332
-0.13580072 0.1659781 0.96540004
-0.4710561 0.17940897 0.96700001
-0.46418065 0.17922142 0.96900004
-0.4585712 0.17922141 0.96900004
-0.16199486 0.17628068 0.967875
-0.15671851 0.17392568 0.96366674
-0.48750752 0.18981855 0.96300006
-0.4719916 0.18058932 0.96433342
-0.46439797 0.18319426 0.96251613
-0.45504588 0.18519178 0.96454
-0.44786987 0.18632004 0.96799994
-0.16369091 0.18519317 0.96505558
-0.15938346 0.18107964 0.96100003
-0.48800075 0.19244525 0.96150005
-0.46146101 0.19359666 0.96100003
-0.454916 0.19509161 0.96262199
-0.44686958 0.19538467 0.96706432
-0.16559923 0.19141977 0.96385723
-0.46146101 0.20277581 0.96100003
-0.45396399 0.20498677 0.96177435
-0.44521055 0.20534937 0.96645665
-0.4620173 0.21167682 0.96100008
-0.45410058 0.21520893 0.96229994
-0.44440261 0.21488528 0.9652307
-0.51158035 0.22465782 0.96900004
-0.50299788 0.22802348 0.96900004
-0.49478507 0.22711521 0.96414298
-0.45327184 0.22388059 0.96133357
-0.44626594 0.22522049 0.96217161
-0.51794374 0.23504201 0.96675009
-0.50334102 0.23461342 0.96654546
-0.49647555 0.23440857 0.96183354
-0.45128742 0.23726828 0.96280003
-0.44780359 0.23383163 0.96200025
-0.51158035 0.24990027 0.96900004
-0.50462824 0.24612147 0.96582359
-0.49714532 0.24538839 0.96162522
-0.47230908 0.24950604 0.96100003
-0.465119 0.24856535 0.9616667
-0.45812312 0.24449922 0.96100003
0.52713931 0.24916725 0.96616673
-0.51174647 0.25395802 0.96666664
-0.50539839 0.2549347 0.96434462
-0.49676728 0.25489628 0.96150017
-0.4728654 0.25256574 0.96100008
-0.46796048 0.25130481 0.96149999
0.16912442 0.25999725 0.96900004
0.17291078 0.25873509 0.96900004
0.22614093 0.25951967 0.96100003
0.25415945 0.25919229 0.96600002
0.26561362 0.25975847 0.96500003
0.27474034 0.25901613 0.96612501
0.28313094 0.25930214 0.96850008
0.29770759 0.25980625 0.96580011
0.30566412 0.2590611 0.96708333
0.31267989 0.25885341 0.96475005
0.32447177 0.25859797 0.96557158
0.33380419 0.25835922 0.96540004
0.34456727 0.25779948 0.96550006
0.35503921 0.25623071 0.9643333
0.36504313 0.25660214 0.96510023
0.37539375 0.25647441 0.96500003
0.38390404 0.25540012 0.96484637
0.39519221 0.25396213 0.96525007
0.40395436 0.25414571 0.96383333
0.41549215 0.25453037 0.96546155
0.42468613 0.25490361 0.96536368
0.43242964 0.25430152 0.96400005
0.52373028 0.25056681 0.96380007
0.53096676 0.25080419 0.96600002
-0.50471634 0.26314086 0.96600008
-0.49569187 0.26512045 0.96181488
-0.4858444 0.26770821 0.96211118
-0.43332875 0.2684114 0.96900004
-0.42517728 0.26701227 0.96261132
-0.41438362 0.26891938 0.96719998
-0.26369199 0.26953328 0.96100003
-0.2478371 0.26953328 0.96100003
-0.23114774 0.26953328 0.96100003
-0.18942432 0.26953328 0.96100003
-0.17106602 0.26786435 0.96100003
-0.16939707 0.26953328 0.96100003
-0.15270771 0.26953328 0.96100003
-0.12352774 0.2674621 0.96558332
-0.1153676 0.26810437 0.96226692
-0.10931536 0.26953328 0.96100003
-0.09049423 0.26813787 0.96500003
-0.085144341 0.26839176 0.96563643
-0.076309383 0.26917642 0.96571434
-0.065292373 0.26911777 0.96400005
-0.056995448 0.26904896 0.96525002
-0.04267294 0.26856118 0.96350002
-0.034075141 0.26883554 0.96500015
-0.024931202 0.26761186 0.96411115
-0.014896435 0.26755247 0.96380013
-0.0047827796 0.26853207 0.96482354
0.0053294362 0.26653814 0.96445435
0.014615836 0.26548469 0.9648335
0.025883187 0.26674071 0.96500003
0.03449649 0.26562029 0.96523994
0.044806313 0.26298413 0.9632144
0.054992963 0.26404378 0.96687496
0.065817647 0.26410049 0.96433353
0.074750476 0.26239976 0.963
0.085835442 0.2637288 0.96507144
0.095039032 0.26345044 0.96492869
0.10512057 0.26392755 0.96492314
0.11182158 0.26526001 0.96825004
0.12669861 0.26413688 0.96630001
0.13329183 0.26374537 0.96693736
0.14427325 0.2642231 0.96600002
0.15475245 0.26338577 0.96576935
0.16545507 0.26253146 0.96561116
0.17343713 0.26209471 0.96490908
0.18639679 0.26112038 0.96259993
0.19535787 0.26280421 0.96613342
0.20583507 0.26298481 0.96585715
0.21503776 0.26187831 0.96592313
0.22433524 0.26074708 0.96400005
0.23503636 0.26096392 0.96325004
0.24616955 0.26193449 0.96560001
0.2553879 0.26148385 0.96385705
0.26344639 0.26065299 0.96416676
0.27427524 0.26005977 0.96300006
0.28509796 0.26102403 0.96424997
0.29308897 0.26099312 0.96557158
0.305603 0.26048309 0.96224999
-0.52489048 0.27793252 0.96436375
-0.5148015 0.27794331 0.96558344
-0.50493366 0.27492395 0.96594453
-0.49447933 0.27308518 0.96212524
-0.48409215 0.27318525 0.96310019
-0.47642919 0.27568778 0.96638471
-0.46491 0.27565321 0.96441668
-0.45539486 0.27483732 0.96457136
-0.44477972 0.27393615 0.96344453
-0.43486419 0.27324083 0.96494454
-0.42316577 0.27083811 0.96566671
-0.41499189 0.27191246 0.9643811
-0.40534756 0.27258486 0.96421444
-0.39504221 0.27276233 0.96455562
-0.38473657 0.2737565 0.96482354
-0.37548617 0.27307636 0.96468753
-0.36410636 0.27120221 0.96100008
-0.35359883 0.27331358 0.96649998
-0.346663 0.2751427 0.96900004
-0.33379486 0.2735453 0.96666664
-0.32581568 0.273413 0.96671426
-0.31570908 0.27408901 0.96824998
-0.30677447 0.27236545 0.96662498
-0.29371151 0.27131718 0.96260005
-0.28519022 0.27191848 0.96446168
-0.27735716 0.27337652 0.96500003
-0.26492134 0.27176648 0.96354568
-0.25545716 0.27211034 0.96592855
-0.24505556 0.27120221 0.96100008
-0.23578985 0.27132344 0.96499997
-0.21352425 0.27184239 0.96625
-0.20478378 0.27244508 0.96371436
-0.19544253 0.27155572 0.9632501
-0.18487333 0.27214187 0.96513343
-0.17574486 0.27204677 0.96442872
-0.16460088 0.27094993 0.96486676
-0.15659447 0.2708067 0.96555549
-0.12208593 0.27009422 0.96300006
-0.11528081 0.27064821 0.96200001
-0.10931536 0.27120221 0.96100003
-0.074514434 0.27041912 0.96416676
-0.068799503 0.27046356 0.96233338
-0.042912167 0.27009422 0.96900004
-0.033787142 0.27046356 0.96433342
-0.029267175 0.27009422 0.96300006
-0.0091982549 0.27009422 0.96300006
-0.052329242 -0.39078128 0.97200006
-0.046003833 -0.39487162 0.97346449
-0.038388368 -0.39809373 0.97700012
-0.053906795 -0.38410386 0.97219062
-0.047709592 -0.38554168 0.97486371
-0.055185426 -0.37453958 0.97250009
-0.047694076 -0.37541825 0.97556531
-0.05544864 -0.36500064 0.97302639
-0.048048213 -0.36771736 0.97650015
-0.062238507 -0.35447723 0.97218186
-0.056623355 -0.35521099 0.97430015
-0.061613463 -0.34689224 0.97200006
-0.055333812 -0.34430829 0.97484386
-0.062457487 -0.33591998 0.97200006
-0.054508928 -0.33446416 0.97354841
-0.048973829 -0.33384401 0.97580016
-0.062403496 -0.32322589 0.97236377
-0.055075273 -0.32477996 0.97435892
-0.048356619 -0.32492253 0.97700006
-0.06298057 -0.31636971 0.97226679
-0.054600056 -0.31513682 0.97413892
-0.048356619 -0.31559056 0.97700012
-0.061613463 -0.30975536 0.97200006
-0.055045165 -0.30546573 0.97238719
-0.047257911 -0.30415496 0.97569573
-0.053864371 -0.29541335 0.97230005
-0.046975285 -0.29501736 0.97577775
-0.052610584 -0.28640413 0.97200006
-0.045667678 -0.28502271 0.97400028
-0.039873 -0.28335279 0.97700006
-0.051485222 -0.27937064 0.97200006
-0.044912886 -0.27539623 0.97238714
-0.039090633 -0.27440712 0.97672743
-0.045126159 -0.26506093 0.97305894
-0.039024636 -0.26553723 0.97700018
-0.044033039 -0.25491604 0.97278279
-0.03873165 -0.25444406 0.97675014
-0.043852344 -0.24509604 0.97200006
-0.037593063 -0.24445716 0.97515005
-0.043395396 -0.23437159 0.97230005
-0.037848782 -0.23535302 0.97552651
-0.052962255 -0.22218826 0.97200006
-0.045508754 -0.22466487 0.97320014
-0.039307427 -0.22651257 0.97700012
-0.052118234 -0.21332607 0.97200006
-0.045688614 -0.21493128 0.9745
-0.055054195 -0.20359738 0.97234493
-0.045990869 -0.20520677 0.97558832
-0.039873 -0.20784861 0.97700006
-0.062176146 -0.19215523 0.97200006
-0.055187218 -0.19472863 0.97392112
-0.04748264 -0.19869739 0.97650015
-0.071741708 -0.18230832 0.97200006
-0.063996986 -0.18433383 0.97320026
-0.058155879 -0.18825604 0.9747144
