# .PCD v0.7 - Point Cloud Data file format
VERSION 0.7
FIELDS x y z
SIZE 4 4 4
TYPE F F F
COUNT 1 1 1
WIDTH 1493
HEIGHT 1
VIEWPOINT 0 0 0 1 0 0 0
POINTS 1493
DATA ascii
0.49424145 0.23856243 1.2320001
0.50655448 0.23882064 1.2333335
0.51540101 0.23573515 1.2340001
0.52369422 0.23596554 1.2333335
0.53147388 0.23894972 1.2340001
-0.020391941 0.24792306 1.2360001
0.018186374 0.24926031 1.2320001
0.02897802 0.24792306 1.2360001
0.031023813 0.24926031 1.2320001
0.055073168 0.24610959 1.2328891
0.07488507 0.24284157 1.2320004
0.084517933 0.24417141 1.2340002
0.094215035 0.248926 1.233
0.10512183 0.24856494 1.2328001
0.11475754 0.24706589 1.2328002
0.12451249 0.24822307 1.2335001
0.13340379 0.24859169 1.2340001
0.14763057 0.24926031 1.2320001
0.15660705 0.24872541 1.2336
0.16510376 0.2483688 1.2346668
0.17344351 0.248926 1.233
0.18453822 0.24926031 1.2320001
0.19791053 0.24926031 1.2320001
0.20588253 0.24872541 1.2336
0.21143223 0.24792306 1.2360001
0.23719047 0.24792306 1.2360001
0.24470329 0.24792306 1.2360001
0.25453168 0.24738817 1.2333335
0.26441991 0.24665928 1.2342858
0.27409029 0.24518 1.233
0.28404436 0.24545839 1.2344002
0.29633093 0.24355477 1.2320001
0.30538416 0.2432358 1.2340001
0.31369844 0.24357186 1.233
0.32521516 0.24498115 1.2320001
0.33484325 0.24498115 1.2320002
0.34664613 0.24493602 1.2348573
0.35411924 0.24367817 1.2331431
0.36241543 0.24464338 1.233
0.37771112 0.24216254 1.2340001
0.38544914 0.24170987 1.2353334
0.39539039 0.24189509 1.2340001
0.40373752 0.24112992 1.2320002
0.41548419 0.24170987 1.2353334
0.42525831 0.2410146 1.2336
0.43557337 0.24162765 1.2340001
0.44611236 0.24128813 1.2350001
0.466427 0.240702 1.2320001
-0.49673766 0.25924498 1.2320001
-0.46963635 0.25995818 1.2320001
-0.32200581 0.25995818 1.2320001
-0.23514931 0.2569468 1.2346668
-0.22786456 0.25567901 1.2320001
-0.12208767 0.25809532 1.2333335
-0.11499882 0.25723043 1.2346669
-0.10532536 0.25720036 1.2352002
-0.094828948 0.25448591 1.2340001
-0.0841581 0.25295129 1.2337779
-0.074765585 0.25429663 1.2336
-0.065348789 0.25511485 1.2337145
-0.055529673 0.25530291 1.2331431
-0.045037847 0.25469172 1.2350001
-0.035363745 0.25395101 1.2340001
-0.023733784 0.25125301 1.234286
-0.015001328 0.25073475 1.2340001
-0.0058531016 0.25150758 1.2341541
0.0047500315 0.25044972 1.2348573
0.01180586 0.25006959 1.2360001
0.02575824 0.25006959 1.2360001
0.036460452 0.25147542 1.2350001
0.044674017 0.25194404 1.2346668
0.050279975 0.25139987 1.2320001
0.099813186 0.25006959 1.2360001
0.17494139 0.25006959 1.2360001
0.18782051 0.25006959 1.2360001
0.19533333 0.25006959 1.2360001
-0.67075628 0.26637688 1.2320001
-0.66273546 0.26756042 1.2350001
-0.54254687 0.26323527 1.2340002
-0.53576338 0.26627269 1.2340001
-0.52282929 0.26409376 1.2346668
-0.51575816 0.26359302 1.2340002
-0.50572336 0.26227638 1.234286
-0.49611533 0.26144996 1.2340001
-0.48889253 0.26209775 1.2320001
-0.47575116 0.26144996 1.2340001
-0.4668681 0.26080218 1.2360001
-0.45184249 0.26509523 1.2360001
-0.4461109 0.26502171 1.2340001
-0.41352606 0.26303625 1.2344002
-0.40589723 0.26300257 1.2350001
-0.39551893 0.26303625 1.2344002
-0.38637361 0.26294872 1.2360001
-0.37649548 0.26350099 1.2342858
-0.36526686 0.26157951 1.2336
-0.34022343 0.26294872 1.2360001
-0.33431703 0.26252323 1.2340001
-0.32556134 0.26159179 1.2346668
-0.31618649 0.26172757 1.2331431
-0.30809855 0.26209775 1.2320001
-0.29523823 0.26183864 1.2328001
-0.28410274 0.26183864 1.2328001
-0.2715348 0.26080218 1.2360001
-0.25139987 0.26209775 1.2320001
-0.24289803 0.26112607 1.2350001
-0.23933698 0.26080218 1.2360001
-0.12777004 -0.16675474 1.247
-0.10586861 -0.1659359 1.2490003
-0.036874644 -0.1637668 1.2490001
-0.16043328 -0.11090354 1.24
-0.15485241 -0.1127446 1.2471112
-0.14545123 -0.11207075 1.2482001
-0.1621082 -0.10635732 1.2399999
-0.15436839 -0.10509197 1.2432176
-0.14641447 -0.10379394 1.2450716
-0.13780271 -0.1042924 1.2480772
-0.13459168 -0.097982734 1.24
-0.3047581 -0.081341125 1.2490001
-0.30746943 -0.078629754 1.2490001
-0.40335345 0.14680842 1.2490002
-0.39418358 0.14519419 1.2466878
-0.38493904 0.14371967 1.2429166
-0.37685668 0.14105207 1.24
-0.41453841 0.15629546 1.2490003
-0.40478215 0.15437289 1.2467502
-0.39603835 0.1539135 1.2422307
-0.41621631 0.16410053 1.2490003
-0.40533426 0.16321492 1.2447778
-0.39946806 0.16151001 1.24
0.093675807 0.20996301 1.24
0.095678985 0.21549898 1.2423077
0.10053997 0.21837716 1.245
0.65788406 0.21857688 1.24
0.66380471 0.21887068 1.2416668
0.67498612 0.21850589 1.24575
0.68186527 0.21685974 1.2425001
0.095030732 0.2254384 1.2403845
0.65618563 0.22197291 1.247
0.66048998 0.22016332 1.2490001
0.67647338 0.22044683 1.2445
0.68001181 0.22016332 1.2490001
0.037959192 0.2331779 1.2490001
0.044809908 0.23487821 1.2465
0.051446728 0.23781596 1.243
0.089368872 0.23795807 1.24
0.094476014 0.23468947 1.2442223
0.40522704 0.23907112 1.2457999
0.4197202 0.23968519 1.2490001
0.42839661 0.23968519 1.2490001
0.43381932 0.23968519 1.2490001
0.44791847 0.23968519 1.2490001
0.45497909 0.2381901 1.2446002
0.46469876 0.23827791 1.2416668
0.47533745 0.23851718 1.2461429
0.48309001 0.23776194 1.244625
0.49889225 0.23968519 1.2490001
0.50678062 0.2385201 1.24575
0.5140776 0.23631395 1.2452222
0.53570527 0.23917346 1.2463334
0.54118961 0.23968519 1.2490001
-0.023738064 0.24922687 1.2425001
-0.016151 0.24872541 1.24
0.024864726 0.24972834 1.245
0.036107037 0.24925439 1.2448001
0.045163468 0.24858937 1.2483335
0.05277624 0.24562247 1.2461113
0.089368872 0.24226502 1.24
0.094396159 0.24643221 1.24475
0.10469234 0.24846403 1.243
0.11564927 0.24677686 1.2446668
0.12567736 0.24768236 1.2456
0.13531119 0.24819975 1.244125
0.14474484 0.24885604 1.2452857
0.15526536 0.24741223 1.245077
0.16443352 0.24610703 1.2442
0.1749479 0.24738023 1.245
0.18517147 0.24740678 1.2450002
0.19517875 0.2482229 1.2443637
0.20555726 0.24878047 1.2446001
0.21551788 0.2485768 1.2454286
0.22466244 0.24896903 1.2472223
0.23428431 0.24725084 1.2443334
0.24494402 0.24566054 1.2435834
0.25504464 0.24661048 1.2421818
0.26374829 0.24536857 1.2448334
0.27084476 0.24631898 1.2460001
0.28740531 0.24619249 1.2490001
0.29448617 0.24648467 1.2468334
0.30691263 0.24412215 1.2467501
0.31664222 0.24408107 1.2445714
0.32516763 0.24453075 1.2452857
0.33539811 0.2445166 1.2460001
0.34492123 0.2437631 1.2452222
0.35458741 0.24215733 1.2450001
0.36576015 0.24287646 1.2450001
0.3745099 0.24314778 1.2455455
0.38452289 0.24154447 1.2474
0.39427543 0.24088609 1.244
0.40502977 0.24043427 1.2416668
0.41429922 0.24059564 1.2424999
0.42479739 0.24043429 1.2416667
0.43631905 0.24083769 1.24375
0.44545192 0.24164094 1.2447144
0.46837902 0.24011154 1.24
0.47053248 0.24011154 1.24
0.5028345 0.24011156 1.24
0.53728998 0.24011154 1.24
-0.54267359 0.25949275 1.24
-0.53944343 0.25949275 1.24
-0.51134849 0.25837693 1.245
-0.50269991 0.25837693 1.245
-0.41538203 0.25920707 1.2490001
-0.40671563 0.25911632 1.2468333
-0.32360026 0.25942135 1.24225
-0.31560358 0.25920707 1.2490001
-0.28526211 0.2592642 1.2472
-0.27439073 0.25920707 1.2490001
-0.26571435 0.25920707 1.2490001
-0.25269976 0.25920707 1.2490001
-0.24398489 0.25815549 1.2451111
-0.2363777 0.25472128 1.243
-0.12268306 0.25508019 1.243
-0.11650255 0.25518581 1.24
-0.10601337 0.25624663 1.2416668
-0.094849497 0.2542541 1.2460002
-0.085441224 0.25244257 1.2456001
-0.074651495 0.25317216 1.2460002
-0.064445846 0.25453296 1.2458572
-0.054264646 0.2545796 1.2436249
-0.045262501 0.25413787 1.2454287
-0.034856636 0.25345826 1.24475
-0.026996484 0.25104472 1.2435
-0.0075918385 0.25053066 1.2490001
0.015512775 0.25143722 1.2463334
0.023239641 0.25070477 1.2445
0.037287757 0.25129762 1.24475
0.045140527 0.25139683 1.24525
0.050606467 0.25087887 1.24
0.19273527 0.25087887 1.24
0.20134914 0.25087887 1.24
-0.68218094 0.26788345 1.2490001
-0.67449915 0.26705462 1.2468334
-0.66756099 0.26637492 1.2448572
-0.54160416 0.26343644 1.2416668
-0.53428674 0.26331139 1.2428001
-0.52505487 0.26241788 1.2447001
-0.51581997 0.26193112 1.2447778
-0.50542974 0.26081586 1.24375
-0.49376041 0.26312324 1.247
-0.48479316 0.26354524 1.2490001
-0.47040007 0.26109266 1.2425001
-0.46810549 0.26053908 1.245
-0.45344543 0.26349199 1.2453334
-0.44616395 0.2659699 1.2458571
-0.43490389 0.26571435 1.2490001
-0.42373878 0.26346105 1.247143
-0.41467726 0.26132914 1.2436249
-0.40360147 0.2610589 1.2436249
-0.39484817 0.26143318 1.2435555
-0.38436878 0.26164317 1.2437273
-0.3751668 0.26164305 1.2451251
-0.3655819 0.26147741 1.245625
-0.35459915 0.2623702 1.248
-0.34298602 0.26279199 1.248
-0.33505777 0.26183191 1.2452859
-0.32540357 0.26053908 1.245
-0.31411904 0.26095426 1.243125
-0.30510649 0.26143321 1.2435555
-0.29507583 0.2610589 1.2436249
-0.28644273 0.26117173 1.2421429
-0.27556792 0.26193458 1.2465001
-0.26492506 0.26131797 1.247
-0.25431708 0.26176041 1.2451112
-0.24864726 0.26162016 1.245
-0.12195568 -0.17095573 1.2540001
-0.11651124 -0.17095575 1.2540001
-0.12406392 -0.16433209 1.2550526
-0.11546966 -0.16448842 1.2544999
-0.10544493 -0.16143732 1.2545
-0.095671549 -0.16521637 1.2585454
-0.087458543 -0.16289152 1.2590001
-0.040449575 -0.16507798 1.2590001
-0.037022263 -0.16660017 1.2540001
-0.12260901 -0.15701795 1.2540001
-0.11595662 -0.15704441 1.2547145
-0.108889 -0.15788905 1.2540001
-0.090558052 -0.15711494 1.2565
-0.087822944 -0.1577898 1.2590001
-0.15135571 -0.11433345 1.2540001
-0.14917794 -0.11433345 1.2540001
-0.12381782 -0.11471191 1.2581667
-0.11478933 -0.11697579 1.2590001
-0.14357793 -0.1071779 1.2540002
-0.13357052 -0.10652974 1.2539999
-0.1278504 -0.10571952 1.2551539
-0.10822994 -0.10495024 1.2590001
-0.1277359 -0.09935239 1.2573334
-0.32250333 -0.083241791 1.2590001
-0.3140687 -0.082881011 1.255875
-0.30815586 -0.081666753 1.2540001
-0.32386062 -0.075463295 1.2578096
-0.31403348 -0.074786134 1.2542778
-0.30597812 -0.073826753 1.2540001
-0.3207542 -0.06581255 1.2590001
-0.31418219 -0.065855585 1.2550714
-0.30767915 -0.067647941 1.2565001
-0.42472053 0.14785959 1.2589999
-0.41546103 0.14739612 1.2539999
-0.406156 0.14482239 1.2540001
-0.43291974 0.1585186 1.2590001
-0.4248293 0.15487745 1.2560833
-0.41758931 0.15190016 1.2540001
-0.44203004 0.16799328 1.2590001
-0.43445328 0.16564241 1.2584119
-0.42632478 0.16464095 1.2556666
-0.41595602 0.16551128 1.2540001
-0.44057238 0.17163737 1.2590001
-0.43467528 0.17146696 1.25775
-0.42964005 0.17163737 1.2590001
0.66468489 0.21973957 1.2590001
0.67837846 0.21668911 1.2540001
0.68511593 0.21782979 1.2558749
0.67184514 0.22104467 1.2540001
0.68491185 0.22104467 1.2540001
0.037131891 0.23808897 1.25775
0.041014858 0.23774099 1.2540001
0.33671537 0.23941775 1.2590001
0.40587032 0.23894233 1.2565
0.41051155 0.23846692 1.2540001
0.4372927 0.23941775 1.2590001
0.44573969 0.23925929 1.2581668
0.45418236 0.23764317 1.2573333
0.4656294 0.23860013 1.2570002
0.47570473 0.23784912 1.2565001
0.48346719 0.23628914 1.2540001
0.49632719 0.23941775 1.2590001
0.50457263 0.23918004 1.25775
0.51272571 0.2372313 1.2590001
0.52811164 0.23628914 1.2540001
0.53462422 0.23839788 1.2565
0.5430336 0.23807445 1.2568573
-0.074044526 0.24935582 1.2540001
-0.067511186 0.24935582 1.2540001
0.037461206 0.24584731 1.2565
0.044723723 0.24434836 1.25625
0.051177833 0.24391137 1.2540001
0.097154886 0.24451976 1.257125
0.10444835 0.24856101 1.2573334
0.11357996 0.24791721 1.25775
0.12555522 0.24783508 1.2573334
0.13446751 0.2481636 1.2590001
0.14636002 0.24800782 1.256
0.15539989 0.2456312 1.2550001
0.1652344 0.24403244 1.2554288
0.1760294 0.2452423 1.2552501
0.18483345 0.24422069 1.2562222
0.19544572 0.24621274 1.2554287
0.20512162 0.24839674 1.2565
0.21467893 0.24737516 1.2550001
0.22435577 0.24680418 1.2568573
0.23405521 0.24605326 1.2556667
0.24470003 0.24469785 1.2552501
0.25480026 0.24500026 1.2540001
0.2624225 0.24500027 1.2540001
0.27396005 0.24645749 1.2570002
0.28453425 0.24680416 1.2568573
0.29626581 0.24597713 1.2590001
0.30501166 0.24510255 1.2590001
0.31485072 0.24379067 1.2590001
0.32587698 0.24277163 1.256
0.33551371 0.24214567 1.2567778
0.34458056 0.24257885 1.2550001
0.35639352 0.24160421 1.2590001
0.36623263 0.24160421 1.2590001
0.37497848 0.24160421 1.2590001
0.38153785 0.24160421 1.2590001
0.39495754 0.24112445 1.2565001
0.4039782 0.24064469 1.2540001
0.41704488 0.24064469 1.2540001
0.42575604 0.24064469 1.2540001
0.44426715 0.24064469 1.2540001
0.49610347 0.24096453 1.2556667
0.5455339 0.24064469 1.2540001
-0.53021735 0.25909591 1.2590001
-0.52475119 0.25763828 1.2590001
-0.51934278 0.25639498 1.2565
-0.42470706 0.25875294 1.2573335
-0.41636953 0.25832421 1.2552501
-0.34655446 0.25909591 1.2590001
-0.32207644 0.2580241 1.2573334
-0.31503886 0.25778118 1.2573333
-0.30533522 0.25838852 1.2573335
-0.29553697 0.25909591 1.2590001
-0.2860623 0.25909591 1.2590001
-0.27768084 0.25909591 1.2590001
-0.26544085 0.25779778 1.258
-0.2552911 0.25774544 1.2577499
-0.2451041 0.25570047 1.256143
-0.23941775 0.25472298 1.2590001
-0.12522236 0.25588915 1.2540001
-0.10431375 0.25768399 1.2556667
-0.095513098 0.25328445 1.2578889
-0.085404932 0.25186795 1.2556667
-0.075912163 0.25133634 1.2548335
-0.065668575 0.25232768 1.2552501
-0.05553339 0.25371137 1.2540001
-0.044501409 0.2530587 1.2567778
-0.035286076 0.25136098 1.2567776
-0.02940003 0.2515336 1.2540001
-0.0061703771 0.2515336 1.2540001
0.0054466212 0.25203508 1.2565
0.014906101 0.25186795 1.2556667
0.021823388 0.25094181 1.2565
0.032796949 0.25035006 1.2590001
0.10385701 0.25035006 1.2590001
-0.68382299 0.26677805 1.2540001
-0.67363107 0.26530361 1.2573334
-0.53246725 0.26024473 1.2540001
-0.52484494 0.26024473 1.2540001
-0.51940054 0.26024473 1.2540001
-0.50197828 0.2624225 1.2540001
-0.49464294 0.2634972 1.2556667
-0.48443535 0.26294565 1.2565
-0.47693384 0.2624225 1.2540001
-0.46025056 0.26346883 1.2590001
-0.45420536 0.26369512 1.2580001
-0.44449472 0.26381594 1.2564999
-0.4344182 0.26358557 1.2567273
-0.42604038 0.26150656 1.2548335
-0.40180042 0.26024473 1.2540001
-0.39644477 0.26102298 1.25775
-0.38518199 0.26128238 1.2590001
-0.37497848 0.26128241 1.2590001
-0.36477795 0.26102298 1.25775
-0.35494536 0.26156741 1.25775
-0.34668082 0.26212469 1.2565
-0.33545947 0.26131654 1.2556667
-0.3277559 0.26024473 1.2540001
-0.31033367 0.26024473 1.2540001
-0.3048892 0.26024473 1.2540001
-0.2961781 0.26024473 1.2540001
-0.28202251 0.26024473 1.2540001
-0.27548918 0.26024473 1.2540001
-0.26314843 0.26024473 1.2540001
-0.25806695 0.26024473 1.2540001
-0.6832698 0.27002823 1.2590001
-0.091386877 -0.17066224 1.268
-0.084230073 -0.1731396 1.268
-0.074871168 -0.17286436 1.2679999
-0.069365941 -0.17506643 1.268
-0.041839775 -0.17066224 1.268
-0.037435587 -0.17066224 1.268
-0.094864994 -0.16468854 1.2630002
-0.083334818 -0.16630554 1.2646669
-0.076461576 -0.16601339 1.268
-0.045125984 -0.16509232 1.2674999
-0.093219928 -0.15902223 1.263
-0.083622389 -0.15844725 1.2671667
-0.078174315 -0.15965177 1.268
-0.094690017 -0.12001409 1.268
-0.089184783 -0.12001409 1.268
-0.12225167 -0.11252435 1.265143
-0.1147447 -0.11409752 1.2641766
-0.10403895 -0.11374182 1.2659411
-0.095791064 -0.11500933 1.2679999
-0.087533213 -0.11616043 1.268
-0.0235624 -0.11605033 1.268
-0.12371901 -0.10611096 1.2672858
-0.11515404 -0.10638039 1.2630002
-0.10354596 -0.10637476 1.2647858
-0.095290974 -0.10378414 1.2676427
-0.087257944 -0.10212208 1.268
-0.093148552 -0.09711232 1.268
-0.08698269 -0.096420236 1.2680001
-0.32681811 -0.071285829 1.263
-0.33054385 -0.065527909 1.2646668
-0.32606286 -0.064583041 1.2637146
-0.33141506 -0.058355477 1.268
-0.32590982 -0.058355477 1.268
-0.43381238 0.14754026 1.268
-0.44445586 0.15891774 1.2680001
-0.4347074 0.15503991 1.2663333
-0.45032811 0.16515701 1.268
-0.44493377 0.16508478 1.2646669
-0.43904757 0.16194677 1.263
-0.45142916 0.17286433 1.268
-0.44526225 0.17218269 1.263
0.67397797 0.21830928 1.2655001
0.68514144 0.2175796 1.2655001
0.69449174 0.21647856 1.2655001
0.67447364 0.22043772 1.263
0.32921296 0.23892714 1.268
0.33424297 0.23731293 1.2644286
0.34132448 0.23892714 1.268
0.40518519 0.23892714 1.268
0.41179147 0.23892714 1.268
0.43271136 0.23892714 1.268
0.44556877 0.2387387 1.2670001
0.45450306 0.23641245 1.2663335
0.46439657 0.23787907 1.2663333
0.47570691 0.23644921 1.2652222
0.4838841 0.23481047 1.2636251
0.49307323 0.2375679 1.2646668
0.50644594 0.23594125 1.2657778
0.51520097 0.2341634 1.2650836
0.52745605 0.23845607 1.2655001
0.53738546 0.23798499 1.263
0.54441679 0.23587582 1.265143
0.034680989 0.2465506 1.2651429
0.099800155 0.24346852 1.263
0.10516089 0.2449436 1.2659168
0.11486729 0.24621408 1.2652223
0.12539884 0.24749129 1.26675
0.13489471 0.24895205 1.263
0.14551848 0.24814102 1.2663333
0.15369391 0.24645232 1.26425
0.16779587 0.24456522 1.263
0.17610984 0.24382488 1.266
0.18277375 0.24333131 1.268
0.1963378 0.24470572 1.2660002
0.20381451 0.24690433 1.2660002
0.21453479 0.24754015 1.2670001
0.22482452 0.24675862 1.263
0.23515873 0.24468085 1.2655001
0.24425673 0.24480727 1.26425
0.25434178 0.24553341 1.268
0.26563686 0.24529135 1.26675
0.2762579 0.24463372 1.2645
0.28482819 0.24416761 1.2654999
0.294238 0.24533023 1.2637144
0.30438644 0.2436741 1.2655001
0.31489936 0.24333131 1.268
0.32395205 0.24159351 1.2646668
0.33120492 0.24017841 1.263
0.34664911 0.24159205 1.2646668
0.35163811 0.24175052 1.2655001
0.36702454 0.24120218 1.2655001
0.37581989 0.24065381 1.2655001
0.38554785 0.2418748 1.2650001
0.3959828 0.24089153 1.26675
0.40139404 0.24017841 1.263
0.417575 0.24065381 1.2655001
0.42475915 0.24036856 1.2640001
0.43377304 0.24049535 1.2646668
0.49790406 0.24017841 1.263
-0.44526225 0.25991911 1.263
-0.4353919 0.25991914 1.263
-0.40558228 0.2595281 1.2646668
-0.39570183 0.25952807 1.2646668
-0.38421234 0.25991911 1.263
-0.37397644 0.25991911 1.263
-0.36483717 0.25955355 1.263
-0.35533243 0.25991911 1.263
-0.34372941 0.25893539 1.2658572
-0.33459419 0.25939775 1.2652223
-0.32499197 0.25741005 1.2655001
-0.31459004 0.25629097 1.2667501
-0.30548531 0.25823581 1.2655001
-0.29579228 0.25913703 1.2663335
-0.28432775 0.25907746 1.26425
-0.27600324 0.25879693 1.2646668
-0.25273928 0.2571348 1.2655001
-0.24415392 0.25440431 1.2646668
-0.12380451 0.25566965 1.2655001
-0.11472195 0.25607434 1.2656922
-0.10589635 0.25630444 1.2659167
-0.060318775 0.25333887 1.263
-0.05474877 0.25350019 1.2660002
-0.045110788 0.25194085 1.2670001
-0.025269803 0.25164258 1.2655001
-0.0010988759 0.25273928 1.2655001
0.0058105155 0.25265366 1.2658572
0.015353871 0.25114545 1.263
0.025799705 0.25139403 1.26425
-0.68324727 0.26723045 1.263
-0.50119418 0.26430592 1.263
-0.49558872 0.26372808 1.2655001
-0.48534766 0.26187962 1.2640001
-0.47785428 0.26315016 1.268
-0.46500874 0.26461822 1.268
-0.45395869 0.26246884 1.267375
-0.44515133 0.26182139 1.26425
-0.43868202 0.2621125 1.263
-0.41399357 0.26094806 1.268
-0.40188205 0.26094806 1.268
-0.39559531 0.26153028 1.2655001
-0.38669348 0.26133621 1.2663335
-0.37986112 0.26094806 1.268
-0.36081594 0.2621125 1.263
-0.35784018 0.26094806 1.268
-0.34107527 0.2621125 1.263
-0.33888185 0.2621125 1.263
-0.062957644 -0.18003677 1.2720001
-0.054489657 -0.18077312 1.2720002
-0.044519339 -0.18113163 1.2738751
-0.03881016 -0.18074445 1.2770001
-0.064934149 -0.17445602 1.272
-0.055225998 -0.17451419 1.2720001
-0.045662422 -0.17492115 1.2722777
-0.035025366 -0.17530008 1.2758464
-0.027192397 -0.17569369 1.2762309
-0.073397443 -0.16337398 1.2730002
-0.065498039 -0.16556756 1.272
-0.055197809 -0.16602772 1.2730002
-0.049261596 -0.16634071 1.2720002
-0.08062996 -0.15794636 1.2720001
-0.078729182 -0.15856722 1.2770001
-0.091675162 -0.12039268 1.2720001
-0.08402276 -0.120511 1.2732501
-0.078729182 -0.12086593 1.2770001
-0.064683601 -0.12123555 1.2770001
-0.055791784 -0.12154348 1.2741431
-0.092558779 -0.11376556 1.2720002
-0.084357709 -0.11445589 1.2720001
-0.075337872 -0.1148929 1.2746668
-0.065266974 -0.11505287 1.274
-0.055619419 -0.11530436 1.2760001
-0.035641983 -0.1129455 1.2770001
-0.028123409 -0.11270498 1.275
-0.093442395 -0.10846388 1.2720002
-0.083878547 -0.10609888 1.2720001
-0.075150989 -0.10498867 1.2727501
-0.065268449 -0.10508985 1.274
-0.056704838 -0.10599118 1.2766156
-0.041027881 -0.10312414 1.2770002
-0.035298765 -0.10626592 1.2770002
-0.025853662 -0.10598753 1.275889
-0.018776841 -0.1049294 1.2720001
-0.082460582 -0.096610598 1.2730001
-0.076006256 -0.098167866 1.276
-0.065866381 -0.098245144 1.2770001
-0.045463331 -0.096470974 1.2770001
-0.45387456 0.147902 1.2730001
-0.44512162 0.14770445 1.2720003
-0.43849444 0.14800568 1.2720001
-0.4601776 0.15856722 1.2770001
-0.45515034 0.15503803 1.2753336
-0.44538146 0.15404809 1.2720001
-0.43849444 0.15242377 1.2720001
-0.47237507 0.16854699 1.2770001
-0.46436659 0.16583641 1.2770002
-0.45586821 0.16493914 1.2735388
-0.47215328 0.17364775 1.2770001
-0.46558157 0.17484206 1.2760001
-0.45694315 0.17377315 1.2726251
-0.47126621 0.18074445 1.2770001
-0.4690485 0.18074445 1.2770001
0.67618597 0.21746367 1.2745001
0.68548089 0.21700658 1.274143
0.69599551 0.21696727 1.2770002
0.51562071 0.22953437 1.2770001
0.67307907 0.22066347 1.2770001
0.32804245 0.23968084 1.2720001
0.37664133 0.23968084 1.2720001
0.38105941 0.23968084 1.2720001
0.39431366 0.23968084 1.2720001
0.40394652 0.23904306 1.2745001
0.41546831 0.23925565 1.2736667
0.42634472 0.23968084 1.2720001
0.43464515 0.23925565 1.2736667
0.44644403 0.23851931 1.2736669
0.4517487 0.2374718 1.2720001
0.46636057 0.23673797 1.2748573
0.47393984 0.23655248 1.2745
0.48124599 0.23396982 1.2770001
0.49800873 0.23793854 1.2745001
0.50382262 0.23572189 1.2745001
0.51488149 0.23249134 1.2770002
0.52568036 0.23627959 1.2745001
0.53447133 0.23840527 1.2770001
0.54485941 0.23535553 1.2745001
0.55332202 0.23396984 1.2770002
0.0088708941 0.24949388 1.2770001
0.01330634 0.24949388 1.2770001
0.029939266 0.24949388 1.2770001
0.033167079 0.24544549 1.2732501
0.10382488 0.24299441 1.2720001
0.11487008 0.24409893 1.2720001
0.12407442 0.24593979 1.2720002
0.13528821 0.24826434 1.2755716
0.14414595 0.24762046 1.2745001
0.1535283 0.24630797 1.2720001
0.16965584 0.24505843 1.2770001
0.17374612 0.24457869 1.2745001
0.18850648 0.24505843 1.2770001
0.19458547 0.24433881 1.2732501
0.20570348 0.24600179 1.2750001
0.21491185 0.2470341 1.27575
0.22456491 0.24669524 1.2740002
0.23452643 0.24557161 1.2720001
0.2461673 0.24505843 1.2770001
0.25571474 0.24559395 1.2748573
0.26569751 0.24530835 1.276
0.27427062 0.24399936 1.2753334
0.28408134 0.24208008 1.2730001
0.29513523 0.24384728 1.2730001
0.30937243 0.24284071 1.2770001
0.31340119 0.24252377 1.2753334
0.32183358 0.24220684 1.2736669
0.34818256 0.24062298 1.2770001
0.35705346 0.24284071 1.2770001
0.36334953 0.242603 1.27575
0.37479526 0.24062298 1.2770001
0.3859379 0.24112974 1.2750002
0.39461064 0.2410453 1.2753334
0.40029907 0.24062298 1.2770001
0.42247632 0.24062298 1.2770001
0.44021809 0.24062298 1.2770001
-0.49376029 0.25678071 1.2770001
-0.48900801 0.25836477 1.2770001
-0.4517487 0.25845766 1.2720001
-0.44733065 0.25956219 1.2720001
-0.41198596 0.25956219 1.2720001
-0.40509132 0.25873345 1.274143
-0.39593631 0.2587949 1.2736669
-0.38585627 0.25926283 1.2732501
-0.3744323 0.25956222 1.2720002
-0.36780518 0.25956219 1.2720001
-0.35234189 0.25735316 1.2720001
-0.34404585 0.25731426 1.274
-0.3347286 0.25700855 1.2734287
-0.32387534 0.25534472 1.2730001
-0.31430671 0.25675011 1.2745001
-0.30153397 0.25956219 1.2720001
-0.29409215 0.25926283 1.2732501
-0.28630185 0.25840196 1.2750001
-0.27832428 0.25836477 1.2770001
-0.26280022 0.25836477 1.2770001
-0.25293508 0.25624865 1.2720001
-0.24790093 0.25564557 1.2745001
-0.13195454 0.25836477 1.2770001
-0.12490541 0.25490117 1.2730001
-0.1151839 0.25269213 1.2730001
-0.1049294 0.25293508 1.2720002
-0.061853126 0.25293508 1.2720001
-0.055594176 0.25293511 1.2720001
-0.043165289 0.25121883 1.2745001
-0.035416279 0.25121883 1.2745001
-0.025403962 0.25293511 1.2720001
-0.01480057 0.25337687 1.2720002
-0.0051573217 0.25252727 1.2736667
0.0055338885 0.2517592 1.275
0.015479562 0.25097245 1.2732501
0.025445644 0.2511203 1.274
-0.69283849 0.26814431 1.2750001
-0.68459666 0.26653811 1.2736667
-0.511289 0.26339024 1.2745001
-0.50439048 0.26357111 1.274778
-0.49309677 0.26147407 1.2732501
-0.48472625 0.26284018 1.2745001
-0.4638854 0.26283047 1.2750001
-0.45735928 0.26097876 1.2753334
-0.44243583 0.26058251 1.2770002
-0.43578267 0.26058251 1.2770001
-0.42247632 0.26058251 1.2770001
-0.41693199 0.26058251 1.2770001
-0.39142817 0.26058251 1.2770001
-0.38255727 0.26058251 1.2770001
-0.35655123 0.26170561 1.276
-0.69032502 0.27502549 1.2720001
-0.033254437 -0.18426047 1.2827142
-0.025235981 -0.18394063 1.2838182
-0.03673571 -0.17922574 1.2820001
-0.074584626 -0.15918808 1.2820001
-0.074584633 -0.12133916 1.2820001
-0.05009415 -0.12133916 1.2820001
-0.045005221 -0.12229334 1.2820002
-0.034941487 -0.12238342 1.2862859
-0.074584626 -0.11911276 1.2820001
-0.050730273 -0.11402384 1.2820002
-0.044528138 -0.11465994 1.2819998
-0.034556668 -0.11786487 1.2838182
-0.027157417 -0.11868033 1.2853335
-0.12579198 -0.10352791 1.2820001
-0.052097917 -0.1039732 1.2819999
-0.045298815 -0.10489801 1.2819999
-0.035251439 -0.10402267 1.2820001
-0.02453389 -0.10149905 1.2845001
-0.018998265 -0.10281414 1.2870001
-0.083015054 -0.093040399 1.2832501
-0.074313305 -0.094245382 1.2850001
-0.064464927 -0.094928674 1.2836666
-0.054781318 -0.095911272 1.2819998
-0.044369109 -0.094781324 1.2819999
-0.034588668 -0.094838843 1.2850001
-0.02585944 -0.095791526 1.2862309
-0.018998265 -0.099461511 1.2870001
-0.08381588 -0.088286057 1.2870001
-0.073757976 -0.088286057 1.2870001
-0.030879673 -0.087429598 1.2853334
-0.027157417 -0.087429598 1.2853334
-0.47160399 0.15869139 1.2870001
-0.46494138 0.15626261 1.2829092
-0.48277944 0.1687493 1.2870001
-0.47492388 0.1646667 1.2842222
-0.46791649 0.16215663 1.2820001
-0.48445579 0.17657213 1.2869999
-0.47711897 0.17521821 1.2819999
-0.4630926 0.17922574 1.2820001
-0.4939549 0.18886511 1.2870001
-0.48501456 0.18327738 1.2870001
-0.47738016 0.18292356 1.2845001
0.67794085 0.21707466 1.2820001
0.68662477 0.2154972 1.2836668
0.69532102 0.21552421 1.284143
0.70407146 0.21391538 1.2853334
0.67834985 0.22015637 1.2870001
0.3665548 0.23803709 1.2870001
0.37960234 0.23933873 1.2820001
0.3951872 0.23933873 1.2820001
0.40631923 0.23933873 1.2820001
0.41451433 0.23901331 1.2832501
0.4262149 0.23817733 1.2832501
0.43471652 0.23836727 1.2847779
0.44437021 0.23890486 1.2836668
0.45648116 0.23772883 1.2853335
0.4659979 0.23467067 1.2838751
0.47576436 0.23286824 1.2831539
0.48424348 0.23340164 1.2820001
0.5027045 0.23667845 1.2836668
0.52654517 0.23340164 1.2820001
0.53461379 0.23661272 1.2853335
0.54562855 0.23722017 1.2850001
0.55378217 0.23311104 1.2845001
-0.0011175451 0.24921255 1.2870001
0.0044701798 0.24921255 1.2870001
0.014528085 0.24921255 1.2870001
0.024958506 0.24921255 1.2870001
0.0308377 0.24707991 1.2836668
0.12659389 0.24593893 1.2845001
0.13523683 0.24605335 1.2847778
0.14415956 0.24559276 1.2836668
0.1541943 0.24596529 1.2836668
0.16475409 0.24601795 1.2820001
0.18663004 0.24474236 1.2870001
0.19510929 0.24417186 1.2840002
0.20522234 0.24538016 1.2845001
0.21415618 0.24649769 1.2845001
0.22409773 0.24640174 1.2840002
0.2326595 0.24601796 1.2820001
0.25558349 0.24442542 1.2853335
0.26465413 0.2449975 1.2860001
0.27464581 0.24450465 1.28575
0.28475258 0.24231885 1.2860001
0.29522726 0.24308939 1.2830001
0.30536792 0.24324115 1.284143
0.31527883 0.24219882 1.2830001
0.32419139 0.24175356 1.2830001
0.33638105 0.24027218 1.2870001
0.3555828 0.24114561 1.2848574
0.36530098 0.24084683 1.2847778
0.37426674 0.24070317 1.2853335
0.38555306 0.24027219 1.2870001
0.39323896 0.24070317 1.2853335
0.40343377 0.24027219 1.2870001
0.42131448 0.24027218 1.2870001
-0.5046522 0.25863427 1.2820001
-0.49982831 0.25714999 1.2820001
-0.4348594 0.25845876 1.2857502
-0.41156873 0.25876462 1.2845001
-0.40566885 0.2581529 1.2870001
-0.38294196 0.25937638 1.2820001
-0.3786087 0.25896856 1.2836668
-0.35873196 0.2581529 1.2870001
-0.34710932 0.25781861 1.2853335
-0.33460793 0.25653389 1.2845001
-0.32744071 0.25591782 1.2870001
-0.31058374 0.25937638 1.2820001
-0.30349901 0.25730211 1.2850001
-0.2956171 0.2571722 1.2846924
-0.28561729 0.25725925 1.284143
-0.27761835 0.25754941 1.2840002
-0.25541851 0.25625449 1.2845
-0.2488898 0.25335133 1.2853334
-0.13199222 0.25661126 1.2860001
-0.12727627 0.25418144 1.2820001
-0.11465995 0.25269717 1.2820001
-0.094692625 0.25512242 1.2830001
-0.084209666 0.25541851 1.2845001
-0.074820809 0.25348565 1.2860001
-0.064627662 0.25294358 1.2832501
-0.054592986 0.25289428 1.2830001
-0.044612795 0.25207239 1.2845001
-0.024544746 0.25318995 1.2845001
-0.013654651 0.25222862 1.283875
-0.0052058026 0.25170133 1.2845001
0.0033396101 0.25102735 1.2820001
0.017811254 0.25047076 1.2820001
0.024490476 0.25047076 1.2820001
-0.70144576 0.26858336 1.2870001
-0.69623059 0.26709327 1.2870001
-0.68862951 0.26749241 1.2853335
-0.52301109 0.26262307 1.2870001
-0.51684535 0.26328701 1.2855716
-0.50539428 0.26160279 1.2820001
-0.49760193 0.26160282 1.2820001
-0.48836717 0.26485819 1.2870001
-0.47601974 0.26583895 1.2855716
-0.4642058 0.26160279 1.2820001
-0.44254786 0.26038799 1.2870001
-0.43341848 0.26116544 1.2853334
-0.42453969 0.26129907 1.2832501
-0.41684431 0.26038799 1.2870001
-0.3944934 0.26038799 1.2870001
-0.38778812 0.26038799 1.2870001
-0.37437758 0.26038799 1.2870001
-0.36401749 0.26160282 1.2820001
-0.35649687 0.26038799 1.2870001
-0.30955997 0.26038799 1.2870001
-0.27491605 0.26038799 1.2870001
-0.26634824 0.26038799 1.2870001
-0.13522294 0.26038799 1.2870001
-0.073987216 -0.15806359 1.291
-0.12555405 -0.10201267 1.291
-0.02264457 -0.092596121 1.291
-0.085197389 -0.086318411 1.291
-0.078625411 -0.088731945 1.2934999
-0.035872586 -0.088560455 1.291
-0.50247324 0.15473701 1.296
-0.49515843 0.15642504 1.2959999
-0.48568988 0.15739845 1.29475
-0.47579223 0.15678243 1.291
-0.50153548 0.16917913 1.296
-0.49424934 0.16574842 1.2955831
-0.48569563 0.1644309 1.2921112
-0.47792751 0.16105297 1.2910001
-0.51203883 0.17893225 1.296
-0.50488955 0.17615195 1.2959998
-0.49532935 0.17521606 1.2934999
-0.48853984 0.17375785 1.291
-0.51248902 0.18388383 1.296
-0.5057283 0.18452248 1.2948887
-0.4954901 0.18440752 1.2910001
-0.4871946 0.18586485 1.291
-0.51203883 0.19243658 1.296
-0.5097881 0.19018584 1.296
0.70592034 0.20847413 1.2915556
0.67771661 0.219163 1.2943333
0.68448222 0.21712652 1.2922499
0.69615239 0.21336716 1.2910001
0.70226288 0.21236308 1.294
0.55938816 0.22980876 1.291
0.56155467 0.22844809 1.296
0.67765409 0.22345041 1.29475
0.68084282 0.22619736 1.296
0.35716981 0.23923931 1.2934999
0.36579394 0.23779812 1.293
0.37432584 0.23869669 1.293
0.38325429 0.23939344 1.2943333
0.39500138 0.2397017 1.296
0.40625498 0.23970169 1.296
0.41429031 0.2394705 1.29475
0.42415848 0.23844543 1.29225
0.43621528 0.23665926 1.29475
0.44434983 0.23732442 1.2922499
0.45420584 0.23890781 1.29475
0.46275395 0.23643024 1.2934999
0.49474856 0.23671637 1.2919999
0.50315642 0.23753293 1.294
0.51203883 0.23520024 1.296
0.52636492 0.23339729 1.2943333
0.53371936 0.23393698 1.294
0.54474461 0.23699076 1.2935001
0.55416965 0.23213902 1.294
-0.27016541 0.24774505 1.291
-0.26474425 0.24857727 1.293
-0.25658208 0.24870457 1.296
-0.013452221 0.2499871 1.291
-0.006173199 0.24966645 1.29225
0.0033760802 0.24870458 1.296
0.015708368 0.24798493 1.2922499
0.025069363 0.24806345 1.2926667
0.031510081 0.24645385 1.296
0.10782833 0.24597844 1.2934999
0.12535499 0.24565348 1.29475
0.13478054 0.2444794 1.2934999
0.1447234 0.24434622 1.2920001
0.15602273 0.24581997 1.2926667
0.16746013 0.2461369 1.2943333
0.17539009 0.24621615 1.29475
0.18418393 0.24570362 1.296
0.19430956 0.24288803 1.2935001
0.20590116 0.24517804 1.2922499
0.21565667 0.24597844 1.2934999
0.22442402 0.24574073 1.2922499
0.23501877 0.2462637 1.295
0.2458574 0.24501665 1.2928748
0.25458595 0.24410573 1.2934999
0.26494834 0.24427466 1.294
0.2750715 0.24363784 1.293
0.28809217 0.2419524 1.296
0.29595986 0.24238861 1.2943333
0.30495673 0.2423263 1.2945715
0.31448865 0.24148567 1.2934999
0.32604071 0.24171905 1.29475
0.33198121 0.2419524 1.296
0.3488616 0.2419524 1.296
0.35536283 0.24101895 1.291
-0.51541489 0.25995818 1.296
-0.44339186 0.25939548 1.296
-0.43315578 0.25800946 1.293
-0.42651147 0.25995821 1.296
-0.41075641 0.25995818 1.296
-0.39162529 0.25995818 1.296
-0.38471726 0.25824225 1.2938572
-0.37580848 0.25764549 1.2928751
-0.36480421 0.25928956 1.2926667
-0.35312077 0.25895524 1.291
-0.34333882 0.25621235 1.2930001
-0.33505091 0.25557286 1.2917143
-0.32492462 0.25621232 1.293
-0.31330907 0.25806397 1.2945715
-0.30648643 0.25447118 1.291
-0.29295945 0.25372383 1.291
-0.28472304 0.25445893 1.2944616
-0.27408567 0.2555764 1.2939411
-0.26515818 0.25550097 1.2942353
-0.2565386 0.25271496 1.2934998
-0.14067 0.25770745 1.296
-0.13537943 0.25565654 1.2932222
-0.12491497 0.25545672 1.296
-0.11994897 0.25447118 1.291
-0.10491182 0.25471756 1.2922499
-0.09322688 0.25440127 1.2934999
-0.086206399 0.25411993 1.2934999
-0.077649847 0.25320601 1.296
-0.062900767 0.25271755 1.2934999
-0.05552461 0.251663 1.2932223
-0.045330189 0.25137991 1.2943333
-0.037041366 0.25255474 1.2926667
-0.024324913 0.2533021 1.2926667
-0.018334571 0.25180453 1.2926667
-0.70406169 0.26629701 1.294
-0.69490129 0.26525271 1.2937779
-0.68769634 0.26602146 1.2926667
-0.52239454 0.26119727 1.291
-0.51678944 0.26231831 1.291
-0.4930779 0.26282409 1.2934999
-0.48456928 0.26391423 1.2921112
-0.47545922 0.26350409 1.2937779
-0.46746466 0.26194465 1.2910001
-0.45239472 0.26220888 1.296
-0.44392329 0.26119727 1.291
-0.42542645 0.26119727 1.291
-0.36480424 0.26153448 1.2926667
-0.27240747 0.26119727 1.291
-0.082468227 -0.086535148 1.3010001
-0.076819718 -0.086987033 1.3010001
-0.51145357 0.15990011 1.3060001
-0.50336421 0.159492 1.3026669
-0.52052593 0.16783842 1.3060001
-0.5142355 0.16589545 1.3050001
-0.50491989 0.16511299 1.3018827
-0.49819845 0.16267705 1.3010001
-0.52279401 0.17691076 1.3060001
-0.51597351 0.17443869 1.3013128
-0.50836575 0.17171466 1.3010001
-0.52165997 0.18484907 1.3060002
-0.51683855 0.18527108 1.3010001
-0.52052593 0.19392142 1.3060001
-0.51627368 0.19204929 1.3010001
0.70578808 0.20795873 1.3030002
0.69722915 0.21505795 1.3035002
0.70244062 0.21152487 1.3026669
0.55713069 0.22687292 1.3047501
0.56315136 0.22563478 1.3043336
0.29825342 0.23928314 1.3060001
0.30505764 0.23928313 1.3060001
0.31413001 0.23928314 1.3060001
0.36455256 0.23782627 1.3030002
0.37502491 0.23731451 1.3035002
0.38417226 0.23695505 1.3041251
0.39464712 0.23928314 1.3060001
0.40560287 0.23850425 1.3052859
0.41437945 0.23882952 1.3060001
0.42460981 0.23891671 1.3040003
0.43454036 0.2367126 1.3043336
0.444545 0.23701507 1.3060001
0.45472926 0.23769107 1.3035002
0.46495777 0.23701507 1.3060001
0.47062799 0.23474698 1.3060001
0.49706876 0.23610766 1.3010001
0.50481153 0.23618335 1.3035002
0.51423556 0.23547272 1.3050002
0.52165997 0.23701507 1.3060001
0.53773797 0.23384826 1.3010001
0.54379064 0.23308749 1.3037779
0.55258042 0.23293535 1.3043333
0.56135148 0.23021081 1.3060001
-0.26096109 0.24966408 1.3010001
-0.055355385 0.24966408 1.3010001
-0.014466433 0.24893709 1.3037778
-0.004529661 0.24900979 1.3035002
0.0079079121 0.24966408 1.3010001
0.014732795 0.24868265 1.3047502
0.0244189 0.24665445 1.3038573
0.032887258 0.24608742 1.3060001
0.11567242 0.24835549 1.3060001
0.1256422 0.24674605 1.3035002
0.13608521 0.24381933 1.3060001
0.14425483 0.2434442 1.3040003
0.15167309 0.24561635 1.3035002
0.16541295 0.24698375 1.3047501
0.17464268 0.24608742 1.3060001
0.18511525 0.24426228 1.3043333
0.19524692 0.24221855 1.3035002
0.20586912 0.24432674 1.3026669
0.21412788 0.24488008 1.3020002
0.22380058 0.24506854 1.3030002
0.23420253 0.24552214 1.3030002
0.2455204 0.24416475 1.3030002
0.25621912 0.24231391 1.303143
0.26540408 0.24313015 1.3043334
0.27591097 0.24311924 1.3022501
0.28326055 0.24255222 1.3022501
0.29552683 0.24118133 1.3040001
0.30501947 0.24062647 1.3010001
0.3146649 0.24108885 1.3035002
0.32446653 0.24146542 1.3035002
0.33478963 0.24188706 1.3047502
0.34134704 0.24155124 1.3060001
0.35359663 0.24062647 1.3010001
0.38974708 0.24062647 1.3010001
0.4033035 0.24062647 1.3010001
-0.69339722 0.25903308 1.3026669
-0.48763865 0.25969592 1.3060001
-0.47856629 0.25969592 1.3060001
-0.444545 0.25856188 1.3060001
-0.43464339 0.25806475 1.3035002
-0.42526627 0.25969592 1.3060001
-0.39351305 0.25969592 1.3060001
-0.36175984 0.25969592 1.3060001
-0.35540795 0.25919878 1.3035002
-0.32427388 0.25750208 1.3035002
-0.31456581 0.25478476 1.3024287
-0.28430825 0.2519235 1.3010001
-0.2779066 0.25192347 1.3010001
-0.2677393 0.25531256 1.3010001
-0.14261593 0.25693288 1.3035002
-0.13704413 0.25407812 1.3043336
-0.12571529 0.2552107 1.3043336
-0.11409033 0.25552619 1.3045716
-0.1036791 0.25353637 1.3035001
-0.095394529 0.25324938 1.3026668
-0.084852673 0.25231075 1.3030002
-0.073998213 0.25332206 1.3043336
-0.065032579 0.25220743 1.3037778
-0.053251192 0.25094855 1.3047501
-0.045361735 0.25062358 1.3060001
-0.0339569 0.25240469 1.3035001
-0.025033472 0.25296155 1.3037779
-0.01701065 0.25062358 1.3060001
-0.71073663 0.26431084 1.3026669
-0.70496094 0.26365158 1.3031431
-0.69485885 0.26243919 1.3021111
-0.50011313 0.26196402 1.3060001
-0.49383837 0.26221535 1.3050002
-0.48458534 0.26207271 1.3017145
-0.47406745 0.26136225 1.3030002
-0.46722585 0.2642321 1.3060001
-0.4524833 0.26196402 1.3060001
-0.42250842 0.26096109 1.3010001
-0.41798961 0.26096109 1.3010001
-0.40520602 0.26146254 1.3035002
-0.39765501 0.26096109 1.3010001
-0.37280157 0.2620908 1.3010001
-0.36037484 0.26096109 1.3010001
-0.35811543 0.26096109 1.3010001
-0.32093427 0.26196402 1.3060001
-0.5222261 0.15883902 1.3160001
-0.51568842 0.1574766 1.3110001
-0.52397567 0.16475746 1.3153751
-0.51739597 0.16221985 1.3110001
-0.5528512 0.17757973 1.3160001
-0.54565203 0.17731309 1.3160001
-0.53448945 0.17605439 1.3133078
-0.52751899 0.17482358 1.3121111
-0.55307978 0.18512172 1.3160001
-0.54552078 0.18492964 1.3151177
-0.53481334 0.18449426 1.3110001
-0.5278312 0.18479784 1.311
-0.55250835 0.19254944 1.3160001
-0.54576629 0.19494918 1.3160001
-0.53520763 0.19552742 1.313143
-0.52704805 0.19328327 1.3114545
-0.54279518 0.20226263 1.3160002
0.56805414 0.21970831 1.3110001
0.68818867 0.21874329 1.3143334
0.69383669 0.21784472 1.3135002
0.70258027 0.2138553 1.3135002
0.5481922 0.22825444 1.3143334
0.55465835 0.2252166 1.3127857
0.5642184 0.22188495 1.3126668
0.68792146 0.22054626 1.3160001
0.31653529 0.23882988 1.3160001
0.32796258 0.23882988 1.3160001
0.36567253 0.23882988 1.3160001
0.37452868 0.2356457 1.3110001
0.38462749 0.23543838 1.3126667
0.39534965 0.23741081 1.3137778
0.40542457 0.236232 1.3130001
0.41502398 0.2356894 1.3126667
0.42439994 0.23784547 1.3126668
0.43341339 0.23723346 1.3135002
0.44482112 0.23609507 1.3135002
0.45437214 0.23688895 1.3147502
0.46473464 0.23727714 1.3150002
0.4751575 0.23624486 1.3143334
0.50608265 0.23480543 1.3126668
0.51543695 0.23453632 1.3150002
0.54585564 0.23166135 1.3110001
0.55325514 0.23109215 1.3110001
-0.053504102 0.24930632 1.3110001
-0.042120248 0.24930632 1.3110001
-0.03358236 0.24873713 1.3110001
-0.024853265 0.24877249 1.3130001
-0.018283628 0.2479717 1.3160001
-0.0022832826 0.24863902 1.3135002
0.001138385 0.24930632 1.3110001
0.016644737 0.24740468 1.3130001
0.025272146 0.24429743 1.3110001
0.033681132 0.24488151 1.3147501
0.10613611 0.24765766 1.3143334
0.11484403 0.2479717 1.3160001
0.12488978 0.24692926 1.3135002
0.13567623 0.24238709 1.3130001
0.14527759 0.24327642 1.3122501
0.15597294 0.24613403 1.3143334
0.16465528 0.24686909 1.3150001
0.17537324 0.24499419 1.3143334
0.18437779 0.2437388 1.3147501
0.19580223 0.24247602 1.3110001
0.20549652 0.24316961 1.3147501
0.21577053 0.24389893 1.3132223
0.2260541 0.24398023 1.3138573
0.23506467 0.24419346 1.3141251
0.24436355 0.24379219 1.3135
0.25456062 0.24126354 1.3126668
0.26630431 0.24211669 1.3140001
0.27638492 0.24220388 1.3120002
0.28475735 0.24179569 1.3135002
0.29368979 0.24120426 1.314
0.31988621 0.24019924 1.3110001
0.32557812 0.24019924 1.3110001
0.3353256 0.24065728 1.3135
0.34374437 0.24286577 1.3151667
0.35484442 0.24211843 1.3140001
0.36086807 0.24019924 1.3110001
-0.70553762 0.25915256 1.3147501
-0.69783002 0.25727502 1.3110001
-0.50254244 0.25754681 1.3143334
-0.4944841 0.25652972 1.3138573
-0.48497781 0.25651965 1.3119091
-0.47840267 0.25703287 1.3141251
-0.45251977 0.25939897 1.3160001
-0.44680613 0.25787532 1.3160002
-0.43340689 0.25890619 1.3135002
-0.42428678 0.25890619 1.3135002
-0.39374143 0.25907046 1.3143334
-0.38705093 0.2584134 1.3110001
-0.36338711 0.25939897 1.3160001
-0.35517612 0.2584134 1.3110001
-0.34417173 0.25689554 1.3110001
-0.33507442 0.25629795 1.3147501
-0.32584539 0.25561321 1.3130001
-0.31715408 0.25294915 1.3110001
-0.14523296 0.25624418 1.3135002
-0.13774459 0.25385985 1.3110001
-0.1255838 0.25458601 1.3147501
-0.11428042 0.25252008 1.3139167
-0.10544755 0.25082541 1.3138573
-0.095995381 0.25082541 1.3138573
-0.086483233 0.25170171 1.3140001
-0.075479187 0.25150982 1.3130001
-0.065429501 0.25069913 1.3143334
-0.058279064 0.25025713 1.3160001
-0.046851795 0.25025713 1.3160002
-0.036900409 0.25069913 1.3143334
-0.024695402 0.25114113 1.3126669
0.00342818 0.25025713 1.3160001
0.01028454 0.25025713 1.3160001
-0.71512854 0.2623257 1.3135002
-0.70648175 0.26114556 1.3110001
-0.50430459 0.26069018 1.3110001
-0.49633589 0.26069018 1.3110001
-0.48495203 0.26069018 1.3110001
-0.47514886 0.26211482 1.3143334
-0.4643847 0.2644794 1.3140001
-0.45479307 0.2617805 1.3126669
-0.42006409 0.26069018 1.3110001
-0.4141759 0.26128674 1.3140001
-0.40375894 0.26118731 1.3135002
-0.39843476 0.26069018 1.3110001
-0.37339029 0.26069018 1.3110001
-0.36816582 0.26102161 1.3126669
-0.3256771 0.26168442 1.3160001
-0.54001129 0.16925727 1.3260001
-0.53406262 0.1688318 1.3226669
-0.52879852 0.16517785 1.3210001
-0.55449283 0.17228968 1.3210001
-0.54473722 0.1733031 1.3235002
-0.53491628 0.17167792 1.3210001
0.71118236 0.20991351 1.3210001
0.56692874 0.21964291 1.3243335
0.57232332 0.21950468 1.3235002
0.68954134 0.21720621 1.3235002
0.69541937 0.21649948 1.3220001
0.70543361 0.21367252 1.3247501
0.71042001 0.21070804 1.3260001
0.54937136 0.22778991 1.3226669
0.55487108 0.22309759 1.3230002
0.56321061 0.22138421 1.3210001
0.028785251 0.23834188 1.3260001
0.25809038 0.23973729 1.3210001
0.26038453 0.23973729 1.3210001
0.28103176 0.23973729 1.3210001
0.30282605 0.23973729 1.3210001
0.32714936 0.23827344 1.3235002
0.3352609 0.23881489 1.3222501
0.34378707 0.23927216 1.3226669
0.35396132 0.23903958 1.3235002
0.36247361 0.23973729 1.3210001
0.37967962 0.23744315 1.3210001
0.3842679 0.23514901 1.3210001
0.39403492 0.2345839 1.3230002
0.40453219 0.23444264 1.3235002
0.41372609 0.23329556 1.3235002
0.42493927 0.23585695 1.323143
0.43481147 0.2365071 1.3243334
0.4446331 0.23552923 1.323143
0.45492107 0.2358593 1.3250002
0.46523553 0.23535101 1.3253752
0.47434685 0.23473048 1.3235002
0.48267612 0.2367411 1.3235002
0.50585711 0.23629609 1.3210001
0.51390225 0.23384427 1.3240002
0.52500218 0.23596211 1.3230002
0.54588866 0.23214415 1.3235002
-0.13010934 0.24985598 1.3260001
-0.12435228 0.24985598 1.3260001
-0.11481863 0.24914938 1.3222501
-0.10553029 0.24891384 1.3210001
-0.095345609 0.2492907 1.3230002
-0.085204333 0.24985598 1.3260001
-0.074723557 0.24947913 1.3240002
-0.064417094 0.24962045 1.3247501
-0.054686766 0.24846531 1.3238573
-0.045611821 0.24915813 1.3243335
-0.037996531 0.24985598 1.3260001
-0.026382573 0.24891384 1.3210001
-0.012053987 0.24857366 1.3222501
-0.0042102593 0.24807793 1.3226669
0.0038373098 0.24893135 1.3251668
0.013406344 0.24785116 1.3235002
0.026051594 0.24286893 1.3235002
0.032623284 0.24448274 1.3260001
0.10680905 0.24693087 1.3226669
0.11529716 0.24574749 1.324182
0.12521629 0.24538369 1.3230002
0.13305992 0.24432556 1.3210001
0.14479762 0.24248947 1.3235002
0.15507402 0.24380878 1.3228751
0.16452155 0.24411631 1.3232729
0.17468436 0.24363652 1.3235
0.18284121 0.24340688 1.3243334
0.2176165 0.24294752 1.3260001
0.22568646 0.24175408 1.3220001
0.23503286 0.2414151 1.3232224
0.24534912 0.24126104 1.3237779
0.25364819 0.24099138 1.3247501
0.26662132 0.24133807 1.3235002
0.27523562 0.24126104 1.3237779
0.28670111 0.24064469 1.3260001
0.29275924 0.24099138 1.3247501
0.32354623 0.24064469 1.3260001
0.34870878 0.24203143 1.3210001
0.35473114 0.24133807 1.3235002
-0.47458637 0.25592428 1.3253752
-0.46599209 0.25742242 1.3260001
-0.45557982 0.25764841 1.3226669
-0.44099003 0.25906727 1.3260001
-0.43400106 0.25833461 1.3222501
-0.42422423 0.2586765 1.3240001
-0.41450763 0.25906727 1.3260001
-0.40430242 0.25841132 1.3250002
-0.396175 0.25821596 1.3240001
-0.364997 0.25906727 1.3260001
-0.35396135 0.25857884 1.3235002
-0.34558937 0.25591487 1.3240002
-0.33498132 0.25573373 1.3226669
-0.32753173 0.25474516 1.3235002
-0.15237167 0.25573519 1.3226669
-0.14547768 0.2545867 1.3226669
-0.13473803 0.25348306 1.324182
-0.12462677 0.2526938 1.3221112
-0.11814804 0.25120798 1.3210001
-0.090618402 0.25120798 1.3210001
-0.083735988 0.25178152 1.3210001
-0.075324163 0.25120801 1.3210001
-0.069971174 0.25120798 1.3210001
0.0068824105 0.25120798 1.3210001
-0.71577066 0.26038453 1.3210001
-0.47415572 0.2623972 1.3253751
-0.46527773 0.26301169 1.3250002
-0.45768028 0.26038453 1.3210001
-0.42097411 0.26038453 1.3210001
-0.41471338 0.26077875 1.3230002
-0.40491515 0.26084337 1.3210001
-0.38111672 0.26137006 1.3260001
-0.37465632 0.26087731 1.3235002
-0.36820894 0.26038453 1.3210001
-0.32691449 0.26038453 1.3210001
-0.55412173 0.1686082 1.3322502
-0.54589593 0.168513 1.333143
-0.53696644 0.16586755 1.333143
-0.55360508 0.172207 1.3310001
-0.54898208 0.172207 1.3310001
0.56654227 0.21873419 1.3351668
0.5738489 0.21753731 1.3340001
0.69605446 0.214773 1.333778
0.70502406 0.2131408 1.3332225
0.54666257 0.22716302 1.3347502
0.55394793 0.22394049 1.3335003
0.56221956 0.22095589 1.3322501
-0.13059995 0.2392406 1.3310001
0.2299946 0.2392406 1.3310001
0.23577335 0.2392406 1.3310001
0.24478611 0.23841861 1.3328751
0.25334734 0.23888524 1.3322501
0.27275741 0.2392406 1.3310001
0.2820034 0.2392406 1.3310001
0.29009369 0.2392406 1.3310001
0.32653633 0.23852986 1.3335001
0.33712316 0.2373551 1.3360001
0.34490085 0.23668282 1.3328751
0.35484457 0.23688339 1.3318336
0.36474341 0.23823985 1.3335003
0.37006977 0.23781914 1.3360001
0.38602108 0.23577335 1.3310001
0.39791203 0.23549895 1.3360001
0.40471283 0.23253213 1.333778
0.4124108 0.23194423 1.3322501
0.4264724 0.23461759 1.3310001
0.4341774 0.23461759 1.3310001
0.44380865 0.23461759 1.3310001
0.45670545 0.23452324 1.3326668
0.46364722 0.23298225 1.3326669
0.47343531 0.23310106 1.3322501
0.48520988 0.2332447 1.3330836
0.49336296 0.2341556 1.3344618
0.50546271 0.23592798 1.3345002
0.51469332 0.23390035 1.3335001
0.52613735 0.23336749 1.3326669
0.53540707 0.23443882 1.3341581
0.54465902 0.23408581 1.3345716
-0.14037129 0.24942008 1.3360001
-0.13331176 0.24691319 1.3350003
-0.12539373 0.2468873 1.3337275
-0.11550224 0.24779326 1.3335001
-0.10525069 0.24867332 1.3320001
-0.094863899 0.24871996 1.3322501
-0.085525624 0.24848661 1.3310001
-0.074397504 0.24825552 1.3318336
-0.064416453 0.24802437 1.3326668
-0.056213822 0.24682236 1.3320001
-0.046461221 0.24756204 1.3310002
-0.024270786 0.24848661 1.3310001
-0.013892899 0.24779326 1.3335001
-0.0042454749 0.24555588 1.3332224
0.0042442689 0.2470213 1.3335003
0.015842309 0.24655907 1.3351668
0.025041288 0.24386363 1.3310001
0.031205297 0.24270785 1.3310001
0.10758585 0.24582626 1.3322501
0.11547792 0.24331425 1.3343334
0.12459381 0.2430613 1.3338573
0.13274872 0.2434852 1.334
0.14589608 0.24432166 1.3335001
0.15545136 0.24262509 1.3326669
0.16411674 0.2415521 1.3310001
0.1738501 0.24223267 1.3347501
0.18758127 0.24432166 1.3335001
0.19453317 0.24432166 1.3335001
0.20507893 0.24408764 1.3343334
0.2152258 0.24302116 1.334
0.22507401 0.24094662 1.333143
0.25870082 0.24013932 1.3360001
0.26425055 0.24049252 1.3347502
0.27571553 0.24013934 1.3360002
0.28770316 0.24013932 1.3360001
0.29670277 0.24049251 1.3347501
0.30569804 0.24200581 1.3335001
0.31554538 0.24245952 1.3360001
