# .PCD v0.7 - Point Cloud Data file format
VERSION 0.7
FIELDS x y z
SIZE 4 4 4
TYPE F F F
COUNT 1 1 1
WIDTH 1487
HEIGHT 1
VIEWPOINT 0 0 0 1 0 0 0
POINTS 1487
DATA ascii
0.045269039 0.26163384 1.0222501
0.055388082 0.2633166 1.0233334
0.06504482 0.26342949 1.0230001
0.074593917 0.26108381 1.0227002
0.084518902 0.26065141 1.0218749
0.095423102 0.26074684 1.0222501
0.1042283 0.26063547 1.0234286
0.11314557 0.26103663 1.026
0.13591067 0.26027337 1.023
0.14475797 0.26246372 1.0227273
0.15447582 0.26208419 1.0236
0.1603117 0.26128152 1.0200001
0.19494085 0.26060942 1.0220001
0.20253354 0.26027337 1.023
-0.55492628 0.27403283 1.0232143
-0.50722218 0.27181876 1.023
-0.45377362 0.27108213 1.0213333
-0.44746575 0.27202344 1.0204287
-0.42321831 0.27109587 1.0225
-0.41648352 0.27115667 1.0205002
-0.39413652 0.2701385 1.0200001
-0.35306558 0.27125084 1.0242001
-0.345258 0.27152523 1.0230001
-0.33481494 0.2706517 1.0206001
-0.32552993 0.27083102 1.0215
-0.3158209 0.27050507 1.0204287
-0.30468082 0.2701385 1.0200001
-0.29491729 0.27093303 1.023
-0.28452003 0.27033713 1.02075
-0.25065312 0.2701385 1.0200001
-0.24562649 0.27045631 1.0212001
-0.22546211 0.2707344 1.0222501
-0.21876791 0.2701385 1.0200001
-0.19532943 0.27080062 1.0225
-0.18804583 0.27053577 1.0215001
0.037115 -0.42151853 1.0324
0.042350642 -0.42258859 1.0376668
0.035518467 -0.41506809 1.0335358
0.041752577 -0.41571206 1.03775
0.029174089 -0.40252653 1.0306001
0.034651019 -0.40567309 1.0358964
0.02825881 -0.3944703 1.0319999
0.034127511 -0.39517999 1.0366818
0.026432065 -0.38436794 1.0324
0.032954864 -0.38617566 1.0377145
0.025713686 -0.37519228 1.0331036
0.031576943 -0.37621674 1.039
0.026559083 -0.36517844 1.0319092
0.033068273 -0.36456975 1.0378462
0.027874965 -0.35518602 1.0313125
0.034071434 -0.35504201 1.0367894
0.027993703 -0.34563193 1.0304286
0.034975164 -0.34481183 1.0364286
0.028918399 -0.33380374 1.0300001
0.034919545 -0.33483326 1.0368888
0.028748039 -0.3256833 1.0300002
0.035183009 -0.32482806 1.036857
0.035066213 -0.31481877 1.0352799
0.040598925 -0.31306285 1.039
0.035989482 -0.30542323 1.0331666
0.04483024 -0.30345377 1.0388694
0.051425308 -0.30494303 1.039
0.036623497 -0.29533812 1.0315883
0.044855155 -0.29447991 1.0364836
0.037979413 -0.28631461 1.0308573
0.044770338 -0.2852149 1.0365999
0.051876407 -0.28644797 1.039
0.038458489 -0.27636445 1.0300001
0.044481535 -0.27521402 1.0358888
0.038458485 -0.26384312 1.0300001
0.043888148 -0.26471469 1.0313931
0.038458485 -0.25579366 1.0300001
0.043652292 -0.25538412 1.0301502
0.038160358 -0.24357042 1.0300002
0.042827446 -0.24532504 1.0305716
0.037663478 -0.23562032 1.0300001
0.041944724 -0.23567487 1.0308572
0.038458485 -0.22538459 1.0300002
0.042431295 -0.22573373 1.0326841
0.035775334 -0.21018009 1.0300001
0.042036019 -0.21912393 1.0300001
0.028528601 -0.20174152 1.0312859
0.034975 -0.20444828 1.0327002
0.041095037 -0.20546706 1.0363333
0.01820403 -0.19277638 1.0310001
0.025383539 -0.19474413 1.0343713
0.034863211 -0.19476697 1.0370713
0.040481701 -0.19791055 1.036
0.0071602762 -0.18169072 1.03075
0.015482452 -0.18478556 1.0346155
0.024422105 -0.18725634 1.0375788
0.032479141 -0.18765727 1.039
-0.0033212216 -0.17266156 1.0328236
0.0048571527 -0.17695855 1.03555
0.012630777 -0.17953748 1.039
-0.021465201 -0.16009462 1.0300001
-0.014415434 -0.16408835 1.0334001
-0.0075399387 -0.16766673 1.036
-0.050979853 -0.15115079 1.0300001
-0.044007063 -0.15230432 1.03075
-0.034813426 -0.15309463 1.0310588
-0.025955353 -0.15498559 1.0308571
-0.018891461 -0.15922803 1.036
-0.051576108 -0.1481695 1.0300001
-0.044955593 -0.14905977 1.0335455
-0.035001215 -0.14927071 1.0335001
-0.029600617 -0.14979705 1.033
-0.42214894 0.15830585 1.0300001
-0.4151552 0.15807736 1.033
-0.19432965 0.15646911 1.0348749
-0.18550937 0.15304399 1.0337501
-0.17641494 0.15214287 1.0352501
-0.42225981 0.16084632 1.0310001
-0.41390345 0.16141096 1.0317501
-0.40529513 0.16536285 1.0345428
-0.39607814 0.16796358 1.036
-0.20159258 0.16576721 1.0360001
-0.1966939 0.16283362 1.0315002
-0.40198994 0.17396869 1.0306001
-0.39514348 0.17531316 1.0324752
-0.38730842 0.17600428 1.0365
-0.2034238 0.17519224 1.036
-0.19944748 0.17351037 1.0300001
-0.39202061 0.1832353 1.0309231
-0.38509011 0.18505137 1.0341539
-0.37914887 0.18562731 1.039
-0.20455652 0.18246636 1.0351429
-0.39082575 0.19586137 1.031
-0.38529736 0.19442187 1.0352998
-0.37838197 0.19289002 1.039
0.40782014 0.24972095 1.0345001
0.41050026 0.24990894 1.039
0.42493543 0.24990894 1.039
0.4303486 0.24990894 1.039
0.45493942 0.24828523 1.0347502
0.4620595 0.2473871 1.03225
0.55711532 0.24362525 1.0315001
0.56460208 0.24486765 1.0351429
0.57109153 0.24449575 1.039
0.029514652 0.25758243 1.0300001
0.032197803 0.25668803 1.0300001
0.040364478 0.25922963 1.033
0.066366002 0.25945669 1.0375001
0.075244054 0.25886807 1.0357502
0.08282055 0.25971958 1.0367501
0.098055676 0.25998247 1.036
0.10660514 0.25945669 1.0375001
0.11081019 0.25945669 1.0375
0.12901437 0.25893092 1.039
0.13552132 0.25848058 1.0336001
0.14248329 0.25934315 1.0352501
0.15652925 0.25998247 1.036
0.16419551 0.25840479 1.0333002
0.17498575 0.25852549 1.0345001
0.18519785 0.25700033 1.0336667
0.19490339 0.25768968 1.0350001
0.20490584 0.25883022 1.0350001
0.21506707 0.25718647 1.0320001
0.22646306 0.25796244 1.0338182
0.23500097 0.25708693 1.0345883
0.24516295 0.25726753 1.0362726
0.25587526 0.25767133 1.0354
0.26577514 0.25743109 1.0362728
0.27483824 0.25579467 1.0346
0.28571016 0.25497153 1.0343335
0.29542905 0.25493306 1.0346155
0.30496687 0.25437206 1.0351429
0.31490344 0.25434977 1.0336001
0.3239485 0.25418201 1.0338572
0.33532035 0.25461751 1.0342002
0.34478366 0.25393888 1.035077
0.35576209 0.25517026 1.0343335
0.36472455 0.25419179 1.0348749
0.3743194 0.25268948 1.0350001
0.38387704 0.25322521 1.0341251
0.39334142 0.25313857 1.0350002
0.41478932 0.25077158 1.0330001
0.42442107 0.25100553 1.0330002
0.43417615 0.25181913 1.0345001
0.44478288 0.25210366 1.0369002
0.4509407 0.25062317 1.0345
-0.56249201 0.26960143 1.0315001
-0.55809522 0.26920938 1.0300001
-0.47832364 0.26922548 1.0335001
-0.46313977 0.26879579 1.0330001
-0.45616475 0.26893815 1.0341251
-0.43503934 0.26999348 1.033
-0.42221603 0.26962161 1.0367501
-0.4144097 0.26900664 1.0352501
-0.40622592 0.26822072 1.0342503
-0.39506131 0.26785222 1.0316668
-0.38905677 0.26742062 1.0300001
-0.35174102 0.26987541 1.036
-0.34477144 0.26888031 1.0351429
-0.33418286 0.2680212 1.0339231
-0.32440528 0.26772603 1.0352105
-0.31459829 0.26742965 1.0338182
-0.30535874 0.26944646 1.0338572
-0.29780012 0.26999348 1.033
-0.28334031 0.26928788 1.0372001
-0.27658764 0.26940599 1.0342001
-0.26478902 0.26897842 1.0360001
-0.25417477 0.26794481 1.0343335
-0.24556355 0.26721412 1.031091
-0.23436356 0.26711604 1.035
-0.22788242 0.26757008 1.0336666
-0.21472968 0.2690877 1.0356668
-0.20402841 0.26796246 1.0336924
-0.19501653 0.26835674 1.0331874
-0.18507268 0.26792449 1.0331765
-0.17525645 0.26651356 1.0315001
-0.16903846 0.26473749 1.0300001
-0.092024229 0.2697573 1.039
-0.084374458 0.2665185 1.0361668
-0.07515987 0.2634235 1.0332308
-0.063963681 0.26364839 1.0327501
-0.055117689 0.26397118 1.0334738
-0.045172531 0.26494363 1.0350524
-0.035092998 0.26542819 1.0362
-0.026824407 0.26539716 1.0354999
-0.014424102 0.2659564 1.03825
-0.0045061074 0.26518369 1.0378751
0.006463795 0.26509705 1.0368183
0.015434093 0.26432997 1.036231
0.024371009 0.26213109 1.0332501
0.044981405 0.26238054 1.0360001
0.055445082 0.26163504 1.0333
0.064381063 0.26178688 1.033375
0.074303284 0.2608164 1.0310001
0.086022571 0.26061639 1.0334287
0.094524696 0.2607567 1.0347999
0.10378353 0.26082075 1.034875
0.11540268 0.26127023 1.0346365
0.12640199 0.26177776 1.036
0.13081877 0.26073533 1.039
0.1476725 0.2615996 1.0342859
0.15318184 0.26109424 1.0356668
0.20481379 0.26026556 1.0300001
-0.56226796 0.27352428 1.0308573
-0.55671942 0.27252406 1.0338572
-0.47414118 0.27203792 1.0370001
-0.45121518 0.27181092 1.0372
-0.44812399 0.27163696 1.0370001
-0.43242741 0.27116966 1.0375
-0.42601216 0.27150548 1.0345001
-0.36268374 0.27156171 1.039
-0.35616189 0.27133751 1.0343332
-0.34880951 0.27099815 1.0300001
-0.29352555 0.27108455 1.0337501
-0.28702101 0.27086583 1.0336001
-0.23299468 0.27077761 1.036
-0.22424188 0.27088788 1.0330001
-0.091758519 0.27077761 1.036
0.047170579 -0.42451504 1.044625
0.044666581 -0.41377762 1.0444375
0.038906544 -0.40263748 1.0420001
0.04220714 -0.40539092 1.0460002
0.038696036 -0.39458996 1.0432858
0.041361649 -0.39520141 1.0468751
0.037032317 -0.3846736 1.0454738
0.0409506 -0.3885757 1.0480001
0.035722781 -0.37553105 1.0453914
0.0409506 -0.37401548 1.0480001
0.037835028 -0.36572969 1.0441818
0.04184889 -0.36481193 1.0477003
0.038648028 -0.35532922 1.0420001
0.042725541 -0.35430348 1.0468464
0.038906544 -0.34292048 1.0420001
0.044300668 -0.34473738 1.0462002
0.050050735 -0.34489506 1.0480001
0.044903588 -0.33483315 1.0450001
0.050050735 -0.33761495 1.0480001
0.044943117 -0.3252911 1.0451936
0.050050735 -0.32396474 1.0480001
0.045351975 -0.31487286 1.0445001
0.050936006 -0.31562573 1.0475001
0.046144973 -0.30802095 1.0420001
0.051573791 -0.30853796 1.0420001
0.04885938 -0.28229865 1.0420001
0.052478597 -0.28501308 1.0420001
0.017657341 -0.18063787 1.0427501
0.025709957 -0.18233185 1.0426
0.032085788 -0.18363254 1.0438
0.0055694291 -0.17326471 1.0439286
0.014663979 -0.17725344 1.0460716
0.025604894 -0.17744236 1.0458002
0.03084928 -0.17693943 1.0450001
-0.013600055 -0.16117461 1.04425
-0.0046130023 -0.16427475 1.0447392
0.0018174218 -0.16802859 1.046
-0.020810477 -0.15834059 1.0420001
-0.012740187 -0.15925233 1.0480001
-0.0051567424 -0.15925233 1.0480001
-0.18083346 0.14902729 1.0465001
-0.17759804 0.14950746 1.0435001
-0.41105598 0.15879646 1.0450001
-0.4049063 0.1574938 1.0460001
-0.39845589 0.15691231 1.0480002
-0.20264253 0.15765938 1.0465001
-0.19530922 0.1528635 1.04375
-0.18510923 0.1508092 1.0450001
-0.17875944 0.15153719 1.0450001
-0.40347186 0.16167481 1.0434999
-0.39455926 0.16467401 1.0453751
-0.38672179 0.16745815 1.0466877
-0.21021308 0.16835247 1.0480001
-0.20617153 0.16472518 1.0445385
-0.38391995 0.17381081 1.044129
-0.37727022 0.17550625 1.0472503
-0.21166895 0.17532572 1.0462002
-0.20827216 0.17427963 1.0423332
-0.38182703 0.18005587 1.0420001
-0.3762911 0.18462229 1.0450001
-0.21142615 0.18329649 1.0450001
-0.20900957 0.18277028 1.0420001
-0.38152546 0.19785033 1.0420001
-0.376636 0.19553447 1.0447273
0.45686492 0.24856448 1.0460001
0.46030048 0.24736691 1.0435001
0.5660466 0.24362569 1.0430001
0.57257473 0.24409287 1.0450001
0.05881222 0.25967857 1.0420001
0.065334052 0.25929001 1.0450001
0.073711082 0.25935382 1.0480001
0.082337104 0.25967857 1.0420001
0.095599361 0.2591413 1.0463334
0.10405289 0.25928089 1.0445715
0.11273833 0.25908056 1.0458572
0.14653069 0.25946209 1.0460002
0.15396413 0.25876755 1.0456431
0.1645668 0.25897598 1.0454288
0.17562455 0.25730914 1.0452501
0.18445902 0.25701055 1.0444001
0.1948646 0.25650167 1.0438001
0.20483673 0.2574065 1.0438001
0.21393739 0.25806057 1.044
0.22480631 0.25768393 1.0453334
0.23536307 0.25557816 1.0425
0.24566068 0.25615147 1.0456668
0.25407305 0.25702146 1.0450001
0.26566154 0.25593463 1.0441818
0.27395293 0.25431901 1.0450001
0.28274411 0.2560747 1.0470002
0.29364866 0.25486308 1.0470002
0.30329862 0.25429925 1.0450001
0.31276035 0.25424975 1.0420001
0.32631862 0.25396597 1.0468
0.33500129 0.25374594 1.0444001
0.34442183 0.25264546 1.0450001
0.3548139 0.25434455 1.0455002
0.36386749 0.25361997 1.0450001
0.37385356 0.25225821 1.0450001
0.38627267 0.25343764 1.04425
0.39468831 0.25295842 1.0462859
0.40159547 0.25292468 1.0440001
0.41951615 0.25207371 1.0480001
0.42511567 0.2506265 1.043875
0.43556371 0.25065753 1.0459001
0.44479549 0.25112599 1.0452309
0.45208168 0.25034788 1.0465001
-0.48062223 0.2688936 1.0450001
-0.47805688 0.26915151 1.0460001
-0.4550744 0.26898262 1.0444001
-0.4485622 0.26829043 1.0450001
-0.43598914 0.26929101 1.0456002
-0.42442122 0.26843712 1.0444001
-0.41511238 0.2671445 1.0454288
-0.40651637 0.26707968 1.0450001
-0.39857429 0.26863572 1.0440001
-0.35439575 0.26857883 1.0452728
-0.34448349 0.26773092 1.044
-0.33403426 0.26690754 1.044625
-0.32618159 0.26646459 1.0420001
-0.31595576 0.26774105 1.0438
-0.30441293 0.26897711 1.0465001
-0.29448262 0.26812312 1.0467145
-0.28464428 0.26866868 1.0453
-0.27806553 0.26897711 1.0465001
-0.26042619 0.26950029 1.0450001
-0.25512815 0.26820108 1.0456002
-0.24497786 0.26707068 1.0426
-0.23434407 0.26601219 1.0420001
-0.22450359 0.26836926 1.0444547
-0.21495289 0.26846391 1.0445001
-0.20562899 0.2672244 1.0432001
-0.19442321 0.26694229 1.043875
-0.18535385 0.26659015 1.0446669
-0.17824626 0.26510739 1.0420001
-0.092916586 0.26744834 1.0456667
-0.085576706 0.26430088 1.0433637
-0.078717895 0.26329777 1.0420001
-0.062493086 0.26355219 1.0430001
-0.055286266 0.2623018 1.0438
-0.043628059 0.2628774 1.0443335
-0.035219457 0.26271832 1.0445001
-0.024635017 0.2642743 1.0447693
-0.015267545 0.26504916 1.0447502
-0.0049900943 0.26441842 1.0452502
0.0050799241 0.26390213 1.0444001
0.014226485 0.26301152 1.0456667
0.022686947 0.2628442 1.0450001
0.047181327 0.26360083 1.0450001
0.053596485 0.26254216 1.0462002
0.087174371 0.26061308 1.0457501
0.094068006 0.26042622 1.0450001
0.11826555 0.26102942 1.0450001
0.12447898 0.26223913 1.0450001
0.13157421 0.26042619 1.0450001
0.14518534 0.26042619 1.0450001
0.15698165 0.26042619 1.0450001
-0.56499988 0.27205545 1.0458573
-0.55801362 0.27401266 1.0456002
-0.47422811 0.27089286 1.04425
-0.4533065 0.27053624 1.0420001
-0.44728702 0.2718032 1.0453334
-0.43502146 0.27049249 1.0430001
-0.42887679 0.27053621 1.0420001
-0.39221579 0.27209398 1.0480001
-0.3885757 0.27209398 1.0480001
-0.37037542 0.27209398 1.0480001
-0.36508894 0.27118266 1.0459001
-0.35739732 0.27053624 1.0420001
-0.31031457 0.27027395 1.0480001
-0.30419672 0.27059978 1.0457501
-0.29572099 0.27061 1.0432858
-0.28863227 0.27053621 1.0420001
-0.2731334 0.27070841 1.0450001
-0.26299387 0.27027395 1.0480001
-0.22439124 0.27053621 1.0420001
-0.21624801 0.27053621 1.0420001
0.048414797 -0.42203087 1.052
0.050528318 -0.42535657 1.0580001
0.047992568 -0.41410252 1.0527501
0.050528318 -0.41616958 1.0580001
0.046817992 -0.40449643 1.0544002
0.050528318 -0.40790135 1.0580001
0.045064278 -0.39445913 1.0536876
0.044673741 -0.38489309 1.0537729
0.051374074 -0.38163731 1.0565001
0.045128323 -0.37568349 1.0524287
0.050313406 -0.37506619 1.0535001
0.046587825 -0.36539468 1.052
0.050265651 -0.36556706 1.0525001
0.04674007 -0.35610756 1.052
0.05085076 -0.35534638 1.052
0.048414797 -0.34986541 1.052
0.051155254 -0.34986541 1.052
-0.51557684 -0.21191806 1.0565001
0.0076202042 -0.1715934 1.0530001
0.014591934 -0.17377624 1.0542942
0.022333037 -0.17461663 1.0528573
-0.0027404602 -0.16168715 1.052
0.0033602188 -0.16455938 1.0548003
0.010105664 -0.16995889 1.0580001
-0.021130024 -0.15801583 1.0580001
-0.015244256 -0.15732443 1.0544708
-0.0053537716 -0.15835783 1.0524287
-0.38217783 0.14974757 1.0580001
-0.20211327 0.14974757 1.0580001
-0.19460756 0.14908747 1.0555003
-0.18704794 0.14835577 1.0537144
-0.41015553 0.15620622 1.052
-0.40284762 0.15620622 1.052
-0.39393958 0.15766178 1.0536001
-0.3842214 0.15609264 1.0568002
-0.37758434 0.15801585 1.0580001
-0.21130024 0.15801583 1.0580001
-0.2050916 0.15547113 1.0535883
-0.19548616 0.15072531 1.052
-0.39284965 0.16157272 1.0527501
-0.38384321 0.16382913 1.0544646
-0.3747595 0.16540071 1.0566366
-0.36778492 0.16934644 1.0580001
-0.21353833 0.16587885 1.0554289
-0.20918845 0.16260064 1.052
-0.37349221 0.17485796 1.0546899
-0.36692747 0.17657351 1.0580002
-0.3592104 0.17914586 1.0580001
-0.21558885 0.17455421 1.0547001
-0.3723658 0.18496183 1.0545002
-0.36630997 0.18549174 1.0570459
-0.35921043 0.18649542 1.0580001
-0.21466938 0.18269734 1.052
-0.37341544 0.19498642 1.0557897
-0.3676683 0.19276375 1.0576668
-0.3592104 0.19017021 1.0580001
0.42903134 0.2489668 1.0580001
0.43437636 0.24907057 1.0565001
0.44573775 0.24890216 1.0560002
0.45435944 0.24877882 1.0541002
0.46482491 0.24752592 1.0550001
0.56889296 0.24459648 1.0550001
0.57497686 0.24372295 1.0544001
0.58153498 0.24345462 1.0580001
-0.00091609167 0.25925395 1.0550001
0.067885868 0.25962257 1.0565001
0.072577037 0.25999117 1.0580001
0.086808674 0.25932881 1.0568001
0.094735168 0.25791949 1.0536366
0.10474243 0.25894859 1.0550001
0.11627539 0.25910652 1.0544001
0.12491339 0.25863013 1.0562003
0.13448864 0.25919348 1.0560001
0.14539096 0.25837258 1.0544003
0.15507759 0.25717548 1.054
0.16561452 0.2588343 1.0554286
0.17510135 0.25640497 1.0533334
0.18408899 0.25632304 1.0530002
0.19799274 0.25656706 1.0540001
0.20468158 0.25645447 1.0544546
0.21503396 0.25789562 1.0547001
0.22514595 0.25699657 1.0550001
0.23523419 0.25628504 1.0541002
0.24487367 0.2558803 1.0562
0.25525892 0.25617501 1.0544002
0.2650243 0.25530767 1.0538462
0.27528426 0.25421414 1.0550001
0.28584251 0.25586334 1.0542501
0.29519254 0.25456598 1.0538001
0.30430412 0.25424612 1.0545001
0.31540519 0.25507268 1.0559002
0.32406962 0.25439453 1.0557501
0.33594391 0.2537559 1.0550002
0.34466171 0.25265962 1.05425
0.35466927 0.25228748 1.0554289
0.36413318 0.25252542 1.0547857
0.37430468 0.25269341 1.0556668
0.38536602 0.25359744 1.0562501
0.39440766 0.25285101 1.056091
0.40428486 0.25279292 1.0544548
0.41539326 0.25301576 1.0565001
0.42486662 0.25105467 1.0555457
0.43514356 0.25009304 1.0550002
0.44444537 0.25037199 1.05425
-0.57051063 0.26917812 1.0580001
-0.48193559 0.2675716 1.0565002
-0.47606197 0.26776734 1.0560716
-0.46995503 0.26841486 1.0550001
-0.45291746 0.26917812 1.0580001
-0.44097441 0.26917812 1.0580001
-0.43337035 0.26792476 1.0563637
-0.4251307 0.2660636 1.0544002
-0.41455865 0.26601413 1.0527501
-0.40720695 0.2689237 1.0570002
-0.39570504 0.2693584 1.0544001
-0.37269172 0.2671901 1.0565002
-0.36551872 0.26787329 1.0550002
-0.35438272 0.26778233 1.0545715
-0.34485751 0.26784551 1.0558573
-0.33646667 0.26710472 1.0550001
-0.31143817 0.26917812 1.0580001
-0.30456236 0.26762477 1.055231
-0.29502741 0.26576087 1.0532001
-0.28456438 0.26718032 1.0537502
-0.27571461 0.26856545 1.0556002
-0.2648389 0.2692382 1.0568001
-0.25471345 0.26826221 1.0544001
-0.24664141 0.26765159 1.052
-0.23118204 0.26787782 1.0565001
-0.22464791 0.26786512 1.0552502
-0.21575499 0.26829436 1.0553335
-0.20401096 0.26776901 1.0556668
-0.19522896 0.26533395 1.0536877
-0.18694751 0.26576006 1.0553751
-0.17822716 0.26917812 1.0580001
-0.094474681 0.26585838 1.0562859
-0.08686199 0.26424861 1.0530001
-0.065779559 0.26585087 1.0550002
-0.053895716 0.26399764 1.052
-0.044845946 0.26297274 1.0540001
-0.03385371 0.26261929 1.0538
-0.024272306 0.26239663 1.0547502
-0.014600822 0.2629357 1.0546472
-0.0050315578 0.2620852 1.0535002
0.0040310635 0.26302418 1.0547001
0.014237037 0.26201567 1.0547274
0.024736712 0.26344031 1.0550001
0.046531282 0.26279494 1.0553335
0.054549094 0.26191664 1.0550002
0.06120361 0.2603437 1.052
0.079473339 0.2603437 1.052
0.084954262 0.2603437 1.052
0.10505097 0.2603437 1.052
0.11875327 0.2603437 1.052
0.12488669 0.26086569 1.052
0.13519603 0.2603437 1.052
0.14159043 0.2603437 1.052
-0.57459587 0.27269816 1.0574001
-0.56508458 0.27178845 1.0538751
-0.47441152 0.27135524 1.0557501
-0.46603301 0.27131772 1.0565001
-0.45591006 0.27085605 1.0550001
-0.44619867 0.27097479 1.0546668
-0.43789184 0.27024704 1.0550001
-0.40605471 0.2705999 1.0540001
-0.39352047 0.27092049 1.0536667
-0.38523605 0.27402151 1.0563128
-0.37530464 0.27286252 1.0547694
-0.3699621 0.27130556 1.052
-0.31352672 0.27043915 1.0557501
-0.30872291 0.27024704 1.0550001
-0.2726059 0.27077633 1.0535001
-0.26651731 0.27070069 1.0537144
-0.5721935 -0.43679598 1.0680001
0.05316475 -0.43381342 1.0666
0.051914677 -0.42652562 1.0648572
0.051799748 -0.415512 1.0631111
0.048828989 -0.40168753 1.0610001
0.052049052 -0.4042066 1.0640001
0.048828989 -0.39477777 1.0610001
0.052315082 -0.39407912 1.0655384
0.048828989 -0.3887893 1.0610001
0.05212909 -0.38703179 1.0625001
0.051592894 -0.35838637 1.0610001
-0.51869285 -0.21282069 1.0610001
0.0082917148 -0.17044081 1.0610001
0.016353106 -0.17113177 1.061
0.021189939 -0.17228341 1.0610001
-0.54437208 -0.16136414 1.0680001
0.0071550664 -0.16545266 1.063
0.012608925 -0.16699007 1.0625001
-0.54437208 -0.15858199 1.0680001
-0.021189939 -0.15569998 1.0610001
-0.019347336 -0.15477869 1.0610001
-0.20364328 0.14902858 1.066
-0.19514395 0.14728105 1.0641
-0.18886685 0.14648697 1.0610001
-0.38427648 0.15294774 1.062
-0.3753643 0.15629648 1.0650871
-0.36446035 0.15858199 1.0680001
-0.21412699 0.15678759 1.0649999
-0.20740823 0.15232232 1.0631669
-0.37075338 0.1624153 1.0647779
-0.3649869 0.16482104 1.0656565
-0.35598761 0.16664259 1.0671669
-0.34900403 0.1690923 1.0680001
-0.22205368 0.16797386 1.0663999
-0.2176901 0.16416122 1.0627779
-0.36357552 0.17447248 1.0616524
-0.35554692 0.17522918 1.0656251
-0.3485094 0.17471841 1.068
-0.22140294 0.1738726 1.0642858
-0.2183485 0.17873251 1.0610001
-0.36328056 0.18339087 1.0613
-0.3547709 0.18496044 1.0642425
-0.34776753 0.18640338 1.0680001
-0.22143629 0.18344672 1.067
-0.2185543 0.18351011 1.062
-0.37128457 0.19807987 1.0610001
-0.3647438 0.1950441 1.0640001
-0.35466579 0.19361301 1.0653811
-0.34498537 0.19196767 1.0680001
-0.37141049 0.20048775 1.064
-0.36863878 0.20048775 1.064
0.36391416 0.24967276 1.0610001
0.37373418 0.24946523 1.0680001
0.38579008 0.24946523 1.0680001
0.4080472 0.24946523 1.0680001
0.41546625 0.24946523 1.0680001
0.42500722 0.24928713 1.0650909
0.43503651 0.24899063 1.0637144
0.44500855 0.24811949 1.064
0.45528865 0.24737254 1.063
0.4657982 0.24869899 1.0658573
0.47026852 0.24668309 1.064
0.57627213 0.24301644 1.063125
0.58283228 0.24196735 1.0644001
0.012010787 0.25961778 1.064
0.037937138 0.25815758 1.0656
0.045738012 0.25891423 1.0653334
0.086330138 0.25725427 1.06475
0.093490988 0.25679064 1.0625001
0.10717317 0.25961778 1.064
0.11556189 0.25836104 1.0646923
0.12501773 0.25712484 1.0651667
0.13469175 0.25875315 1.06425
0.14378221 0.25844258 1.064875
0.15462478 0.25785136 1.0662501
0.16532749 0.25823659 1.0646667
0.17320542 0.25712496 1.0644001
0.18483113 0.25661656 1.0643333
0.19476067 0.25821868 1.063
0.2060312 0.25592217 1.064
0.21540996 0.25642037 1.0626667
0.2248213 0.25553331 1.0630909
0.23499434 0.2555984 1.0648572
0.24529549 0.25640321 1.066
0.25616154 0.2555452 1.0650002
0.26481292 0.25509366 1.065375
0.27915442 0.25520056 1.0610001
0.28525382 0.25499564 1.064
0.29285213 0.25480551 1.0648571
0.30650154 0.25464746 1.0663999
0.31553403 0.25390249 1.0645833
0.32508489 0.25329581 1.0654
0.33494172 0.25344101 1.0645833
0.34412748 0.25325423 1.0625
0.35530397 0.25120297 1.0628
0.36608157 0.25086588 1.0627143
0.37510714 0.25130054 1.064
0.38484359 0.2510255 1.0628333
0.3945865 0.25098848 1.0631111
0.40477124 0.2510843 1.0627272
0.4153074 0.2513023 1.0643637
0.42121261 0.25075763 1.0630001
0.46287724 0.25037873 1.064
-0.4870531 0.26832688 1.0643334
-0.47385618 0.26748461 1.0610001
-0.46442378 0.26991683 1.0633334
-0.45481321 0.26951879 1.0659
-0.44465429 0.26801282 1.0646155
-0.4382357 0.26755393 1.0625
-0.41126323 0.26832283 1.0643334
-0.40507361 0.2696192 1.0641
-0.3946394 0.26941225 1.0643749
-0.38579011 0.2698676 1.0680001
-0.37780446 0.26801455 1.0625001
-0.36316988 0.26778644 1.0650001
-0.35275638 0.26857552 1.0653334
-0.34587994 0.26729438 1.0622001
-0.33503067 0.26825759 1.0643749
-0.32409209 0.26910621 1.0650001
-0.31468391 0.26704857 1.0641819
-0.30721188 0.26549396 1.0642859
-0.28656042 0.26801282 1.0680001
-0.27493477 0.26847783 1.0625
-0.26501209 0.26870751 1.06525
-0.25597036 0.26954299 1.0655001
-0.24401397 0.26893231 1.066
-0.23672244 0.26915121 1.067
-0.22442596 0.26801282 1.0680001
-0.21436502 0.26824534 1.06525
-0.20476319 0.2668148 1.0642859
-0.18183683 0.26860416 1.0630001
-0.17831399 0.26885685 1.064
-0.094584256 0.26597834 1.0658001
-0.085511409 0.2648533 1.0646251
-0.074685872 0.26647907 1.0649412
-0.066091582 0.26554531 1.0634286
-0.053471472 0.26523072 1.0642858
-0.046791535 0.26392943 1.0650002
-0.035546172 0.26258284 1.0644546
-0.013501021 0.26207986 1.0650002
-0.0083464198 0.26244855 1.0680001
0.0057315207 0.26252201 1.0638001
0.015405754 0.26094878 1.0644166
0.024611095 0.262135 1.064
0.036054213 0.26266587 1.0647222
0.043780692 0.26177925 1.0627779
0.054211404 0.26118734 1.0662222
0.062943749 0.26195708 1.066
0.075194195 0.26109701 1.0625
0.080943726 0.26068354 1.0633335
-0.57720524 0.27229545 1.0630001
-0.47631297 0.27178401 1.0610001
-0.46287727 0.27070466 1.064
-0.45179036 0.27070466 1.064
-0.44994256 0.27070466 1.064
-0.39173645 0.27070466 1.064
-0.38547677 0.271503 1.0631819
-0.37865499 0.27178401 1.0610001
-0.24633533 0.27124435 1.0625
-0.58784783 -0.44088584 1.0780001
0.05897199 -0.44088584 1.0780001
0.062716246 -0.44088584 1.0780001
-0.58402973 -0.4374364 1.077
-0.57644814 -0.43690705 1.0735385
-0.56444621 -0.43901372 1.0780001
0.057368614 -0.4341673 1.0725001
0.064172544 -0.4351761 1.0762221
0.073280387 -0.43406594 1.0780001
0.056642845 -0.42483467 1.0730529
0.065160699 -0.42532292 1.0745556
0.075310662 -0.42477277 1.0764241
0.081059791 -0.42579859 1.073
0.056783792 -0.41422972 1.0720001
0.064458333 -0.41493323 1.0757599
0.072544903 -0.41584617 1.0780001
0.057022147 -0.40415075 1.072125
0.06272874 -0.40559381 1.0746111
0.056575969 -0.39581814 1.0720001
-0.55882984 -0.2349519 1.0780001
-0.54010856 -0.23120765 1.0780001
-0.53636432 -0.23120765 1.0780001
-0.54081064 -0.22559127 1.0780001
-0.53505969 -0.22509435 1.0776924
-0.53155029 -0.21462597 1.0780001
-0.52789462 -0.21489167 1.076
-0.55695772 -0.20218968 1.0780001
-0.54334223 -0.20329595 1.0780001
-0.53465933 -0.20456916 1.0776191
-0.52583075 -0.20501538 1.075389
-0.55695772 -0.19844544 1.0780001
-0.54510087 -0.19520038 1.0779997
-0.53456163 -0.19522122 1.0779997
-0.5269928 -0.19566678 1.0774287
-0.53355616 -0.18814874 1.0780001
-0.52615273 -0.1864468 1.0780001
-0.51951516 -0.18721268 1.0780001
-0.53636432 -0.1787881 1.0780001
-0.54245764 -0.16152586 1.07525
-0.53698838 -0.16318706 1.0780001
-0.54556519 -0.1594729 1.074
-0.37556934 0.14864326 1.0732499
-0.36600077 0.14836603 1.0780001
-0.21342245 0.14883408 1.0780001
-0.20380063 0.14717121 1.075
-0.19822161 0.14458054 1.07425
-0.38275918 0.15086727 1.0725001
-0.37332588 0.15244338 1.0718
-0.36484009 0.15372938 1.0729997
-0.35573775 0.1568346 1.0745834
-0.22220738 0.15734264 1.0758572
-0.21630579 0.15274245 1.0745293
-0.20983276 0.15014699 1.074
-0.35376799 0.16238716 1.0721431
-0.34800431 0.16559818 1.0751877
-0.22371893 0.16429192 1.0735
-0.34474507 0.17588967 1.0743846
-0.339791 0.1787881 1.0780001
-0.22578999 0.17568696 1.073375
-0.35060436 0.18460204 1.0710001
-0.34547544 0.18458515 1.073625
-0.33932298 0.18440448 1.0780001
-0.22684903 0.18447638 1.0750771
-0.36362416 0.19808681 1.0710001
-0.35267603 0.19438003 1.0745001
-0.34690005 0.1923527 1.0722001
0.59032947 0.23967564 1.074
0.33417463 0.24992892 1.0780001
0.34166312 0.24992892 1.0780001
0.37746799 0.24946523 1.076
0.38526103 0.24832363 1.0743002
0.39435208 0.2482729 1.0753334
0.40923336 0.24946523 1.076
0.41649604 0.24765772 1.0742501
0.42536548 0.24711885 1.0739287
0.43628216 0.24829873 1.0746365
0.4443213 0.24773708 1.0750002
0.45470285 0.24772865 1.0747778
0.46545303 0.24701828 1.0735002
0.47324285 0.24627179 1.0756668
0.57931411 0.24410558 1.0743334
0.5837841 0.24169973 1.0747143
0.59049273 0.24199063 1.076
0.010229835 0.25946581 1.0710001
0.029017964 0.25928956 1.0780001
0.033954095 0.25823399 1.0744001
0.045745712 0.25856796 1.075
0.055125281 0.25933993 1.0760001
0.063964337 0.25928956 1.0780001
0.077693254 0.25928956 1.0780001
0.082493268 0.25806332 1.0755
0.097861171 0.2587871 1.0733335
0.10484344 0.25910726 1.0737274
0.1142594 0.25685188 1.0733001
0.12510957 0.25571054 1.0743333
0.13520832 0.25829133 1.0738572
0.14574933 0.25791955 1.07425
0.15536483 0.25720623 1.0740001
0.16458845 0.25652212 1.0749167
0.17478846 0.25726295 1.0738889
0.18562041 0.25639704 1.0753001
0.19528137 0.25731671 1.0743334
0.20525037 0.25622714 1.0738889
0.21464247 0.2551156 1.0743847
0.22434446 0.25562051 1.0753751
0.23528534 0.25559151 1.07525
0.24611343 0.2554487 1.0753573
0.25479874 0.25421426 1.0738752
0.26418462 0.25361121 1.0742222
0.27534416 0.2556268 1.0738572
0.28518271 0.25492704 1.0754001
0.29404122 0.25325689 1.0755835
0.30419204 0.25485507 1.0742222
0.31515616 0.25275046 1.074091
0.32520029 0.2522338 1.073875
0.3355324 0.25205207 1.0747273
0.34544119 0.25251457 1.0737501
0.35347453 0.25375828 1.0752001
0.36564419 0.25133502 1.0733335
0.38129386 0.25016597 1.0710001
0.39524364 0.25016597 1.0710001
0.40417746 0.25051636 1.0725
0.41508335 0.250166 1.0710001
-0.46263584 0.26901662 1.072
-0.45525774 0.26797777 1.074375
-0.44837436 0.26865017 1.0780001
-0.41270757 0.26884696 1.0758001
-0.4063758 0.26927042 1.0751429
-0.39541364 0.26822016 1.0744169
-0.38695842 0.26803514 1.0733
-0.37161717 0.26865017 1.0780001
-0.36693683 0.26865017 1.0780001
-0.35670704 0.26869971 1.0750002
-0.3448756 0.26735204 1.0738572
-0.33433276 0.26877165 1.0755001
-0.32475835 0.2667422 1.0741001
-0.31619492 0.26318577 1.0710001
-0.30968502 0.26504573 1.0710001
-0.28423741 0.26933029 1.0732499
-0.27501732 0.26887894 1.0757143
-0.26475769 0.26814896 1.0732728
-0.25496247 0.26837587 1.0755455
-0.24523458 0.26617745 1.0738462
-0.23533952 0.2679821 1.0740834
-0.22520983 0.26741448 1.0753001
-0.21538374 0.26662952 1.0744002
-0.20777223 0.26740414 1.0730001
-0.19370815 0.26730323 1.0756
-0.18417488 0.26761925 1.0757501
-0.17805713 0.26661727 1.0736001
-0.10165231 0.26299042 1.074
-0.095165581 0.26497757 1.0745001
-0.08378578 0.26419845 1.0734445
-0.07517229 0.26357189 1.0749233
-0.065262422 0.26510298 1.0737501
-0.055499915 0.26505056 1.0752224
-0.047574535 0.26400492 1.0743334
-0.034010302 0.26365787 1.0780001
-0.024292495 0.26441446 1.076
-0.014175802 0.26175538 1.0743001
-0.00466963 0.26214355 1.0755386
0.0042341943 0.26186085 1.0743847
0.01588946 0.26077408 1.0764
0.02558052 0.26091161 1.0735556
0.031338152 0.26094806 1.072
0.055914372 0.2604759 1.0732499
0.065260172 0.26104271 1.0736668
0.075488478 0.26095304 1.0733001
-0.47446865 0.27078933 1.0735
-0.46778247 0.27062565 1.0710001
-0.42497277 0.27052233 1.0780001
-0.41842031 0.2705223 1.0780001
-0.29298782 0.2705223 1.0780001
-0.28737146 0.2705223 1.0780001
-0.27369925 0.2705912 1.0733335
-0.25507116 0.270953 1.076
-0.59042239 -0.44023547 1.0810001
-0.57550228 -0.44153059 1.0865002
-0.56468087 -0.44223222 1.0847501
0.062890783 -0.4421128 1.0810001
-0.5916841 -0.43655807 1.084
-0.58509362 -0.43659928 1.0838891
-0.57412142 -0.43707612 1.083143
-0.5670768 -0.4381147 1.0846925
0.074154802 -0.42146209 1.0810001
0.068522789 -0.41019806 1.0810001
0.073082045 -0.41717106 1.0810002
-0.55078733 -0.2711423 1.0880001
-0.55401599 -0.26456571 1.0866876
-0.54748487 -0.26415494 1.0862001
-0.5643298 -0.2551004 1.0877692
-0.5544076 -0.25506344 1.0849998
-0.54711437 -0.25502622 1.0864285
-0.56481379 -0.24385798 1.0849999
-0.55485326 -0.24492663 1.0848663
-0.54658222 -0.24441943 1.0857497
-0.56487852 -0.23471649 1.0830951
-0.55470538 -0.23503713 1.0819092
-0.54569024 -0.23535073 1.0836999
-0.537857 -0.23185109 1.0810001
-0.56306344 -0.22675571 1.0835717
-0.55462348 -0.22531281 1.0809999
-0.54647571 -0.22493909 1.081
-0.5371061 -0.22340308 1.0810002
-0.56038499 -0.21870972 1.0810001
-0.554241 -0.21521108 1.081
-0.54536629 -0.21495506 1.0809999
-0.53686893 -0.21515267 1.0810001
-0.55381435 -0.20556834 1.0810001
-0.54576862 -0.20690933 1.0810003
-0.53472811 -0.20744571 1.0810001
-0.56113929 -0.19540714 1.0836668
-0.555188 -0.19493374 1.0811819
-0.54348898 -0.19317794 1.0810002
-0.53535384 -0.19054967 1.0810001
-0.52628011 -0.19117546 1.0810002
-0.56057429 -0.18748622 1.085
-0.55565941 -0.18553208 1.0845999
-0.54536635 -0.18491767 1.0809999
-0.53565311 -0.18401983 1.081
-0.52421498 -0.18341582 1.0810003
-0.55384475 -0.17860316 1.085
-0.54529428 -0.1754801 1.0811666
-0.53468663 -0.1749063 1.0817271
-0.52492911 -0.17486754 1.0827332
-0.51546305 -0.17358474 1.0827272
-0.54494917 -0.16718727 1.0810001
-0.53457463 -0.16538177 1.0830572
-0.524737 -0.16506895 1.0852498
-0.51545268 -0.16532759 1.0857855
-0.50762522 -0.16645397 1.0876251
-0.53283709 -0.15966219 1.0880001
-0.52275985 -0.15903237 1.0880002
-0.51677644 -0.15966219 1.0880001
-0.370774 0.14924827 1.0810001
-0.36282936 0.14854653 1.0837144
-0.35555941 0.14810224 1.0850002
-0.22223966 0.14834522 1.0854
-0.21463905 0.14618777 1.0835626
-0.20596614 0.14483128 1.0830836
-0.35361466 0.15313488 1.0839499
-0.34557399 0.15677561 1.0860953
-0.22607061 0.15519249 1.0843638
-0.343503 0.16473381 1.0824332
-0.33835429 0.16668031 1.0880002
-0.23146294 0.16627543 1.0880001
-0.22801216 0.16378355 1.083143
-0.34142658 0.1733447 1.0826001
-0.33568534 0.17582196 1.0857142
-0.23210388 0.17536914 1.0843751
-0.22997376 0.17740832 1.0810001
-0.3436341 0.18718472 1.0854
-0.33473572 0.18321152 1.0849473
-0.3292442 0.18233611 1.0880001
-0.23410381 0.18298738 1.0827274
-0.22997375 0.181163 1.0810001
0.38725123 0.24802843 1.0833335
0.39490414 0.24846838 1.0880001
0.41421145 0.24797772 1.0843638
0.42683467 0.24632771 1.0827501
0.43699223 0.24661744 1.0832001
0.44610104 0.24683852 1.0850002
0.45452738 0.24738181 1.0860002
0.46561599 0.24692509 1.0840001
0.4732801 0.24606895 1.0857501
0.58379638 0.24377766 1.085143
0.59242105 0.24205604 1.0846667
-0.010363558 0.25908896 1.085
-0.0039971555 0.2579065 1.0830001
0.0040842062 0.25857595 1.0841668
0.015115947 0.25980535 1.0880002
0.026156697 0.25853032 1.0856252
0.033967897 0.25850502 1.0865
0.046684422 0.25938746 1.0862501
0.055225674 0.25717127 1.0848751
0.064210273 0.25858325 1.085143
0.07559941 0.25816727 1.083778
0.082967728 0.25738245 1.0857501
0.09616293 0.25926805 1.0857501
0.10538093 0.25799993 1.0836002
0.11527542 0.25616562 1.0846002
0.12375295 0.25560176 1.0846001
0.13579904 0.25769666 1.0835557
0.14529592 0.25728697 1.0846366
0.1543671 0.25665271 1.0840001
0.16596051 0.2566562 1.0880001
0.17479172 0.25632429 1.0849093
0.18489778 0.25489131 1.0839093
0.1950089 0.25520858 1.0833079
0.20519602 0.25546008 1.0840001
0.21519722 0.25390616 1.0843334
0.22493799 0.25468981 1.085889
0.23495191 0.25469291 1.0823334
0.24470556 0.25380608 1.0845835
0.25404966 0.25197819 1.0836002
0.26578194 0.25355583 1.0828335
0.27602288 0.25447601 1.0854288
0.28424755 0.25322938 1.0846668
0.29479569 0.25210035 1.0846668
0.3054722 0.25335422 1.0846668
0.31376281 0.2526221 1.0851113
0.32540879 0.25231096 1.0862502
0.33466321 0.25178862 1.0846667
0.34594852 0.25075659 1.0832001
0.35482928 0.25211972 1.0851431
0.36549065 0.2533972 1.0848335
0.37427947 0.25108814 1.0830001
0.40587291 0.25049114 1.0845002
0.41096482 0.25035787 1.0880001
-0.48182082 0.26925281 1.0880001
-0.47709709 0.26925281 1.0880001
-0.46263763 0.26837751 1.0860001
-0.45397162 0.26670367 1.0841541
-0.44657895 0.26785523 1.0861669
-0.43836248 0.26925281 1.0880001
-0.42511696 0.26915324 1.0863335
-0.41509289 0.26790765 1.0825716
-0.40590444 0.26885539 1.083143
-0.39486301 0.26693076 1.0833752
-0.38410816 0.26906332 1.0842003
-0.37453982 0.26910281 1.084143
-0.36560956 0.26857272 1.0861113
-0.35627869 0.26807299 1.0857779
-0.34429908 0.26821053 1.0863335
-0.33509406 0.26699489 1.0837275
-0.32725921 0.26613462 1.0830001
-0.31082165 0.26925281 1.0880001
-0.30326369 0.26925281 1.0880001
-0.29476073 0.26928905 1.0862501
-0.28393397 0.26867095 1.0849003
-0.27629423 0.26852545 1.0841252
-0.26465151 0.26803592 1.0846001
-0.25599203 0.26672858 1.0821431
-0.24396591 0.26657698 1.0848001
-0.23434938 0.26705366 1.0838751
-0.22542107 0.26611984 1.0816668
-0.21354021 0.26599211 1.0833751
-0.20455468 0.26771411 1.0856003
-0.19419591 0.26510966 1.0847061
-0.18632916 0.26499334 1.0828335
-0.17841706 0.26370531 1.0833335
-0.10043751 0.26376581 1.0810001
-0.094393775 0.26406091 1.0835001
-0.085019708 0.26328033 1.0846366
-0.074402794 0.26181644 1.0846002
-0.065288857 0.26354098 1.0848464
-0.055102061 0.26386693 1.0856366
-0.045155782 0.26470205 1.0855457
-0.034557063 0.26388103 1.0853333
-0.025787055 0.26414376 1.0853637
-0.016009679 0.26220629 1.0842501
-0.0046933419 0.26001117 1.0810002
0.0046933419 0.26001117 1.0810002
0.015060375 0.26065254 1.0836668
0.024425348 0.26025167 1.082
0.065706782 0.26001114 1.0810001
0.073685467 0.26001114 1.0810001
-0.59248298 0.27359754 1.0865
-0.49247783 0.27076846 1.0865
-0.48439571 0.27127197 1.0860001
-0.47523665 0.27113467 1.0845457
-0.46794701 0.27076846 1.0865
-0.44374877 0.27039465 1.085
-0.43432733 0.27039465 1.085
-0.42537695 0.27039465 1.085
-0.37591454 0.27039465 1.085
-0.36272454 0.27039465 1.085
-0.30288577 0.27189809 1.0880002
-0.2950955 0.27105266 1.0857501
-0.2892375 0.27039465 1.085
-0.58445263 -0.44143811 1.098
-0.57905245 -0.44023198 1.095
-0.56366509 -0.4431437 1.0941429
-0.59448099 -0.43811154 1.0954001
-0.58459693 -0.43751657 1.0960001
-0.57561505 -0.43680462 1.0949287
-0.56746811 -0.43852687 1.0941429
-0.56483918 -0.30114767 1.098
-0.55870998 -0.30033046 1.098
-0.57110459 -0.2917496 1.098
-0.56451964 -0.29408365 1.0966249
-0.55594534 -0.29392272 1.0964999
-0.57181966 -0.28483722 1.098
-0.56476879 -0.2847634 1.0967997
-0.55469227 -0.28444996 1.0961537
-0.54822224 -0.28126186 1.098
-0.57174027 -0.2787194 1.098
-0.56496596 -0.27541831 1.0968748
-0.55285978 -0.27532452 1.0942916
-0.54636556 -0.27409339 1.0963637
-0.57110459 -0.26886725 1.098
-0.5653621 -0.26552898 1.0932144
-0.55846381 -0.26857421 1.0910001
-0.54587185 -0.26761115 1.0952002
-0.57125306 -0.25104821 1.0910001
-0.56935835 -0.25104821 1.0910001
-0.54609764 -0.25123975 1.0968001
-0.57125306 -0.24820614 1.0910001
-0.54348093 -0.24446568 1.0949374
-0.54244465 -0.23787448 1.095143
-0.56556898 -0.1961018 1.0910001
-0.52956963 -0.16010244 1.0910001
-0.51197594 -0.16172647 1.0910001
-0.5049178 -0.16209447 1.0924118
-0.49589524 -0.16134328 1.0930001
-0.48777327 -0.16068944 1.095
-0.53204119 -0.15536308 1.0938573
-0.52471268 -0.15454808 1.0938568
-0.51418418 -0.15491745 1.0945554
-0.50494862 -0.15511805 1.0959598
-0.49537775 -0.15510087 1.0958397
-0.48849127 -0.15579784 1.0966156
-0.46622729 -0.15922281 1.098
-0.51319498 -0.14934769 1.0955
-0.50118637 -0.14905289 1.098
-0.49483019 -0.14873508 1.0979999
-0.48910961 -0.14968851 1.098
-0.35160121 0.14705347 1.0926001
-0.34628868 0.1479084 1.0967692
-0.33656082 0.14778167 1.098
-0.22555818 0.14674225 1.0949999
-0.21516976 0.14336814 1.0952501
-0.20747003 0.14178698 1.0910001
-0.35146749 0.15062892 1.0910001
-0.34379497 0.15312397 1.0930554
-0.33512393 0.15494047 1.0952307
-0.32730189 0.15676197 1.0968001
-0.23241435 0.15546863 1.0954443
-0.22795922 0.15144458 1.0923334
-0.34009925 0.16104978 1.0910001
-0.33426452 0.16465485 1.0918887
-0.32571059 0.16479269 1.0956427
-0.23518911 0.16518363 1.0943335
-0.33204678 0.17383903 1.0910001
-0.32508805 0.17490108 1.0946944
-0.31876343 0.17765579 1.098
-0.23739353 0.17432967 1.0952308
-0.34009925 0.18852299 1.0910001
-0.33459866 0.18866801 1.0936668
-0.3252579 0.18445542 1.0937389
-0.31812784 0.18178734 1.098
-0.23865709 0.18160757 1.095
-0.35085443 0.19682078 1.095
-0.34514609 0.19436944 1.0933634
0.58731288 0.23931094 1.098
0.59351021 0.23883422 1.098
0.27946874 0.24915349 1.0910001
0.28231081 0.24915349 1.0910001
0.30694193 0.24773246 1.0910001
0.33252043 0.24915349 1.0910001
0.35639656 0.24899936 1.0945001
0.38995287 0.24884523 1.098
0.39601934 0.24878329 1.0963334
0.40618113 0.24875233 1.0955
0.41367471 0.24782336 1.0935001
0.42577136 0.24786316 1.0936668
0.43482208 0.24833533 1.0957501
0.44478595 0.24709859 1.0945001
0.45617014 0.24688295 1.0941429
0.46425295 0.24712148 1.0940001
0.47383302 0.2459424 1.0935715
0.48177522 0.24564761 1.0965
0.58664876 0.24284311 1.0957778
0.59549809 0.24178264 1.0966364
0.60233599 0.24163198 1.0970001
-0.076066002 0.25957522 1.095
-0.068459406 0.25957522 1.095
-0.0076065999 0.25957522 1.095
0.015572023 0.2581647 1.0946153
0.024803694 0.25767708 1.0927145
0.047843434 0.25886059 1.0946667
0.053398162 0.2553091 1.0916667
0.065227993 0.25786254 1.0950001
0.075096853 0.25740987 1.0947001
0.084502295 0.2576344 1.0935001
0.096274577 0.25905991 1.0941668
0.10450914 0.25723347 1.0958333
0.11413808 0.25546485 1.0923334
0.12445703 0.25532767 1.094125
0.13537049 0.25648513 1.0943638
0.14461625 0.25621966 1.0938751
0.15529719 0.25643235 1.0942223
0.16408432 0.25664154 1.0951113
0.17443678 0.2548508 1.0937778
0.18306234 0.25514907 1.0923334
0.19712678 0.25453544 1.0946001
0.20477551 0.2540018 1.0940911
0.21516593 0.25323582 1.096
0.22444463 0.25289559 1.0921668
0.2350795 0.25458759 1.0936363
0.24466799 0.25323564 1.096375
0.25262532 0.251681 1.09375
0.26659486 0.25331387 1.0926001
0.27533853 0.25226402 1.0921668
0.28536099 0.25087455 1.0930002
0.29470786 0.2519303 1.0948334
0.30531442 0.25072113 1.0923334
0.31446987 0.2508145 1.094125
0.32583284 0.25110403 1.0940001
0.33507475 0.25099725 1.0931429
0.3455267 0.25224477 1.0962
0.35661098 0.25059649 1.0940001
0.36512935 0.25167698 1.0943848
0.37457272 0.25277996 1.0957778
0.38593024 0.25175816 1.0974001
0.39269075 0.250067 1.095
0.40410066 0.250067 1.095
-0.50245762 0.26982069 1.098
-0.49349576 0.26847023 1.0957501
-0.48473284 0.26768231 1.0937893
-0.4747223 0.26742178 1.0946521
-0.46634531 0.26729518 1.0947001
-0.45946556 0.26620582 1.0910001
-0.44345808 0.26806992 1.09475
-0.43501389 0.26831895 1.0938334
-0.42517552 0.267537 1.0936365
-0.41443253 0.26668653 1.0948236
-0.40559188 0.26754218 1.0943637
-0.39583743 0.26770097 1.0958334
-0.38521114 0.26773822 1.0957333
-0.37533581 0.26736191 1.0951538
-0.36560586 0.26592129 1.0940001
-0.35562724 0.26729116 1.0939001
-0.34489197 0.26727718 1.0954001
-0.33407563 0.26669383 1.0930001
-0.31423882 0.26744208 1.0953
-0.30533788 0.26764131 1.0934
-0.29433298 0.26750699 1.0940588
-0.28484818 0.26679665 1.0940833
-0.27531159 0.26770869 1.0942501
-0.26691589 0.26800227 1.096143
-0.24592702 0.26656732 1.0947144
-0.23611592 0.26652211 1.0942501
-0.2243475 0.26613125 1.0936251
-0.21341327 0.26432353 1.0944285
-0.20504606 0.26526046 1.0949334
-0.19545966 0.26452142 1.0945001
-0.18463689 0.26399884 1.094625
-0.10136663 0.26431113 1.0910001
-0.094905518 0.26330695 1.0940001
-0.084983543 0.26147231 1.0944287
-0.074469283 0.26111928 1.0948334
-0.064859875 0.26144552 1.0931112
-0.055871259 0.26244792 1.0942999
-0.044209965 0.26287973 1.0949167
-0.034843534 0.2630952 1.0952727
-0.02515775 0.26238215 1.0951817
-0.017081203 0.26188695 1.0927501
0.0066740103 0.26028639 1.098
0.036105737 0.26040405 1.0945001
0.042794939 0.26038051 1.0952001
-0.59806895 0.27288678 1.095
-0.49918315 0.27098513 1.095
-0.48693877 0.27188993 1.0910001
-0.31091979 0.27288678 1.095
-0.30321306 0.27285379 1.0923334
-0.60571551 -0.44008264 1.1090001
-0.59921402 -0.44019324 1.1076669
-0.57104814 -0.44200858 1.1090001
-0.59357864 -0.43770319 1.1060002
-0.58485621 -0.43569869 1.1064376
-0.57446134 -0.43723169 1.1044545
-0.56725657 -0.43694186 1.1035
-0.57297415 -0.31269392 1.1090002
-0.5664959 -0.31279394 1.1090002
-0.58164096 -0.30622816 1.1090001
-0.57509375 -0.30500701 1.1054375
-0.56453097 -0.30654114 1.1048001
-0.55859828 -0.30297512 1.1053333
-0.57519341 -0.29624903 1.1024618
-0.55350727 -0.29495963 1.1036
-0.58050257 -0.28881201 1.105
-0.5771867 -0.28524423 1.1020002
-0.55237174 -0.28709823 1.1048751
-0.54983044 -0.28260604 1.1070001
-0.5750646 -0.27528068 1.1023002
-0.54734874 -0.27750197 1.102
-0.48522782 -0.16330171 1.1084285
-0.47588208 -0.16156051 1.1084287
-0.46126825 -0.16081794 1.1090001
-0.51002949 -0.15023383 1.102
-0.50784779 -0.15043832 1.1035
-0.48468897 -0.15451917 1.1065624
-0.4749642 -0.15467417 1.1082726
-0.46656397 -0.1569602 1.1064376
-0.50428808 -0.14832002 1.102
-0.49370098 -0.14617342 1.1050836
-0.48541945 -0.14765832 1.1078125
-0.47571293 -0.14926216 1.1090001
-0.22301058 0.13938053 1.1070001
-0.21848527 0.13877487 1.1060001
-0.35693711 0.14680478 1.105
-0.34456873 0.14491095 1.1025456
-0.33413804 0.14571917 1.1040454
-0.32837677 0.14926216 1.1090001
-0.23358428 0.14803173 1.1070001
-0.22460274 0.14347559 1.1047144
-0.21641515 0.14163841 1.104
-0.34257141 0.15023383 1.102
-0.33274859 0.15081453 1.1027501
-0.32438791 0.15532665 1.1062499
-0.3159956 0.15655331 1.1090002
-0.30911714 0.15696602 1.1090001
-0.24170841 0.157929 1.1090001
-0.23704906 0.15441352 1.1045387
-0.32115015 0.16416331 1.1023751
-0.31519115 0.16470836 1.1057575
-0.30689484 0.16600323 1.1090002
-0.24265635 0.16501279 1.1057858
-0.23826894 0.16267356 1.102
-0.32056266 0.17319952 1.102
-0.31442419 0.17477739 1.1049675
-0.30553904 0.17467958 1.1087035
-0.29948729 0.17622566 1.1090001
-0.24356274 0.1745179 1.1043
-0.3224903 0.18842521 1.1060002
-0.31474307 0.18513243 1.105263
-0.30663428 0.18475121 1.1075183
-0.24417482 0.18192677 1.1062001
-0.34256157 0.1966639 1.103
-0.33717182 0.19435185 1.1067694
-0.32837677 0.19163336 1.1090001
-0.31393203 0.1935593 1.1090001
-0.30614328 0.19196883 1.1060001
-0.34416968 0.20299654 1.1090001
0.58849555 0.23826894 1.102
0.59607005 0.23722653 1.1028184
0.60517579 0.23784998 1.1045001
0.31864882 0.24975178 1.102
0.3206729 0.24941225 1.1090001
0.34956235 0.24941225 1.1090001
0.35636175 0.24954808 1.1062001
0.36507428 0.24946322 1.1054446
0.37074795 0.24941225 1.1090001
0.38604608 0.24948017 1.1076001
0.39387116 0.24862307 1.1067145
0.40545601 0.24885002 1.1065001
0.41413894 0.24754344 1.1054446
0.42227724 0.24808741 1.10525
0.43586564 0.24846245 1.1060002
0.4444907 0.24797642 1.1062858
0.45543069 0.24755666 1.1068573
0.46521947 0.24715722 1.1046667
0.47502619 0.24583583 1.1059167
0.48391742 0.24531892 1.1057501
0.58658177 0.24401036 1.102
0.5980646 0.24018274 1.102
0.60380602 0.24018274 1.102
-0.087078206 0.25932083 1.102
-0.022148579 0.25904208 1.1090001
-0.014444726 0.25904208 1.1090001
0.0077038533 0.25904208 1.1090001
0.014399506 0.25630981 1.1055386
0.023553254 0.25712508 1.1044445
0.035845999 0.25859541 1.1081251
0.044898171 0.25857317 1.1070001
0.051038031 0.25711611 1.1090001
0.066743329 0.25724998 1.1048572
0.073961169 0.25613618 1.1061668
0.085787758 0.25784367 1.1038749
0.09578336 0.25854981 1.105875
0.10460218 0.25654635 1.1051667
0.11488094 0.25560912 1.1025
0.12640113 0.25617093 1.1070001
0.13524622 0.25609598 1.1046002
0.14465289 0.2557714 1.1032
0.1553036 0.25510448 1.1051669
0.16525507 0.25484201 1.1054168
0.17426273 0.25488228 1.1052859
0.18410838 0.25564039 1.1057501
0.19421709 0.2555913 1.1045001
0.20423265 0.25409713 1.10425
0.21621501 0.25336927 1.1066668
0.22174065 0.25342178 1.1055
0.23507956 0.25426972 1.105
0.24412173 0.25276035 1.1057501
0.25615314 0.25326419 1.1090001
0.26479182 0.25383022 1.104286
0.27303854 0.25384575 1.10525
0.29600197 0.25193962 1.1032001
0.30519181 0.25104862 1.1035
0.31663775 0.25043169 1.105
0.3244606 0.25150192 1.1055001
0.33337358 0.25111157 1.108
0.34595314 0.25149551 1.1050001
0.35239348 0.25110656 1.1046002
0.36173466 0.25043169 1.105
0.37539038 0.2512179 1.1037779
0.38472384 0.25098008 1.1036668
-0.50586581 0.26926562 1.1065
-0.49790859 0.26733944 1.1048334
-0.48639172 0.26626486 1.1070001
-0.47498703 0.26498151 1.1043334
-0.46557066 0.26683936 1.1046001
-0.45387894 0.26848412 1.10625
-0.44544458 0.2676495 1.1032
-0.43432283 0.26782078 1.1041667
-0.42429748 0.26578325 1.1041112
-0.41591305 0.26444623 1.1040001
-0.40454262 0.26746058 1.1040001
-0.39455244 0.26693001 1.1034001
-0.38424316 0.26733944 1.1035
-0.3751061 0.26601914 1.102
-0.36416081 0.26588005 1.1054001
-0.3544344 0.26733065 1.1056365
-0.34529328 0.26545408 1.1065454
-0.33532622 0.2674118 1.1060715
-0.32681984 0.26914686 1.1070001
-0.31528547 0.26690453 1.1070001
-0.30444044 0.26630294 1.1071668
-0.2957612 0.26521483 1.1055456
-0.28589886 0.26575223 1.1048751
-0.27503607 0.26627448 1.1055624
-0.26537174 0.26742595 1.1055715
-0.25537243 0.26811734 1.1060001
-0.24490397 0.26623088 1.103875
-0.23391178 0.26579857 1.105077
-0.22516154 0.26532292 1.1060001
-0.21741419 0.26402515 1.103
-0.20852332 0.2642628 1.1066668
-0.18491146 0.26406121 1.1071668
-0.1021215 0.26442054 1.1060001
-0.095199265 0.26168069 1.1053638
-0.086774945 0.26032871 1.10425
-0.062255159 0.26147169 1.103
