# .PCD v0.7 - Point Cloud Data file format
VERSION 0.7
FIELDS x y z
SIZE 4 4 4
TYPE F F F
COUNT 1 1 1
WIDTH 1505
HEIGHT 1
VIEWPOINT 0 0 0 1 0 0 0
POINTS 1505
DATA ascii
0.33601028 0.25046295 1.187
-0.64528024 0.26946902 1.189
-0.6345256 0.26813939 1.1864547
-0.62472463 0.26520711 1.1834618
-0.61837751 0.26355395 1.1810001
-0.53443706 0.26555881 1.1858889
-0.52516401 0.26562291 1.1860911
-0.51499003 0.26442131 1.1856155
-0.50500333 0.26425186 1.1841429
-0.49446133 0.26561862 1.1845001
-0.4845942 0.26704359 1.1874001
-0.47468066 0.26628834 1.1847146
-0.46675783 0.26473618 1.184
-0.44192466 0.26405585 1.1863334
-0.43500385 0.26426303 1.1856155
-0.42672285 0.26431325 1.1854446
-0.41551122 0.26333025 1.1874001
-0.4035612 0.26320907 1.1850001
-0.39451179 0.26197705 1.1850001
-0.38586563 0.26238868 1.1850001
-0.37412781 0.26517573 1.1836668
-0.36409098 0.26438251 1.1838001
-0.35432369 0.26398751 1.1846364
-0.34583288 0.26365498 1.1830001
-0.33517176 0.26297912 1.1876668
-0.32384667 0.26319444 1.1840001
-0.31576335 0.26364923 1.1867144
-0.30442989 0.2627216 1.1838573
-0.29400757 0.26422662 1.1852669
-0.28593308 0.26330256 1.1845001
-0.2748794 0.26124635 1.1845002
-0.26494107 0.26288611 1.1832857
-0.255265 0.26194233 1.183
-0.2435731 0.2612097 1.1850002
-0.23503157 0.26217175 1.1857275
-0.22570343 0.26193258 1.1843847
-0.21460484 0.26130727 1.1863334
-0.11304267 0.26102751 1.1835001
-0.10631657 0.26142958 1.183
-0.099810578 0.26033068 1.1850001
-0.64513564 0.27090481 1.1840001
-0.63487762 0.27164942 1.1850001
-0.62718791 0.27260596 1.182143
-0.30247265 -0.14179103 1.1954001
-0.29598358 -0.14175846 1.1960001
-0.2657387 -0.14239714 1.197
-0.30396134 -0.13761309 1.1941429
-0.29488981 -0.13642667 1.1932667
-0.24113965 -0.13720015 1.197
-0.22424948 -0.13512135 1.197
-0.24197498 -0.12618144 1.1960001
-0.23427963 -0.12244073 1.197
-0.2297063 -0.12160922 1.197
-0.32588071 -0.11415446 1.1935714
-0.23243374 -0.11933072 1.1950001
-0.2297063 -0.11953043 1.197
-0.32217163 -0.10669994 1.1930001
-0.15694866 0.12992437 1.197
-0.19068804 0.1339303 1.1956668
-0.18517101 0.13363391 1.193
-0.17441466 0.13604942 1.1941999
-0.16472645 0.13713817 1.1948825
-0.15435222 0.13586098 1.1943917
-0.14577669 0.1378603 1.1937271
-0.12230216 0.13754661 1.197
-0.11953043 0.13823953 1.197
-0.090427369 0.13408196 1.197
-0.086269788 0.13512135 1.197
-0.15020865 0.14192127 1.1930001
-0.14325817 0.14305167 1.1937999
-0.13534006 0.14403287 1.1955
-0.12542196 0.14475109 1.1963047
-0.11623923 0.14600651 1.1959336
-0.10575844 0.14785394 1.197
-0.094584942 0.14785396 1.197
-0.084970534 0.14785394 1.197
-0.12223876 0.15020865 1.1930001
-0.11084362 0.15228049 1.1930001
-0.10362025 0.15214984 1.1933334
-0.09397763 0.15288649 1.1939414
-0.084030665 0.15457752 1.1947602
-0.075321496 0.15597855 1.1970003
-0.066372804 0.15843351 1.197
-0.058206119 0.15902744 1.197
-0.083278857 0.16518149 1.193889
-0.07520327 0.1647573 1.1953639
-0.065481894 0.1652638 1.1970003
-0.055087939 0.16526385 1.1970003
-0.048158638 0.16699615 1.197
-0.090643153 0.17766055 1.1930001
-0.083944649 0.17505521 1.1950003
-0.074390993 0.1743214 1.1970003
-0.06646014 0.1746795 1.1970003
-0.055318918 0.1742719 1.1970003
-0.047812175 0.17461836 1.197
-0.17447567 0.18726131 1.1936667
-0.16576025 0.18768145 1.1941429
-0.15435234 0.18646592 1.193
-0.14535673 0.18567552 1.1933635
-0.13576594 0.18551384 1.1935334
-0.12534651 0.186581 1.193
-0.11310302 0.18470493 1.1950001
-0.10895413 0.183669 1.1950001
-0.092348121 0.18262613 1.1950001
-0.074390985 0.18397294 1.197
-0.066937037 0.1843887 1.1970001
-0.044693988 0.1881305 1.197
-0.030142456 0.18709111 1.197
-0.024835873 0.18613027 1.1954616
-0.01919581 0.18573913 1.1950001
-0.17513806 0.19020928 1.197
-0.16422443 0.19270383 1.1970001
-0.15616912 0.19124867 1.197
-0.14447592 0.19020928 1.197
-0.13512135 0.19020928 1.197
-0.12992437 0.19020928 1.197
0.62880445 0.22065133 1.1930001
0.64858252 0.22139114 1.197
0.65274006 0.22139114 1.197
0.48666176 0.23865968 1.1950001
0.49620649 0.23929791 1.1930001
0.50035018 0.23929791 1.1930001
0.18853775 0.24965712 1.1930001
0.19531626 0.24924324 1.1943334
0.20576344 0.24864408 1.1947778
0.21514222 0.24723169 1.195154
0.22205949 0.24730626 1.1950001
0.23472181 0.24855261 1.1943334
0.24758528 0.24965712 1.1930001
0.25615633 0.24786201 1.1943334
0.26105225 0.24758528 1.1930001
0.27555516 0.24965712 1.1930001
0.28304195 0.2467569 1.194
0.29553467 0.24633662 1.197
0.30392799 0.24584273 1.1946001
0.314417 0.24633662 1.197
0.32677349 0.24658635 1.1962
0.33494067 0.24679632 1.1941999
0.3442713 0.24551344 1.1930001
0.35579634 0.2450112 1.1946
0.36418337 0.24461657 1.1958573
0.37480482 0.24467638 1.1956667
0.38462827 0.24488565 1.1950001
0.39619491 0.24405378 1.1960001
0.40469024 0.24384972 1.1950001
0.41541156 0.24564371 1.197
0.42647916 0.24362463 1.1954616
0.43500289 0.24135876 1.1946666
0.44412127 0.24177438 1.1950001
0.45449263 0.24281205 1.1950001
0.46575126 0.24210782 1.1946001
0.47475848 0.24135664 1.1952223
0.48588046 0.2412547 1.1950001
0.49267325 0.24010025 1.197
0.50656569 0.24136975 1.1930001
0.51364088 0.24177438 1.1950001
-0.53840661 0.25880936 1.197
-0.26088816 0.25880936 1.197
-0.25776997 0.25880936 1.197
-0.23470965 0.25859314 1.1960001
-0.11381992 0.25728735 1.1938001
-0.10428554 0.25707856 1.1950001
-0.095382579 0.25796831 1.1958573
-0.08516179 0.25859314 1.1960001
-0.077003509 0.25725389 1.1930001
-0.063259535 0.25546572 1.1943334
-0.055024259 0.25644463 1.1956668
-0.034257054 0.25536948 1.1955
-0.027969886 0.25587267 1.1930001
-0.015045178 0.25630164 1.1950001
-0.0062155304 0.25587267 1.1930001
0.015558275 0.25414118 1.1946
0.025236374 0.25408447 1.1943334
0.033260643 0.2536124 1.197
0.045692571 0.25287995 1.1960001
0.053961709 0.2542263 1.1950001
0.062363703 0.25465178 1.197
0.072634354 0.2542263 1.1950001
0.085017651 0.25401354 1.194
0.095887206 0.25208876 1.1947144
0.10529222 0.25155982 1.1946667
0.1145596 0.25208974 1.1947144
0.12671354 0.25119981 1.1947143
0.13572536 0.25173387 1.1950001
0.14345324 0.25137144 1.1949999
0.15476635 0.25198844 1.1962
0.16524719 0.25119981 1.1947143
0.17610668 0.25172898 1.1930001
0.18397292 0.25049421 1.197
0.19852445 0.25049421 1.197
0.24425784 0.25049421 1.197
-0.65274006 0.26920331 1.197
-0.64434326 0.26830372 1.1930001
-0.63672054 0.26528159 1.1962001
-0.5416559 0.26356697 1.1950001
-0.53637195 0.26340035 1.194778
-0.52469432 0.26364207 1.1930001
-0.51588464 0.26261544 1.1954001
-0.50712955 0.26238111 1.1943334
-0.49316037 0.26544344 1.1956668
-0.4860824 0.2649273 1.1946
-0.4773246 0.2646029 1.1950001
-0.43508711 0.26208818 1.1930001
-0.42496237 0.26292527 1.1936667
-0.41471863 0.26400632 1.197
-0.40468389 0.26287287 1.1950001
-0.39675802 0.26208818 1.1930001
-0.38225511 0.26416004 1.1930001
-0.37472147 0.2642757 1.1954001
-0.36643323 0.26307172 1.1943334
-0.3558391 0.26260614 1.1930001
-0.34473312 0.26386178 1.194
-0.33260641 0.26296693 1.197
-0.32590801 0.26330781 1.1958573
-0.31597608 0.26296693 1.197
-0.30490631 0.2624335 1.1930001
-0.29538387 0.26183462 1.1950001
-0.28687304 0.26296693 1.197
-0.27647907 0.26088816 1.197
-0.26542085 0.2602343 1.194
-0.2552605 0.26045227 1.1950001
-0.24468331 0.26075226 1.194
-0.238262 0.26001635 1.1930001
-0.22573918 0.26099759 1.1943334
-0.21467082 0.26168817 1.1943334
-0.092197031 0.26001638 1.1930001
-0.085981511 0.26001638 1.1930001
-0.65159476 0.27037555 1.1930001
-0.63916367 0.27037555 1.1930001
-0.26545703 -0.14368775 1.2020001
-0.23351237 -0.14280215 1.2019999
-0.22788253 -0.14160028 1.202
-0.26615286 -0.13881698 1.202
-0.24306352 -0.13301545 1.2024001
-0.23484074 -0.13464203 1.2019998
-0.22701274 -0.13490295 1.202
-0.24319065 -0.12837961 1.202
-0.23468015 -0.12661327 1.2019999
-0.22823045 -0.12490048 1.2020001
-0.16231756 0.12880683 1.2060001
-0.17221655 0.13464203 1.202
-0.1633448 0.13255456 1.202
-0.15969172 0.13151082 1.202
-0.14113891 0.13800076 1.204
-0.13468821 0.13781874 1.2024
-0.12462216 0.13714699 1.202
-0.11500092 0.13660564 1.2040002
-0.10681254 0.13772868 1.2046667
-0.095321439 0.13624775 1.2031764
-0.083906285 0.13775837 1.202889
-0.13255456 0.14090446 1.202
-0.12837961 0.14090446 1.202
-0.11439353 0.14257441 1.202
-0.10510971 0.14356707 1.2027059
-0.094980031 0.14348309 1.2019999
-0.084221482 0.14356709 1.2027057
-0.075221591 0.1471439 1.2044617
-0.065482952 0.148765 1.2055557
-0.05661916 0.14639999 1.2060002
-0.073687814 0.15217681 1.202
-0.0654075 0.15412511 1.2019999
-0.055091973 0.15528603 1.2030433
-0.044949137 0.15592417 1.2038331
-0.034489162 0.15571964 1.2035998
-0.026130138 0.15633249 1.2037143
-0.01989699 0.15812871 1.2060001
-0.043967415 0.164519 1.2019999
-0.034449395 0.16493838 1.2021998
-0.024869787 0.16463467 1.2022352
-0.017948451 0.16492896 1.2050772
0.01151931 0.16860081 1.2060001
-0.076192781 0.17847899 1.202
-0.063667946 0.17722648 1.202
-0.053230572 0.17847897 1.202
-0.042793214 0.17430404 1.202
-0.034504723 0.1746314 1.20424
-0.025103344 0.17468455 1.2045999
-0.016913762 0.17460364 1.2055789
-0.0031416302 0.17069523 1.2060001
0.0043982822 0.17111413 1.2060002
0.01151931 0.17174244 1.2060001
-0.092892565 0.18474139 1.202
-0.084092304 0.18298158 1.2029999
-0.076888613 0.18195811 1.2020001
-0.063369736 0.18205751 1.2020001
-0.055098321 0.18353289 1.2019999
-0.044895273 0.18375984 1.2023998
-0.034609865 0.18439358 1.2042855
-0.025070522 0.1817604 1.2029999
-0.017509509 0.18269603 1.204
-0.18056644 0.19309129 1.202
-0.17427893 0.19452578 1.2029231
-0.16678911 0.19601375 1.202
-0.15520069 0.19530867 1.2028
-0.14624992 0.19435607 1.2042859
-0.13548721 0.19191383 1.2033334
0.64403421 0.22305575 1.2060001
0.65660071 0.22096132 1.2060001
0.43370822 0.23961225 1.2050002
0.46705568 0.23981109 1.2060001
0.47447181 0.23932946 1.2053335
0.48453385 0.23965202 1.2052001
0.49577495 0.2390157 1.202
0.50601256 0.23941338 1.204
0.51633596 0.23932944 1.2053335
0.52360499 0.23981109 1.2060001
0.09811125 0.24945307 1.202
0.10541741 0.24945307 1.202
0.13672951 0.24945307 1.202
0.14090446 0.24945307 1.202
0.18891634 0.24945307 1.202
0.19448295 0.24945307 1.202
0.20588844 0.24769488 1.2036
0.21535769 0.24527812 1.202
0.22511369 0.24757139 1.2030001
0.25647196 0.24811237 1.2036
0.2652463 0.24850486 1.205
0.2749595 0.24882093 1.204
0.28798276 0.24818878 1.2060001
0.2925421 0.2479144 1.2046667
0.30453458 0.2459311 1.2052001
0.31485713 0.24651811 1.2046669
0.32672951 0.24661797 1.2060001
0.33505976 0.24520114 1.2033335
0.3444331 0.24527812 1.202
0.35284638 0.24516264 1.204
0.36499146 0.24409373 1.2044002
0.37479961 0.24411717 1.204
0.38437718 0.24424954 1.2042859
0.3954066 0.24407926 1.2046669
0.40530938 0.24339297 1.2030001
0.41690657 0.24560925 1.2053335
0.42454642 0.24375419 1.2035
0.44666666 0.24163806 1.2046669
0.45492789 0.24241959 1.2044001
0.46400681 0.24192885 1.2031429
0.47176898 0.24110317 1.202
0.48325008 0.24110317 1.202
0.50725603 0.24110317 1.202
0.5149101 0.24145108 1.2020001
0.52291214 0.24110317 1.202
-0.53931314 0.25866088 1.2060001
-0.32565802 0.2594806 1.2033334
-0.29496416 0.25796276 1.2060002
-0.28541771 0.25927567 1.204
-0.26532707 0.25958306 1.2030001
-0.25467175 0.25989044 1.202
-0.24388647 0.25989044 1.202
-0.2306658 0.25989044 1.202
-0.11401738 0.25697863 1.2046667
-0.1062348 0.25599915 1.2033334
-0.094225563 0.25665134 1.2042222
-0.086835071 0.25721896 1.2048573
-0.077366769 0.25823194 1.204
-0.066799149 0.25571549 1.202
-0.055403143 0.2571882 1.204
-0.045728173 0.25866088 1.2060001
-0.033921443 0.25414988 1.202
-0.02577561 0.255301 1.2033335
-0.015664736 0.25550824 1.2026668
-0.0062624202 0.25571549 1.202
0.0093936305 0.25571549 1.202
0.01570815 0.25447205 1.2060002
0.025094833 0.25405002 1.204
0.035217863 0.25419068 1.2046667
0.045628604 0.25321123 1.2033334
0.054886483 0.25457188 1.204
0.067842886 0.25571549 1.202
0.075399116 0.25447205 1.2060001
0.084766351 0.25430325 1.2052001
0.093045391 0.25300455 1.204
0.10576821 0.25028321 1.2060001
0.11611412 0.25209862 1.2046669
0.1244148 0.25091189 1.2040002
0.13194847 0.25028321 1.2060001
0.14662157 0.25078616 1.2044001
0.15524846 0.25195909 1.2040001
0.16479924 0.25112116 1.205
0.17593129 0.25237763 1.2060001
0.18465805 0.25098136 1.2060001
0.23632041 0.25028321 1.2060001
0.24504715 0.25028321 1.2060001
0.25133044 0.25028321 1.2060001
0.26913297 0.25028321 1.2060001
0.27541623 0.25028321 1.2060001
0.28484112 0.25028321 1.2060001
-0.65433389 0.26633474 1.2048573
-0.64519429 0.26700136 1.2031429
-0.6387825 0.26398116 1.204
-0.53841764 0.26310849 1.2040001
-0.52412862 0.26337332 1.2060001
-0.51448858 0.26173338 1.2028002
-0.50495672 0.26450825 1.204
-0.49560127 0.26483437 1.2036
-0.48362172 0.26465124 1.2046667
-0.47333717 0.26644811 1.2033334
-0.46863776 0.26615286 1.202
-0.42271337 0.26406538 1.202
-0.41393414 0.26375487 1.2044001
-0.40621388 0.26255912 1.2046667
-0.38348377 0.26524633 1.205
-0.37574521 0.26406538 1.202
-0.35500419 0.26494414 1.2060001
-0.34476483 0.26420084 1.205
-0.33480978 0.26215029 1.2040001
-0.32474539 0.26151943 1.2035002
-0.3156603 0.26182756 1.2054287
-0.30527648 0.26136661 1.2040002
-0.29442191 0.26121378 1.2045001
-0.2866101 0.26239541 1.202
-0.27122739 0.2607553 1.2060001
-0.25140047 0.26116285 1.2046667
-0.24777371 0.26136661 1.204
-0.22288001 0.26173338 1.2028002
-0.21592222 0.26148888 1.2036002
-0.34295347 0.13866329 1.2190001
-0.33590996 0.13837892 1.2165
-0.32771638 0.13678233 1.2148335
-0.11242312 0.13553816 1.21
-0.10433184 0.1351261 1.2114546
-0.076226063 0.13735211 1.2136667
-0.04111211 0.13809453 1.2140001
-0.034672551 0.13974088 1.21
-0.3527824 0.14319971 1.2190001
-0.34392548 0.14512856 1.2177501
-0.33516675 0.14439496 1.2138002
-0.32841238 0.14394708 1.2132728
-0.073870733 0.14275968 1.2118669
-0.065801799 0.14405166 1.2124166
-0.052324034 0.146045 1.21
-0.04528581 0.14428316 1.2128803
-0.03491332 0.14471014 1.2116363
-0.024210174 0.14528224 1.2123998
-0.015001462 0.14620341 1.214
-0.0071361805 0.1477721 1.21775
-0.35332677 0.15263547 1.2190001
-0.346129 0.15136527 1.2190001
-0.051483486 0.15024772 1.21
-0.045179389 0.15059796 1.21
-0.034672555 0.15024772 1.21
-0.02322918 0.15229416 1.211091
-0.015226305 0.15496249 1.2132728
-0.005272347 0.15508662 1.2150002
0.0051142666 0.15566678 1.2181666
0.01426802 0.15614837 1.2171249
0.024610087 0.15903938 1.219
0.035792939 0.15633769 1.2165
0.041912496 0.15578681 1.2142501
-0.01331184 0.16430113 1.2103333
-0.0052611977 0.16521512 1.2119201
0.0052671712 0.16536865 1.2130401
0.015576007 0.1651253 1.2105452
0.024802718 0.16509342 1.2131366
0.034809399 0.16560885 1.2148004
0.042746402 0.16632605 1.2185
0.0645684 0.16830124 1.2190001
-0.011907745 0.1761646 1.21
-0.0057537421 0.1758644 1.2099998
0.0052534165 0.17623833 1.2099999
0.015860315 0.17536405 1.2099998
0.025222262 0.17445014 1.2102499
0.034776915 0.17518577 1.2136192
0.045560699 0.17431653 1.2154585
0.054931205 0.17428973 1.2165002
0.0642156 0.17470251 1.2157086
-0.085945904 0.18765205 1.21
-0.012270708 0.18267129 1.2113335
-0.004511612 0.18366045 1.2125716
0.0054745534 0.18531348 1.2141907
0.014947337 0.18521556 1.2139412
0.024265574 0.18463284 1.2150002
0.034792416 0.1846855 1.2142086
0.045328736 0.1844774 1.2140003
0.0548396 0.18455166 1.2145003
0.063227877 0.18441664 1.2136002
-0.1449943 0.19647779 1.21
-0.087495007 0.19080237 1.2140001
0.0084679872 0.19158821 1.2190001
0.012678102 0.19119528 1.2165
0.027168125 0.19229388 1.2190001
0.035499457 0.19404896 1.2172352
0.045604583 0.1945588 1.2161429
0.055392101 0.19370399 1.2138335
0.063739009 0.19396603 1.2155385
0.070919387 0.19158821 1.2190001
0.037610203 0.20536637 1.2185454
0.045252051 0.20500237 1.2158967
0.054920167 0.20488611 1.2162918
0.06208697 0.20464846 1.2182307
0.038741041 0.21487518 1.2190001
0.045467023 0.21571462 1.21775
0.055001482 0.21576948 1.2180625
0.063086502 0.21635707 1.219
0.056947213 0.22334316 1.2190001
0.062258951 0.22526772 1.219
0.6453979 0.22322434 1.2145
0.65514797 0.22224385 1.2130002
0.66347677 0.22233503 1.2173336
0.67002946 0.22546016 1.2190001
0.43115008 0.23929358 1.2140001
0.46765745 0.23909646 1.2130001
0.47535351 0.23686413 1.2123637
0.48434186 0.23865363 1.2143334
0.49751854 0.23876795 1.2113335
0.5053165 0.23814042 1.2140001
0.51589894 0.23771642 1.2135
0.52489579 0.23731898 1.2120001
0.53024083 0.23823941 1.2140001
0.017994473 0.24874711 1.2190001
0.023241377 0.24823697 1.2165
0.065259703 0.24915512 1.2171251
0.072494894 0.24918233 1.217
0.095928267 0.24983513 1.2140001
0.10436151 0.24983513 1.2140001
0.12755297 0.24983513 1.2140001
0.13610941 0.24890813 1.2124287
0.14467497 0.24829799 1.2122222
0.15443335 0.24907942 1.2164999
0.16496435 0.24942712 1.215875
0.18908262 0.24929112 1.2165
0.19427644 0.24905391 1.213143
0.20491479 0.24849531 1.2143334
0.21504797 0.24561851 1.2140001
0.22312984 0.24632129 1.2140001
0.23342834 0.2494529 1.2142003
0.24557339 0.24873808 1.2138001
0.2554383 0.24700299 1.2139168
0.26513737 0.24662066 1.2143333
0.2750327 0.24796608 1.2143334
0.28477848 0.247179 1.215091
0.29497057 0.24574822 1.2146667
0.30488414 0.2454472 1.2161431
0.31650841 0.24516785 1.2146364
0.3244158 0.2450036 1.2147143
0.33483821 0.24507372 1.2134001
0.34519723 0.24521387 1.2120001
0.35560092 0.24543791 1.2152001
0.36413503 0.24427754 1.2143334
0.37468123 0.2439273 1.2143335
0.38600111 0.24384451 1.2156668
0.39546818 0.24342203 1.2135715
0.40429211 0.24215432 1.2125001
0.41585669 0.24356571 1.2143
0.42552006 0.24216443 1.2155714
0.43447191 0.24044281 1.2145001
0.44542897 0.24062994 1.2136668
0.45570543 0.24104796 1.2157779
0.46296281 0.24104044 1.2137144
0.49326023 0.24027912 1.2190001
0.52849376 0.24060649 1.21
-0.32886389 0.2595188 1.21
-0.30259681 0.2595188 1.21
-0.29314065 0.2595188 1.21
-0.26375207 0.25862715 1.2142859
-0.25584763 0.2589184 1.2152727
-0.2457898 0.25947213 1.21225
-0.22264448 0.2577664 1.216625
-0.21735924 0.2577211 1.2142857
-0.11749332 0.25933209 1.2190001
-0.10436152 0.25756562 1.2140001
-0.095701188 0.25520706 1.2145001
-0.084535986 0.25676784 1.2139
-0.075400375 0.25739959 1.2154444
-0.066685401 0.25721511 1.2190001
-0.054356061 0.25733075 1.2138572
-0.044759516 0.2569553 1.2137998
-0.035556734 0.25415552 1.21325
-0.024640985 0.25517076 1.2160001
-0.014936897 0.25527245 1.2118
-0.0044257212 0.25552341 1.2140001
0.0049711466 0.25607976 1.2143571
0.015608119 0.25294986 1.2148
0.024579294 0.25211486 1.2155714
0.034111969 0.2532194 1.2150834
0.04463537 0.25218382 1.2143333
0.056130003 0.25278518 1.2126154
0.064376503 0.25309369 1.2128001
0.075041555 0.25267488 1.214643
0.085731626 0.2523275 1.2143077
0.092866682 0.2516498 1.2126001
0.11562032 0.25130001 1.2160001
0.12233254 0.25098872 1.2145001
0.15445046 0.25111333 1.21
0.16355638 0.25111336 1.21
0.17513546 0.25109249 1.215
0.18331636 0.25120813 1.2162859
0.24027912 0.25086412 1.2190001
-0.66091806 0.2620526 1.2120001
-0.65557241 0.26472569 1.2118573
-0.64476937 0.26372153 1.21
-0.53668422 0.26454908 1.2138001
-0.52218962 0.26162016 1.21
-0.51231605 0.26752329 1.2177501
-0.50578034 0.26633629 1.2147501
-0.49475759 0.26321527 1.2160001
-0.48599836 0.2659165 1.2162001
-0.47534522 0.2668266 1.2165
-0.46500498 0.26848415 1.2167778
-0.45508027 0.26733953 1.2169167
-0.44781277 0.26593772 1.2177501
-0.43381691 0.26510221 1.2144002
-0.42482516 0.26459333 1.2140001
-0.41489816 0.26306617 1.2142501
-0.40355331 0.26401216 1.2113335
-0.3952311 0.26485938 1.2143637
-0.38614234 0.26436406 1.2147273
-0.37518603 0.26363036 1.212
-0.36579239 0.26459333 1.2140001
-0.35329473 0.26402858 1.2155716
-0.34470534 0.26283205 1.2140001
-0.33605161 0.26062539 1.2132002
-0.32263598 0.26095566 1.2142501
-0.31449524 0.26126882 1.2162001
-0.30781376 0.26037669 1.2140001
-0.28523296 0.26175085 1.2155
-0.27520552 0.26150006 1.2143335
-0.26880994 0.26037669 1.2140001
-0.25194344 0.26037669 1.2140001
-0.24506149 0.2609129 1.2165
-0.23488997 0.26129889 1.2166667
-0.22555467 0.26106283 1.2130001
-0.21959282 0.26162016 1.21
-0.50748008 0.27002561 1.21
-0.36185884 0.14580852 1.2256668
-0.35487553 0.14690611 1.2229999
-0.34938869 0.14442815 1.223
0.039335791 0.14777268 1.2243335
-0.36310267 0.15381745 1.2262728
-0.35717648 0.15327792 1.223
0.0095577454 0.15186195 1.223
0.016991548 0.15292393 1.223
0.024468487 0.15424842 1.2251052
0.032617707 0.15337907 1.2230002
0.047257744 0.15770279 1.223
0.052206807 0.15875131 1.2270001
0.047637369 0.16415636 1.2233076
0.054721113 0.16534407 1.2249998
0.061240371 0.16814552 1.223
0.016385624 0.19387262 1.2254001
0.024462169 0.19591644 1.2248667
0.031505164 0.19788073 1.223
0.068223737 0.19701946 1.2238001
0.072371542 0.19689547 1.2256669
0.027385417 0.20544618 1.2259092
0.033373702 0.20471175 1.2240666
0.067491643 0.20459655 1.2240002
0.073515698 0.20639192 1.2270001
0.088431939 0.2056309 1.2270001
0.092693716 0.20421031 1.2270001
0.027346581 0.21576938 1.2240909
0.033820719 0.21584059 1.2232103
0.065771446 0.2145891 1.2229999
0.075623326 0.21514975 1.2265999
0.082039267 0.21521989 1.2270001
0.66481769 0.21912219 1.2250001
0.028673235 0.22195208 1.223
0.035467073 0.22415128 1.2253335
0.045552533 0.22389778 1.2251819
0.053721715 0.22577409 1.2242308
0.06690421 0.22471321 1.2229999
0.075162306 0.2243246 1.2269999
0.64673454 0.22309203 1.2246002
0.65524262 0.22146271 1.2250001
0.66481596 0.2217806 1.2250001
0.6733613 0.2248089 1.2270001
0.056859534 0.23323348 1.2252222
0.065118492 0.23545104 1.2259998
0.074699536 0.23629205 1.2269999
0.44748694 0.23972513 1.2270001
0.45430917 0.23884897 1.2243335
0.46579921 0.23946464 1.2256668
0.47328538 0.23823565 1.223
0.48956895 0.23894364 1.223
0.4916929 0.23894364 1.223
0.51532024 0.23723911 1.2270002
0.5234102 0.23707788 1.2243335
0.018112566 0.2482487 1.2270001
0.024465293 0.24890602 1.2250001
0.057826661 0.24762148 1.2256669
0.064917296 0.2447698 1.2255999
0.075549535 0.24592072 1.2254444
0.084644094 0.24818651 1.2246001
0.093856707 0.24934423 1.2236668
0.11807163 0.24890602 1.2250001
0.12483803 0.24903749 1.2246002
0.13429275 0.24864054 1.2250001
0.1446678 0.24784404 1.2250001
0.15489635 0.24804637 1.2260001
0.16425423 0.24868691 1.2256669
0.17416336 0.24956335 1.223
0.18442909 0.24956337 1.223
0.19667897 0.24912512 1.2243335
0.20463805 0.24839309 1.2247145
0.21133237 0.2474394 1.223
0.23495047 0.24912512 1.2243335
0.24563502 0.2481879 1.2246002
0.25414902 0.24633807 1.2263335
0.26433238 0.2451839 1.2250001
0.2742275 0.24655834 1.2256668
0.28553927 0.2461178 1.2270001
0.29480755 0.24443209 1.2256669
0.30538258 0.24451832 1.2254002
0.3136915 0.24478404 1.2246002
0.3276239 0.24358922 1.2250001
0.33495456 0.24478404 1.2246002
0.34592706 0.24505049 1.2247143
0.35475111 0.24457738 1.2252222
0.3646954 0.24407578 1.2256669
0.37528703 0.24345666 1.2243335
0.3851777 0.24436653 1.2258574
0.39534494 0.24287894 1.2250001
0.4037033 0.24196544 1.2254002
0.41418648 0.24212313 1.2262002
0.42393801 0.24159321 1.2256669
0.43859431 0.24106757 1.223
0.44602811 0.24106757 1.223
0.45133796 0.24106757 1.223
0.46195769 0.24106757 1.223
0.49806473 0.24106757 1.223
-0.49516392 0.25769705 1.2263335
-0.48903927 0.25890315 1.2270001
-0.46133769 0.25890315 1.2270001
-0.45670515 0.25815943 1.2260001
-0.2659288 0.25848114 1.2250001
-0.25408334 0.25834048 1.2243335
-0.23226702 0.25890315 1.2270001
-0.22691765 0.25667545 1.2240001
-0.11400262 0.25890315 1.2270001
-0.10312589 0.25692451 1.2243335
-0.092595309 0.25436467 1.2256669
-0.084738806 0.25543505 1.2264287
-0.075646602 0.25677225 1.2270001
-0.063990094 0.25702035 1.225286
-0.05514773 0.25598854 1.2247143
-0.046067402 0.25479594 1.2243335
-0.035067994 0.2535511 1.2238001
-0.023132617 0.25395906 1.2250001
-0.01573256 0.25469211 1.2261113
-0.0050552199 0.25406283 1.2255001
0.0053143739 0.25299627 1.2242001
0.01382821 0.25103343 1.2250001
0.026636126 0.25037959 1.2270001
0.035100639 0.25156614 1.2250001
0.0488507 0.25168729 1.223
0.053185418 0.25103343 1.2250001
0.083895765 0.25168729 1.223
0.10547905 0.25037959 1.2270001
0.11444069 0.25070652 1.2260001
0.12359162 0.25037959 1.2270001
0.17473298 0.25037959 1.2270001
0.18325654 0.25037959 1.2270001
-0.67016494 0.26316494 1.2270001
-0.65524524 0.26613751 1.2243335
-0.54204583 0.26252151 1.2240001
-0.53620148 0.26517814 1.2240001
-0.52256507 0.26429725 1.2256669
-0.51438439 0.26457781 1.2247778
-0.50499886 0.26324517 1.2254002
-0.49382615 0.26140592 1.2250001
-0.48495179 0.26321203 1.2247499
-0.47444159 0.2633822 1.223941
-0.46570656 0.26403296 1.2246469
-0.45557046 0.2628476 1.2248667
-0.44586098 0.26570913 1.2240001
-0.43371814 0.26349318 1.2252222
-0.42535135 0.26281759 1.2234
-0.41305664 0.26454687 1.2260001
-0.40327892 0.26400897 1.2243335
-0.39602166 0.26348144 1.2260002
-0.3853724 0.26295045 1.2260001
-0.37473014 0.26507959 1.2260001
-0.36402684 0.26522762 1.2252859
-0.35547197 0.26287782 1.2256669
-0.34514081 0.26018307 1.223
-0.33876896 0.26018307 1.223
-0.32230014 0.26167053 1.2250001
-0.31856805 0.26103404 1.2270001
-0.28354645 0.26230702 1.223
-0.2760585 0.26117474 1.2243335
-0.26867884 0.26018307 1.223
-0.24518044 0.26060855 1.2250001
-0.23455203 0.26060855 1.2250001
-0.22832392 0.26018307 1.223
-0.15991575 -0.10195971 1.2360001
-0.15394858 -0.098802947 1.2348573
-0.14519677 -0.098279968 1.2360001
-0.13845055 -0.097666666 1.2360001
-0.38358316 0.14875385 1.2360001
-0.37478501 0.14643146 1.2350771
-0.36729345 0.14406462 1.2320004
-0.39327937 0.1557465 1.2345717
-0.3853007 0.15456717 1.2336003
-0.37542644 0.15445259 1.2333335
-0.36822057 0.15297949 1.2320002
0.055628911 0.15939821 1.2320001
-0.39518082 0.16171262 1.2333335
0.054559123 0.1615378 1.2320001
0.014359455 0.19786678 1.2344002
0.020325948 0.19791053 1.2320001
0.076916978 0.19783759 1.2360001
0.081567764 0.1985531 1.2360001
0.018186374 0.20005012 1.2320001
0.022822116 0.20325947 1.2320002
0.077323787 0.2036081 1.2325002
0.084169984 0.20532747 1.2348002
0.093071446 0.2086084 1.2320001
0.023076827 0.21288756 1.2320002
0.085639261 0.21468928 1.2320002
0.092337191 0.21444915 1.2336001
0.65791881 0.21930628 1.2320001
0.66433752 0.21930628 1.2320001
0.039582107 0.22786456 1.2320001
0.042791471 0.22786456 1.2320001
0.085268311 0.22484395 1.2320002
0.091656409 0.22431135 1.2360001
0.64934146 0.22180533 1.2340001
0.65405577 0.22058932 1.2344002
0.66647708 0.22144584 1.2320001
0.67660099 0.22226407 1.2348573
0.047223441 0.2307509 1.2360001
0.053018264 0.23510517 1.2335001
0.077238597 0.23257163 1.2320002
0.084910341 0.23407128 1.2323481
0.091689922 0.2321741 1.2350001
0.40461904 0.239337 1.2360001
0.44969594 0.23933698 1.2360001
0.45395687 0.23875609 1.233
0.46214786 0.23856243 1.2320001
0.47514644 0.23918207 1.2352002
0.48646641 0.23787645 1.2340001
0.49424148 0.2390788 1.2346668
0.50979853 0.23933698 1.2360001
0.51583982 0.23739192 1.2333335
0.53275377 0.23856243 1.2320001
-0.020391941 0.24792306 1.2360001
-0.018245421 0.24792306 1.2360001
0.016071113 0.2480568 1.2340001
0.026089367 0.24836883 1.2346668
0.055600591 0.24489565 1.2332309
0.07488507 0.24284159 1.2320001
0.084958144 0.2435305 1.2329415
0.094046757 0.24872541 1.2336
0.1067367 0.24881457 1.2333335
0.11461516 0.24808286 1.2336001
0.12491536 0.24804115 1.2342223
0.13523076 0.24792306 1.2360001
0.15760134 0.24765562 1.2346668
0.16528204 0.24792306 1.2360001
0.17313294 0.24881457 1.2333335
0.18433605 0.24899288 1.2328001
0.19486183 0.248926 1.233
0.20472729 0.24803005 1.2344002
0.21216336 0.24752189 1.2340001
0.22786456 0.24926031 1.2320001
0.23538029 0.24859169 1.2340002
0.24502224 0.24823509 1.2340001
0.25488248 0.24524629 1.2333335
0.26666519 0.24595949 1.2333335
0.27529085 0.24615514 1.2336
0.28135389 0.24712072 1.2320001
0.29680848 0.24537885 1.2340001
0.3056733 0.24357359 1.233
0.31450686 0.24428301 1.2328001
0.3380526 0.24498115 1.2320001
0.34515685 0.24393959 1.2335001
0.35555357 0.2423889 1.2333335
0.3649084 0.24363002 1.2360001
0.37610242 0.24323466 1.2340002
0.38536096 0.24217469 1.2346667
0.39484397 0.24200027 1.233778
0.40544915 0.24070202 1.2320002
0.4165298 0.24159883 1.2344002
0.42466626 0.24182303 1.2350001
0.43037727 0.24148351 1.2360001
0.44575545 0.24216256 1.2340001
0.466427 0.240702 1.2320001
0.49932814 0.24109276 1.2340001
0.50361425 0.24109276 1.2340001
-0.50389183 0.25805756 1.2352002
-0.49317166 0.25995818 1.2320001
-0.46257508 0.25865567 1.2360001
-0.26437971 0.25865567 1.2360001
-0.25716734 0.25823712 1.2340001
-0.2434258 0.25969765 1.2328001
-0.23399192 0.25709116 1.2342224
-0.22786456 0.25567901 1.2320001
-0.12244427 0.25738212 1.2333335
-0.11537864 0.25676417 1.2345265
-0.10577922 0.25766 1.2346668
-0.095924214 0.25496584 1.2320001
-0.083811097 0.25357896 1.2335001
-0.075006641 0.2550208 1.2340002
-0.064648576 0.25573635 1.2340001
-0.054937281 0.25485626 1.2345001
-0.045039583 0.2541568 1.2350001
-0.0353924 0.25415683 1.2350001
-0.024637051 0.25193897 1.2336001
-0.014568551 0.25129572 1.2336001
-0.0058531011 0.25150755 1.2341541
0.0051181498 0.25080866 1.233778
0.01287912 0.25006959 1.2360001
0.0268315 0.25006959 1.2360001
0.035373122 0.25188825 1.2344002
0.044574451 0.25139987 1.2320001
0.050361596 0.25073475 1.2340001
0.099813186 0.25006959 1.2360001
0.10303296 0.25006959 1.2360001
0.17494139 0.25006959 1.2360001
0.18782051 0.25006959 1.2360001
-0.66434538 0.26756042 1.2350001
-0.65720218 0.26452097 1.2333335
-0.54209441 0.26273423 1.2350001
-0.53539091 0.26461071 1.2350001
-0.52448446 0.26277715 1.2352002
-0.51514047 0.26346418 1.2344002
-0.50710207 0.26266274 1.2346668
-0.47223443 0.26080218 1.2360001
-0.46611267 0.26144996 1.2340001
-0.45144999 0.26423731 1.2320001
-0.4486227 0.26616848 1.2360001
-0.42419124 0.26409608 1.2346668
-0.41380513 0.2644518 1.233
-0.40435433 0.26320645 1.2352002
-0.39577383 0.26320645 1.2352002
-0.38586107 0.2633169 1.2348573
-0.37503147 0.26359305 1.2340002
-0.36505571 0.26307863 1.2336003
-0.35607296 0.26132041 1.2344002
-0.34022343 0.26294872 1.2360001
-0.33458534 0.26273599 1.2350001
-0.32484585 0.26159179 1.2346668
-0.31476998 0.26231048 1.233
-0.30769104 0.26266509 1.2346668
-0.29574394 0.26252323 1.2340001
-0.28502235 0.26216549 1.2340002
-0.27537456 0.26144996 1.2340001
-0.25006959 0.26080218 1.2360001
-0.23894972 0.26144996 1.2340001
-0.12255397 -0.17027409 1.2490001
-0.12472306 -0.16810499 1.2490001
-0.10489132 -0.16717538 1.2490001
-0.10953938 -0.15725951 1.2490001
-0.15390949 -0.11246654 1.2429999
-0.14565833 -0.1125349 1.2478573
-0.13990673 -0.11170848 1.2490001
-0.16129467 -0.10616591 1.24
-0.15421732 -0.10569049 1.242
-0.14505056 -0.10519077 1.2461581
-0.13947292 -0.10476737 1.2490001
-0.1340533 -0.098377831 1.245
-0.32211086 -0.081341125 1.2490001
-0.32211086 -0.07917203 1.2490001
-0.39152196 0.13990673 1.2490001
-0.38573772 0.13990673 1.2490001
-0.40443745 0.14637743 1.2486926
-0.39453551 0.14536127 1.245895
-0.38505831 0.1444729 1.2435335
-0.37631831 0.14159043 1.24
-0.41352278 0.15632991 1.2490003
-0.40510598 0.15429036 1.2456472
-0.39856499 0.15345621 1.2416667
-0.41538197 0.16461036 1.2490003
-0.40565643 0.16369013 1.2451
-0.39946806 0.16043328 1.24
0.016036933 0.20591524 1.2462729
0.02155529 0.20694229 1.24125
0.086011313 0.20332605 1.2433333
0.016248543 0.21234457 1.2476667
0.021261144 0.21153036 1.2450001
0.096906006 0.21750014 1.24
0.65677553 0.21844374 1.2433333
0.66332954 0.218707 1.2448334
0.67424786 0.21844153 1.2453749
0.68231046 0.21703485 1.2452857
0.095704548 0.22520383 1.240909
0.65357715 0.22073033 1.24
0.66434449 0.22073033 1.24
0.67798316 0.22144815 1.24
0.68109637 0.22016332 1.2490001
0.037959192 0.2331779 1.2490001
0.044790369 0.23478399 1.2460001
0.05079012 0.2377449 1.2445
0.095076859 0.23445369 1.2442499
0.39586017 0.23968519 1.2490001
0.40533963 0.23893669 1.2467142
0.41429746 0.23968519 1.2490001
0.44791847 0.23860064 1.2490001
0.45525321 0.23799054 1.2442726
0.46439663 0.23813717 1.24375
0.47571239 0.23893988 1.247
0.48382726 0.23765011 1.2446667
0.49621344 0.23891759 1.2450001
0.50603342 0.23893988 1.247
0.51414633 0.23815215 1.24525
0.52489364 0.23740987 1.2446667
0.53585285 0.23891759 1.2450001
0.54161859 0.23891759 1.245
-0.024764869 0.24872541 1.24
-0.013997534 0.24872541 1.24
-0.0086486004 0.24972834 1.245
0.014080025 0.24904495 1.247
0.024298139 0.24888518 1.2435
0.036075197 0.24927275 1.2463334
0.04504355 0.24875209 1.2478573
0.051901586 0.24517718 1.24525
0.0945599 0.2457481 1.2450769
0.10471811 0.24939403 1.2433333
0.1162796 0.24717478 1.24575
0.12516852 0.24666016 1.2448
0.13511719 0.24752641 1.2448
0.14480586 0.2485435 1.2445
0.15459216 0.24756272 1.245
0.16478962 0.24640328 1.244
0.1747981 0.24761777 1.2442
0.18580644 0.24750771 1.2447273
0.19455861 0.2478925 1.2434
0.20498239 0.24762076 1.2452859
0.21517387 0.24734172 1.24525
0.22462876 0.24842094 1.2453636
0.23465188 0.24702498 1.2442727
0.2446707 0.24623685 1.2422726
0.25538811 0.2446156 1.2410001
0.26454645 0.24456608 1.2435
0.27343702 0.24677686 1.2446668
0.28533432 0.24657194 1.24
0.2931461 0.24663076 1.2457501
0.30400151 0.24500982 1.243
0.31771502 0.24418142 1.2454001
0.32452679 0.24400081 1.24475
0.33553311 0.24461512 1.2465
0.34560907 0.24302083 1.2451111
0.3542248 0.24197164 1.2464287
0.36512202 0.24346356 1.2445714
0.37496275 0.24355018 1.2434287
0.38371721 0.24104102 1.2448
0.39434564 0.24027291 1.2408333
0.41454238 0.24011156 1.24
0.42529595 0.24127728 1.2441666
0.43562946 0.24180901 1.244
0.44503847 0.24211511 1.2442727
0.47040007 0.24059564 1.2425001
0.50498801 0.24011154 1.24
-0.54375035 0.25949275 1.24
-0.53298301 0.25949275 1.24
-0.52425468 0.25856328 1.2428
-0.51594782 0.25815493 1.2456667
-0.47394764 0.25920707 1.2490001
-0.46638641 0.25886345 1.24475
-0.41104382 0.25920707 1.2490001
-0.40345198 0.25920707 1.2490001
-0.33078724 0.25920707 1.2490001
-0.32550502 0.25932136 1.2454001
-0.31994176 0.25920707 1.2490001
-0.3004199 0.25920707 1.2490001
-0.29499716 0.25920707 1.2490001
-0.28526211 0.2592642 1.2472
-0.27373689 0.25930232 1.2460001
-0.26788345 0.25920707 1.2490001
-0.25347102 0.2590982 1.2464001
-0.24378701 0.25842825 1.2441111
-0.23590465 0.25489581 1.2428
-0.12255223 0.25480813 1.2416668
-0.11251864 0.25464746 1.24
-0.105297 0.25588772 1.2416667
-0.094945058 0.25457823 1.2445714
-0.085063435 0.25272667 1.2445714
-0.074863367 0.25293267 1.2462729
-0.065597296 0.25409845 1.2452501
-0.055772327 0.253317 1.2431667
-0.044722211 0.2539292 1.2461667
-0.033870645 0.25329676 1.2448334
-0.026957411 0.25121608 1.2416668
-0.0043381932 0.25053066 1.2490001
0.0075736037 0.25064674 1.2460001
0.0226114 0.25087887 1.24
0.036342215 0.25151694 1.2431667
0.045236822 0.25152054 1.2447144
0.1030321 0.25053066 1.2490001
-0.67197007 0.26555187 1.2414999
-0.6658988 0.26475483 1.241111
-0.54233211 0.26090813 1.2433333
-0.53556722 0.26315364 1.2399999
-0.52113891 0.26164621 1.24
-0.5158394 0.26199427 1.2444546
-0.50929487 0.26164621 1.24
-0.4942894 0.26196161 1.2456001
-0.48324597 0.26212096 1.24225
-0.47384781 0.26104766 1.244
-0.46093306 0.26354524 1.2490001
-0.45341089 0.26449782 1.2455555
-0.44570118 0.26605085 1.2438334
-0.43823048 0.26379967 1.24
-0.42477828 0.26395822 1.2465714
-0.41541949 0.26278093 1.2446154
-0.40492329 0.26123306 1.2442
-0.39515325 0.26206574 1.2461001
-0.38398543 0.26131019 1.2441111
-0.37501529 0.26153845 1.244625
-0.3655819 0.26147741 1.245625
-0.35401398 0.26175475 1.2478573
-0.34496373 0.26218265 1.2471112
-0.3353352 0.26177496 1.24575
-0.32561308 0.26081586 1.24375
-0.31556621 0.26153299 1.2446001
-0.30500036 0.2613402 1.2431111
-0.29508525 0.26103115 1.2427777
-0.28644273 0.26117176 1.2421429
-0.27686787 0.26113316 1.2434287
-0.26571435 0.26137614 1.2490001
-0.25576848 0.26153883 1.2463334
-0.24972834 0.26053908 1.245
-0.45008758 0.27005255 1.2490001
-0.12086679 -0.17095573 1.2540001
-0.11760013 -0.17095573 1.2540001
-0.12402633 -0.16412105 1.2553889
-0.11546967 -0.16448839 1.2544999
-0.10574331 -0.16309154 1.2539999
-0.095707648 -0.16424966 1.2586429
-0.085322089 -0.16372359 1.2586668
-0.079805911 -0.16070506 1.2590001
-0.1227054 -0.15714212 1.255
-0.1154815 -0.15687779 1.2546251
-0.10562234 -0.15788905 1.2540001
-0.090558052 -0.15711494 1.2565
-0.087458536 -0.1585186 1.2590001
-0.077311195 -0.15788905 1.2540001
-0.13304622 -0.11229479 1.2579999
-0.12544833 -0.11451602 1.2589999
-0.14046681 -0.10344455 1.2540001
-0.13421105 -0.10534789 1.2556666
-0.12790811 -0.10495023 1.2590001
-0.1104164 -0.10167055 1.2590001
-0.10577017 -0.10303709 1.2589999
-0.13228104 -0.099484086 1.2590001
-0.10780011 -0.099088997 1.2540001
-0.32489386 -0.082707986 1.2551112
-0.31450638 -0.082169175 1.2550001
-0.32399327 -0.075027175 1.2570437
-0.31360033 -0.075133421 1.2539999
-0.30639631 -0.075505629 1.2550714
-0.32141012 -0.067780368 1.2590001
-0.31427842 -0.066307738 1.25525
-0.3082462 -0.068056501 1.2573334
-0.42526716 0.14867952 1.2590001
-0.41595602 0.14808905 1.2540001
-0.4241434 0.15482572 1.2556666
-0.4177708 0.15280758 1.2540002
-0.42601699 0.16435505 1.2555624
-0.41704488 0.16768906 1.2540001
-0.43182653 0.17163737 1.2590001
-0.42854685 0.17163737 1.2590001
0.67837846 0.21668911 1.2540001
0.68273413 0.21668911 1.2540001
0.67184514 0.22104467 1.2540001
0.037385225 0.23774099 1.2540001
0.041014861 0.23774099 1.2540001
0.096911214 0.23846692 1.2540001
0.39902958 0.23941775 1.2590001
0.40587029 0.23894234 1.2565001
0.4372927 0.23941775 1.2590001
0.44494531 0.23941775 1.2590001
0.45384327 0.23772554 1.2570001
0.47533739 0.23857793 1.2565001
0.48394585 0.23652467 1.2552501
0.49566436 0.23837197 1.2573335
0.50563979 0.23793736 1.256143
0.51566023 0.23743722 1.2581667
0.52413625 0.23772553 1.257
0.53374285 0.23860012 1.257
0.54442942 0.23941775 1.2590001
-0.075133413 0.24935584 1.2540001
0.01197779 0.24935582 1.2540001
0.036021076 0.24623708 1.257
0.044680085 0.24410501 1.2549999
0.051177833 0.24500026 1.2540001
0.098196208 0.24439548 1.2565
0.10495832 0.24854104 1.2565
0.11455705 0.24803379 1.2565001
0.12740013 0.24717803 1.2540001
0.13425216 0.24776939 1.257
0.14504814 0.24757226 1.256
0.15446927 0.24677774 1.2556667
0.16481054 0.2455864 1.257
0.17667651 0.24594231 1.2551111
0.18386169 0.24518956 1.2562222
0.19555551 0.24635227 1.256143
0.20498094 0.24761698 1.2590001
0.21451133 0.24717803 1.2540001
0.22557521 0.24657761 1.2565
0.23514846 0.24532443 1.2556669
0.24391136 0.24500026 1.2540001
0.25391024 0.24519563 1.2550001
0.2624225 0.24500027 1.2540001
0.27494514 0.2471242 1.2565
0.28531379 0.24675383 1.2567776
0.2947818 0.24637744 1.2573335
0.30438697 0.24660185 1.2590001
0.31364983 0.24532589 1.2556667
0.32491618 0.24314378 1.2556667
0.3352268 0.24248666 1.2565
0.34477523 0.24275996 1.2565
0.35639352 0.24160421 1.2590001
0.36538196 0.2420103 1.2573333
0.37399861 0.24326491 1.2581668
0.38405994 0.24221334 1.2565
0.39383483 0.24083661 1.2550001
0.41922265 0.24064469 1.2540001
0.42466712 0.24064469 1.2540001
0.43446714 0.24064469 1.2540001
0.44515067 0.24112445 1.2565
0.49544495 0.24064469 1.2540001
0.53791165 0.24064469 1.2540001
-0.52405655 0.25729531 1.2573334
-0.39465666 0.25909591 1.2590001
-0.34497994 0.25777975 1.2552501
-0.33478498 0.25682288 1.2574999
-0.32404727 0.25803483 1.2565
-0.31458634 0.25821704 1.2565001
-0.30495042 0.25748819 1.2565
-0.29590455 0.25788325 1.256143
-0.28510511 0.25889012 1.258
-0.27512997 0.25909591 1.2590001
-0.26390615 0.25865862 1.2590001
-0.25584751 0.25771791 1.2568572
-0.24494855 0.25609773 1.2562224
-0.23785344 0.25421718 1.2565
-0.12522236 0.25588915 1.2540001
-0.11260287 0.25690946 1.2590001
-0.10211623 0.25501454 1.25775
-0.095244542 0.25304171 1.255
-0.085014835 0.25178435 1.2552501
-0.074870311 0.2511391 1.2556667
-0.066233002 0.2514734 1.2573333
-0.054444503 0.25371137 1.2540001
-0.044461273 0.25312394 1.2565
-0.035460562 0.25203288 1.2565
-0.02940003 0.2515336 1.2540001
-0.0010932317 0.25253654 1.2590001
0.0039925966 0.2515336 1.2540001
0.014212012 0.25035006 1.2590001
0.025873151 0.25035006 1.2590001
-0.48552644 0.26294565 1.2565
-0.47774225 0.26128238 1.2590001
-0.4647066 0.2626628 1.25775
-0.45395851 0.26365483 1.2554287
-0.44522056 0.26458755 1.2556667
-0.43427375 0.26442775 1.256143
-0.42641371 0.26208338 1.2568573
-0.41541153 0.26024473 1.2540001
-0.40506709 0.26024473 1.2540001
-0.39469919 0.26059061 1.2556667
-0.38404906 0.26076356 1.2565001
-0.37497851 0.26128241 1.2590001
-0.36623263 0.26128238 1.2590001
-0.35748675 0.26128238 1.2590001
-0.34477523 0.26076356 1.2565
-0.3369171 0.26059061 1.2556667
-0.32557812 0.26024473 1.2540001
-0.31468922 0.26024473 1.2540001
-0.30597812 0.26024473 1.2540001
-0.28202251 0.26024473 1.2540001
-0.27476329 0.26024473 1.2540001
-0.26460028 0.26024473 1.2540001
-0.25806695 0.26024473 1.2540001
-0.091026515 -0.17218269 1.263
-0.083552785 -0.17290801 1.2637144
-0.074593373 -0.17315003 1.2676153
-0.069365941 -0.17176329 1.268
-0.041839775 -0.17066224 1.268
-0.026425121 -0.17066224 1.268
-0.093494102 -0.16532829 1.263
-0.082984015 -0.16828328 1.2630001
-0.074795738 -0.16499582 1.26675
-0.067163847 -0.16427617 1.268
-0.042922974 -0.16593957 1.2674444
-0.036230963 -0.16672979 1.2644286
-0.028514331 -0.16779587 1.263
-0.096510038 -0.15902223 1.263
-0.12111513 -0.12001409 1.268
-0.08505585 -0.12111513 1.268
-0.12243659 -0.11344618 1.2661818
-0.11442392 -0.11442176 1.2670623
-0.10488333 -0.11337648 1.2676427
-0.094690017 -0.11340781 1.268
-0.087297276 -0.11623908 1.2680001
-0.12366389 -0.1062279 1.2672307
-0.1142865 -0.10596427 1.2655001
-0.10364836 -0.10738583 1.2645
-0.095214881 -0.10438641 1.2668887
-0.087202892 -0.10283776 1.268
-0.1305079 -0.099800155 1.263
-0.093513422 -0.097914137 1.2670001
-0.087423109 -0.09711232 1.268
-0.32133457 -0.084446289 1.263
-0.33054385 -0.0669844 1.2646668
-0.32611722 -0.064252093 1.2656667
-0.32701087 -0.058355477 1.268
-0.43491349 0.14864132 1.268
-0.43444061 0.15525286 1.2658125
-0.45032811 0.1673591 1.268
-0.44488257 0.16741626 1.2661818
-0.4356229 0.16568816 1.263667
-0.45106214 0.17286435 1.268
-0.44354764 0.17157452 1.2650001
0.67604268 0.2191083 1.268
0.68504179 0.21808916 1.2663333
0.67557031 0.22043771 1.263
0.33484742 0.23766945 1.266
0.34352657 0.23892714 1.268
0.40518516 0.23892714 1.268
0.41069043 0.23892714 1.268
0.44592392 0.23892716 1.268
0.45346731 0.23735647 1.2655001
0.4628095 0.23798499 1.263
0.47724575 0.23744626 1.2651429
0.4851853 0.23504275 1.2648752
0.49666443 0.23722902 1.2660002
0.50536638 0.23527248 1.2644287
0.5154916 0.23413152 1.2648184
0.52479905 0.23512375 1.2664999
0.53493589 0.23748103 1.2650001
0.54536057 0.23744504 1.2651429
0.029728262 0.24993759 1.268
0.034051694 0.24538945 1.2650001
0.1042125 0.2447031 1.266
0.11494155 0.24592581 1.2655001
0.12515137 0.24700284 1.26425
0.13102455 0.2477355 1.268
0.15384045 0.24724707 1.2655001
0.16846015 0.24553341 1.268
0.17479031 0.24470572 1.2660002
0.18534105 0.24276491 1.2663332
0.1954972 0.24417473 1.2658572
0.20524621 0.24651532 1.2640001
0.2149542 0.24675862 1.263
0.22351249 0.24663445 1.268
0.23458171 0.24484222 1.2663335
0.24399255 0.24435958 1.2638334
0.2551921 0.24529137 1.2667501
0.26535225 0.24553342 1.268
0.27596819 0.2452265 1.2643638
0.28482822 0.24416761 1.2655003
0.29547563 0.24495248 1.2650001
0.30493698 0.24394827 1.2654999
0.3148188 0.24401681 1.2652222
0.32460266 0.24187048 1.266125
0.3343842 0.24111977 1.2636251
0.34503204 0.24125427 1.2637144
0.35163811 0.24175052 1.2655001
0.36836296 0.24081229 1.2663335
0.37639162 0.24166179 1.2658572
0.38361928 0.24195763 1.2646668
0.39520133 0.24041611 1.26425
0.40249074 0.24017841 1.263
0.4156512 0.24017841 1.263
0.42500401 0.24112923 1.268
0.43295276 0.24065383 1.2655001
0.47048646 0.24017841 1.263
-0.4770667 0.25991911 1.263
-0.42003801 0.25991911 1.263
-0.41455451 0.25991911 1.263
-0.40558231 0.25952804 1.2646668
-0.39643297 0.25952807 1.2646668
-0.38494349 0.25991911 1.263
-0.37397641 0.25991911 1.263
-0.36424825 0.25941631 1.2651429
-0.35862255 0.25991911 1.263
-0.34262353 0.2580629 1.2646668
-0.33127499 0.25879693 1.2646668
-0.32394406 0.2570504 1.2658572
-0.31560048 0.25690588 1.2651429
-0.30598071 0.25772569 1.263
-0.29359305 0.25840589 1.2663333
-0.28515998 0.25789744 1.2660002
-0.27526975 0.25864393 1.2644286
-0.26869273 0.25772569 1.263
-0.25220799 0.25733179 1.2646668
-0.24740699 0.25473863 1.2663333
-0.13102455 0.25874597 1.268
-0.12412218 0.25637561 1.2650001
-0.11384533 0.25516662 1.2658572
-0.10676093 0.25550884 1.26425
-0.062594675 0.25220802 1.2646668
-0.054890607 0.2535896 1.26425
-0.042851817 0.25273928 1.2655001
-0.035094559 0.25114545 1.263
-0.029728262 0.25213969 1.268
-0.0033031402 0.25213969 1.268
0.0054974188 0.25194085 1.2670001
0.018717794 0.25213969 1.268
0.020919887 0.25213969 1.268
-0.69035625 0.26975644 1.268
-0.68595207 0.26865539 1.268
-0.67447358 0.26649931 1.263
-0.50108522 0.2648291 1.2655001
-0.49446756 0.26405287 1.2660002
-0.48693687 0.26294088 1.2670001
-0.46354067 0.26315016 1.268
-0.45445108 0.26229379 1.266
-0.44538322 0.26293173 1.2657777
-0.43549898 0.26255473 1.2651429
-0.42610508 0.26094806 1.268
-0.41619566 0.26094806 1.268
-0.40188205 0.26094806 1.268
-0.39307368 0.26094806 1.268
-0.3864674 0.26094806 1.268
-0.37986112 0.26094806 1.268
-0.36275727 0.26172435 1.2646668
-0.35563809 0.26204911 1.268
-0.064062163 -0.18003677 1.2720001
-0.055226002 -0.18003677 1.2720001
-0.045906879 -0.18118802 1.2770001
-0.021807615 -0.18148372 1.2770002
-0.064675786 -0.17475963 1.272
-0.055225998 -0.17451419 1.2720001
-0.045671344 -0.17495951 1.2725556
-0.035562593 -0.17243949 1.274143
-0.026198678 -0.17551227 1.274778
-0.062957637 -0.16656163 1.2720002
-0.055226002 -0.16567801 1.2720001
-0.048230704 -0.16555528 1.2720002
-0.092779681 -0.12039268 1.2720001
-0.078420922 -0.12039268 1.2720001
-0.06542284 -0.12086593 1.2770001
-0.056182325 -0.12160518 1.2770001
-0.047681056 -0.12086593 1.2770002
-0.10051132 -0.11597461 1.2720001
-0.094988726 -0.11502788 1.2720002
-0.083688639 -0.11393549 1.2720003
-0.075270988 -0.11512651 1.2748125
-0.065308876 -0.11512168 1.2747501
-0.055372261 -0.11518078 1.2754377
-0.048789915 -0.11532162 1.2770001
-0.034576327 -0.11441436 1.2770002
-0.025873441 -0.11458237 1.2770001
-0.12382632 -0.10200065 1.2748573
-0.11818364 -0.10272036 1.2720001
-0.092779681 -0.10934749 1.2720001
-0.083428085 -0.10610755 1.2720002
-0.075165115 -0.10500884 1.2730001
-0.0652688 -0.10508952 1.274
-0.056343317 -0.10582038 1.2756667
-0.047681052 -0.10534186 1.2770001
-0.033635475 -0.10829883 1.2770002
-0.024173187 -0.10755958 1.2770001
-0.082460582 -0.09705241 1.2730001
-0.076006263 -0.098167859 1.276
-0.066753469 -0.098245144 1.2770001
-0.45297 0.14914191 1.2770001
-0.44511169 0.14836985 1.2751251
-0.43849444 0.14690116 1.2720001
-0.45296997 0.15524064 1.2770001
-0.44516632 0.15511222 1.2743531
-0.4730404 0.16876875 1.2770001
-0.46368554 0.16622719 1.2756667
-0.4554379 0.16478567 1.2736669
-0.44592485 0.16216363 1.2720003
-0.47368559 0.17509936 1.2770002
-0.46516645 0.17498523 1.2749413
-0.45661148 0.17373277 1.2725557
-0.47348398 0.18074445 1.2770002
0.67795789 0.21787557 1.2736667
0.68467551 0.21731797 1.2730001
0.69542795 0.21780428 1.2732501
0.51672959 0.22953437 1.2770001
0.67529678 0.22066347 1.2770001
0.3339332 0.2389445 1.2720001
0.34596485 0.23840527 1.2770001
0.35013285 0.23968084 1.2720001
0.37605384 0.23942573 1.2730001
0.38105941 0.23968084 1.2720001
0.39541817 0.23968084 1.2720001
0.40314981 0.23857632 1.2720001
0.414195 0.23968084 1.2720001
0.4351809 0.23968084 1.2720001
0.44423503 0.23925565 1.2736667
0.45307407 0.23704663 1.2736669
0.46532053 0.2373929 1.2742224
0.47466496 0.2373929 1.2742224
0.48251507 0.23406185 1.2745001
0.49787891 0.23840527 1.2770001
0.50495028 0.23420838 1.2748573
0.5171597 0.23218599 1.2753334
0.52422559 0.23225169 1.2736667
0.53452742 0.23498449 1.2745001
0.54449326 0.23588236 1.2742729
0.55276757 0.23396982 1.2770001
0.029939266 0.24949388 1.2770001
0.032094035 0.24789658 1.2745001
0.10713844 0.24630797 1.2720001
0.12511034 0.24688891 1.275
0.1358379 0.24841142 1.2760001
0.1449765 0.2478966 1.2745003
0.15493456 0.24679208 1.2745001
0.16378807 0.24679208 1.2745001
0.17782773 0.24409893 1.2720001
0.18961535 0.24284071 1.2770001
0.19439553 0.24409893 1.2720001
0.2070865 0.24695343 1.2753334
0.21412039 0.24644534 1.2750001
0.22480224 0.2462142 1.2753334
0.2335096 0.24513093 1.2745001
0.24630797 0.24409895 1.2720001
0.25429249 0.24433881 1.2732501
0.26501796 0.24505845 1.2770001
