# .PCD v0.7 - Point Cloud Data file format
VERSION 0.7
FIELDS x y z
SIZE 4 4 4
TYPE F F F
COUNT 1 1 1
WIDTH 1494
HEIGHT 1
VIEWPOINT 0 0 0 1 0 0 0
POINTS 1494
DATA ascii
0.42493543 0.24990894 1.039
0.43756619 0.24990894 1.039
0.45692509 0.24908204 1.0355715
0.46164224 0.24834363 1.0350001
0.55702847 0.24577351 1.033
0.5642817 0.24535309 1.0354706
0.57109153 0.24449575 1.039
0.029686581 0.25998247 1.036
0.032197803 0.25847679 1.0300001
0.058473568 0.25998247 1.036
0.077287748 0.25913009 1.0350001
0.083590731 0.25899407 1.0351429
0.1088508 0.25998247 1.036
0.11064998 0.25998247 1.036
0.12901437 0.25893092 1.039
0.13671666 0.25956187 1.0372001
0.14367218 0.25947103 1.0354
0.1541228 0.2594806 1.0340002
0.16429345 0.25855431 1.0339001
0.17502388 0.25859553 1.0336667
0.18512085 0.25805798 1.0335455
0.19510184 0.25893074 1.0354
0.20480306 0.25929919 1.0365455
0.21481675 0.25822523 1.0351429
0.22559881 0.25831944 1.0345
0.23522523 0.25735044 1.0345787
0.24490595 0.25785017 1.0354002
0.2565645 0.25837019 1.0367501
0.26643384 0.25784752 1.0346667
0.27453828 0.25571087 1.0352106
0.2865153 0.25525698 1.036
0.29490456 0.25598571 1.0357274
0.30451539 0.25511116 1.0345001
0.31484032 0.25474209 1.0330002
0.32463112 0.25497094 1.0343333
0.33495742 0.25464225 1.034875
0.34451288 0.25283027 1.0351429
0.35518175 0.25404012 1.0338
0.3650277 0.25389093 1.036
0.37285051 0.25246376 1.0363333
0.38687748 0.25402939 1.0337501
0.39359209 0.25370222 1.0356667
0.40211302 0.25188875 1.036
0.41635206 0.25147054 1.033375
0.4246507 0.25158578 1.0339231
0.43468267 0.25208932 1.0350001
0.44395366 0.25150493 1.0356667
0.45205522 0.25074428 1.0350001
-0.55630648 0.26920938 1.0300001
-0.47605947 0.26941273 1.0347143
-0.46620426 0.268666 1.0325
-0.45687735 0.26827651 1.0310001
-0.44042128 0.26999348 1.033
-0.4346149 0.26938662 1.0341251
-0.42566481 0.26981634 1.0375
-0.41500908 0.26948422 1.0345001
-0.40546095 0.26849008 1.0325385
-0.39595431 0.26910535 1.0327272
-0.38488299 0.26861316 1.0300001
-0.34420386 0.26933447 1.0334287
-0.33505574 0.26912662 1.0345
-0.32489547 0.26929492 1.0355
-0.31614801 0.26860371 1.0353334
-0.30363357 0.26960143 1.0315001
-0.29869711 0.26999348 1.033
-0.28148589 0.2697573 1.039
-0.26205432 0.26742062 1.0300001
-0.25410178 0.26845583 1.0330001
-0.24483784 0.26803854 1.0349091
-0.23510075 0.26868314 1.0358
-0.21305449 0.26923087 1.0352499
-0.20379443 0.26865706 1.0353076
-0.19473666 0.26859218 1.0334616
-0.18468033 0.26768404 1.03345
-0.17480829 0.26714817 1.0337828
-0.16912094 0.26807624 1.036
-0.092332602 0.26868045 1.034875
-0.085269615 0.26682013 1.0350626
-0.075921237 0.26501027 1.0355715
-0.063702784 0.26470566 1.0333751
-0.055120233 0.2650547 1.0343126
-0.045094561 0.26540273 1.0353687
-0.03545557 0.26435173 1.0337501
-0.025635807 0.26432884 1.036
-0.016119067 0.26580584 1.0376667
-0.0038852131 0.26461157 1.0330001
0.0063061258 0.26623538 1.0370001
0.01529989 0.26460502 1.0364999
0.024583548 0.26236174 1.0343125
0.046024647 0.26266962 1.0334287
0.055076286 0.26223475 1.03425
0.064799324 0.2615816 1.0348333
0.072928503 0.26120988 1.0337501
0.087013081 0.26057252 1.0330001
0.095330648 0.26141515 1.0357502
0.10440963 0.26103106 1.0366
0.11569522 0.26146513 1.0353076
0.12584391 0.26192909 1.0366
0.13434835 0.26101175 1.0353334
0.14519985 0.2603327 1.0312859
0.1541054 0.2605474 1.0354002
0.19765872 0.26026556 1.0300001
0.20302503 0.26026556 1.0300001
0.22627899 0.26026556 1.0300001
-0.56320351 0.27397677 1.0325716
-0.55407047 0.27166891 1.0300001
-0.48448053 0.27156171 1.039
-0.47571132 0.27180344 1.0356251
-0.45561019 0.27156171 1.039
-0.44442621 0.27154034 1.0348001
-0.42638585 0.27115434 1.034875
-0.3935287 0.27099815 1.0300001
-0.35539159 0.27171224 1.035
-0.34799442 0.27092466 1.0320001
-0.30407906 0.27088788 1.033
-0.29524246 0.27139831 1.0346365
-0.28549492 0.27159256 1.036
-0.27697492 0.27156171 1.039
-0.23430571 0.27180791 1.0365002
-0.22469954 0.27161875 1.0351001
-0.21860118 0.27077761 1.036
-0.1985531 0.27099815 1.0300001
0.046631888 -0.42443138 1.04275
0.044887744 -0.41376293 1.0436001
0.038708348 -0.40428254 1.04275
0.04202703 -0.40624812 1.0456431
0.038094226 -0.39452946 1.0445001
0.0409506 -0.3949458 1.0480002
0.037334975 -0.38475281 1.0452001
0.0409506 -0.38493565 1.0480002
0.036511403 -0.37504858 1.0442107
0.041405607 -0.37401548 1.0480002
0.037613381 -0.36570275 1.04375
0.042087484 -0.36472687 1.0474548
0.038604945 -0.35619092 1.0420001
0.042598762 -0.35467151 1.0469288
0.038906544 -0.34473008 1.0420001
0.04416731 -0.34456593 1.046154
0.050050735 -0.34307504 1.0480001
0.038906544 -0.33749163 1.0420001
0.045206424 -0.33464441 1.0447931
0.045334108 -0.32484177 1.0441177
0.050050735 -0.3212347 1.0480001
0.045358505 -0.31497726 1.0446539
0.051329546 -0.31642705 1.0475717
0.046446573 -0.30823636 1.0420001
0.051573791 -0.30763316 1.0420001
0.042525757 -0.20539036 1.0420001
0.016898781 -0.18104707 1.0425
0.025579181 -0.18211052 1.0423157
0.032503359 -0.18344805 1.043
0.0069082598 -0.17365405 1.0445385
0.014842565 -0.17669132 1.0465001
0.025291568 -0.17596145 1.045261
0.033340916 -0.17617035 1.044
-0.013601139 -0.16083604 1.0445001
-0.0043224618 -0.16394532 1.0451766
0.002497978 -0.16821593 1.0457501
-0.021780405 -0.15697643 1.0450001
-0.014551096 -0.15917636 1.0475001
-0.0063700937 -0.15925233 1.0480001
-0.18372691 0.14927664 1.044
-0.17824626 0.14929256 1.0420001
-0.41250369 0.15589069 1.0450001
-0.40428683 0.15688017 1.0436667
-0.39385706 0.15616611 1.0461252
-0.3885757 0.15925233 1.0480001
-0.20302491 0.15692183 1.0461252
-0.19605203 0.15295297 1.0436666
-0.40082788 0.1601502 1.0420001
-0.3945525 0.16227746 1.0440526
-0.38596252 0.16640674 1.0453873
-0.37947556 0.16835247 1.0480001
-0.21021308 0.16744246 1.0480001
-0.20677778 0.16465183 1.0440769
-0.38352793 0.17421758 1.0435001
-0.3762809 0.1754249 1.0458752
-0.21233626 0.17509709 1.0459002
-0.20855717 0.17236504 1.0420001
-0.38182703 0.18005587 1.0420001
-0.37487763 0.18447739 1.0445001
-0.2118305 0.18100467 1.0440001
-0.38092223 0.19905674 1.0420001
-0.37418497 0.19534685 1.0460347
-0.38092223 0.20177115 1.0420001
-0.37784353 0.2011542 1.0435001
0.42194489 0.2495373 1.0450001
0.44735232 0.2495373 1.0450001
0.45623773 0.24891496 1.0445715
0.46231112 0.24795954 1.0460001
0.56703299 0.24444322 1.0465001
0.57312262 0.24432644 1.0460001
0.05881222 0.25967857 1.0420001
0.064606741 0.2595858 1.0437144
0.074624576 0.25918812 1.046286
0.082620531 0.2587578 1.0456002
0.097684465 0.259435 1.0465001
0.10481826 0.25953099 1.0447273
0.11111137 0.25946206 1.0460001
0.13396375 0.25949302 1.0454288
0.1428721 0.25935382 1.0480001
0.15507011 0.25941879 1.0468
0.16482018 0.25825006 1.0455456
0.17575714 0.25853577 1.0463334
0.18443513 0.25777718 1.0453001
0.19552733 0.25725543 1.0454001
0.20495342 0.25755447 1.0444001
0.21393739 0.25806057 1.044
0.22494932 0.25784889 1.0460001
0.23558536 0.25582391 1.0434999
0.24603203 0.25671294 1.0446668
0.25437683 0.25830895 1.0450001
0.26622114 0.25637972 1.0443572
0.27321213 0.25449288 1.0430001
0.28558248 0.25561845 1.0457501
0.29528272 0.25508484 1.0454288
0.30397111 0.25492245 1.0460002
0.31425941 0.25522578 1.0460001
0.32409227 0.25455642 1.0445001
0.33483917 0.25383559 1.0454617
0.34493664 0.2516672 1.0453751
0.35542274 0.25267005 1.0463638
0.36477554 0.25225696 1.0450001
0.3737371 0.25200266 1.0462
0.38491794 0.25425377 1.0450002
0.3959201 0.25300929 1.0454288
0.40344653 0.25272122 1.0456668
0.41650978 0.25081092 1.0427501
0.42521054 0.25062409 1.0450001
0.43495283 0.25104877 1.0450001
0.44566685 0.25071669 1.04425
0.45233917 0.25044209 1.0450001
-0.48127097 0.26878369 1.0457501
-0.47547936 0.2689845 1.0430001
-0.46505854 0.26802903 1.0440001
-0.45318666 0.26845396 1.0480001
-0.44459519 0.26908177 1.0462002
-0.43334639 0.26898026 1.0450001
-0.42425227 0.26867396 1.0450001
-0.41435832 0.26717848 1.0454003
-0.40494925 0.26834351 1.0450001
-0.39773077 0.26878369 1.0457501
-0.36127532 0.26845396 1.0480001
-0.35645434 0.26929101 1.0456002
-0.34662998 0.26950029 1.0450001
-0.33392823 0.26859093 1.0450002
-0.32555005 0.26771516 1.0443333
-0.3159073 0.26850072 1.044143
-0.30305934 0.26915151 1.0460001
-0.29464039 0.26799113 1.0462003
-0.28499287 0.26865649 1.0452502
-0.27937409 0.26845396 1.0480001
-0.25402606 0.26852828 1.043875
-0.24497075 0.26753527 1.0454288
-0.23422773 0.26729992 1.0435001
-0.22456872 0.26890028 1.0462002
-0.21346653 0.26859093 1.045
-0.20536302 0.26837131 1.0465002
-0.19627938 0.26837131 1.0465002
-0.18542539 0.26627865 1.0445715
-0.17149846 0.26587069 1.0450001
-0.16919823 0.26691699 1.0420001
-0.093461111 0.2665486 1.045
-0.084887721 0.26504481 1.0450001
-0.075864725 0.26489812 1.0426
-0.065287165 0.26522613 1.04425
-0.055255521 0.26360101 1.0432001
-0.045221064 0.26368755 1.0445715
-0.034605198 0.26379585 1.0450001
-0.023491213 0.263448 1.0450001
-0.015278246 0.26472944 1.0463638
-0.0045353053 0.26546505 1.0450002
0.0057001743 0.26440895 1.0443572
0.01429103 0.26223972 1.0450001
0.022681735 0.26224101 1.0450001
0.046279561 0.2628454 1.0450001
0.053594731 0.26138583 1.0461252
0.069870442 0.26042619 1.0450001
0.072592668 0.26042619 1.0450001
0.088926017 0.26042619 1.0450001
0.094911791 0.26078811 1.0450001
0.11631759 0.2608 1.0465001
0.12446705 0.26223797 1.0450001
0.1457298 0.26042619 1.0450001
0.15516683 0.26042619 1.0450001
0.17875944 0.26042619 1.0450001
-0.57075983 0.27312991 1.0450001
-0.56640691 0.27234581 1.0420001
-0.47546893 0.2713151 1.0450001
-0.46096343 0.2713151 1.0450001
-0.45482823 0.27129063 1.0455003
-0.44610441 0.27092391 1.0435002
-0.43249601 0.27053621 1.0420001
-0.42706719 0.27053621 1.0420001
-0.41892394 0.27053621 1.0420001
-0.39249364 0.27105442 1.0468
-0.38766569 0.27209398 1.0480001
-0.37075272 0.27261195 1.0465001
-0.3646698 0.27149242 1.0456924
-0.35422504 0.27088007 1.0433333
-0.34489506 0.27027395 1.0480001
-0.33943498 0.27027395 1.0480001
-0.31093225 0.27036139 1.0460001
-0.30522126 0.27072993 1.0453751
-0.29510874 0.27066603 1.0425
-0.28682268 0.27053624 1.0420001
-0.27615228 0.27070841 1.0450001
-0.26495022 0.27040508 1.0450001
-0.22607471 0.27115053 1.0434999
-0.21786946 0.2704488 1.0440001
-0.19383284 0.27027395 1.0480001
0.050528318 -0.43178743 1.0580001
0.048414797 -0.42294437 1.052
0.050528318 -0.42535657 1.0580001
0.048238199 -0.41379008 1.053125
0.050385043 -0.41682172 1.0550001
0.045815494 -0.40498203 1.0551877
0.04550175 -0.39427871 1.0542501
0.050528318 -0.3922835 1.0580001
0.045755874 -0.38477814 1.0538001
0.051398389 -0.38273618 1.0570002
0.045843661 -0.37561381 1.0521766
0.050289527 -0.37580168 1.0530001
0.046703417 -0.36540145 1.0521766
0.050277587 -0.36382496 1.0527501
0.047252178 -0.35567853 1.052
0.050867584 -0.35633191 1.054143
0.048414797 -0.34986541 1.052
0.050241768 -0.34986541 1.052
0.0082448255 -0.17130914 1.0550001
0.014863371 -0.17266449 1.0535002
0.021740984 -0.172649 1.052
-0.0027404602 -0.16168717 1.052
0.0046725892 -0.1647106 1.0544002
0.015241508 -0.16912754 1.0574001
0.02107011 -0.16947696 1.0550001
-0.021399556 -0.15528511 1.0532001
-0.014657469 -0.15573168 1.0550003
-0.0052592242 -0.15737177 1.0529376
0.0009134867 -0.15986018 1.052
-0.20119457 0.14974757 1.0580001
-0.19479164 0.14922902 1.0565002
-0.1875318 0.14819455 1.0535001
-0.39055872 0.15512139 1.0550001
-0.38562709 0.15753348 1.0568336
-0.37819681 0.1577096 1.0580001
-0.21221894 0.15893453 1.0580001
-0.20555986 0.15491496 1.0540001
-0.19457267 0.15072531 1.052
-0.3829934 0.1632304 1.0545264
-0.37453979 0.16530646 1.0563334
-0.36692747 0.16922393 1.0580001
-0.21371336 0.16554974 1.0550002
-0.37290356 0.17424101 1.0533501
-0.36572227 0.17586929 1.0574235
-0.2163533 0.17234702 1.0557501
-0.37198102 0.18487772 1.053286
-0.36600545 0.1849408 1.0564169
-0.3592104 0.18649542 1.0580001
-0.37101191 0.19421926 1.0550001
-0.36744234 0.19330306 1.0561055
0.35351935 0.24938187 1.052
0.44644797 0.24889408 1.0557501
0.45463344 0.24834391 1.0547694
0.4625209 0.24803458 1.0556
0.56889296 0.24459648 1.0550001
0.57496613 0.24413528 1.054143
0.58153498 0.24345462 1.0580001
0.050528318 0.25999117 1.0580001
0.072371244 0.25925395 1.0550001
0.086505696 0.2594997 1.0560001
0.095184967 0.25900823 1.0540001
0.1046417 0.25870284 1.0540001
0.11451147 0.25925395 1.0550002
0.12476691 0.25962257 1.0565002
0.13481866 0.25954884 1.0562001
0.14487621 0.25949973 1.0560001
0.15527584 0.25835222 1.0547274
0.16443357 0.25757822 1.0545716
0.1751561 0.25712109 1.053091
0.18439221 0.25645891 1.0538751
0.19822662 0.25486279 1.052
0.20502611 0.25628555 1.0541
0.21539153 0.25768548 1.0547274
0.22519545 0.25705287 1.055231
0.23530166 0.25635773 1.0544001
0.24539252 0.25568292 1.0535001
0.25592738 0.25714451 1.0545001
0.26383886 0.2565186 1.0536155
0.27382171 0.25485092 1.0570002
0.28548706 0.25595728 1.0532858
0.2953358 0.25449431 1.0530001
0.30442369 0.25441656 1.0547001
0.31525502 0.25574243 1.0567144
0.32479158 0.25452271 1.0547274
0.33449718 0.25365359 1.0545716
0.3448686 0.25156701 1.0535001
0.3554199 0.25128677 1.05425
0.36319646 0.25160494 1.0558573
0.37424338 0.25259557 1.0567144
0.38499892 0.25411731 1.0565001
0.3940694 0.25360534 1.0559002
0.40392548 0.25217801 1.0553001
0.41040647 0.2528387 1.0550001
0.42739916 0.25117964 1.0570002
0.43501198 0.25126779 1.0556667
0.44284156 0.25060034 1.0542501
-0.48270118 0.26762167 1.0555
-0.47479916 0.265962 1.0548424
-0.46530932 0.26882786 1.0545715
-0.45458397 0.26908883 1.0545715
-0.44438204 0.26882634 1.0545715
-0.43518692 0.26807192 1.0547694
-0.42570418 0.26771802 1.0555456
-0.41315421 0.26695019 1.0550001
-0.40560085 0.26927829 1.0560001
-0.3950668 0.26937842 1.0540001
-0.37304273 0.26743108 1.0562859
-0.36520812 0.26698011 1.0548574
-0.35664737 0.26797375 1.0558574
-0.34359255 0.26917812 1.0580001
-0.33505577 0.26822403 1.05425
-0.32976869 0.26765159 1.052
-0.31143817 0.26917812 1.0580001
-0.3049303 0.26749656 1.0550002
-0.29537675 0.26554659 1.0538001
-0.28553158 0.26775673 1.0553001
-0.27672926 0.26858217 1.0556668
-0.2603437 0.26947859 1.052
-0.2554453 0.26862761 1.0544001
-0.24846838 0.26765159 1.052
-0.2347409 0.26836306 1.0560002
-0.22475511 0.26799238 1.0557501
-0.2160445 0.26827931 1.0553751
-0.2047988 0.26729944 1.0562861
-0.19489691 0.26598552 1.055316
-0.18701361 0.26677221 1.0557501
-0.17812991 0.26765159 1.052
-0.092612967 0.26622289 1.0560001
-0.085341886 0.26520225 1.0568001
-0.072165452 0.26765159 1.052
-0.064496323 0.26595017 1.0545715
-0.054184437 0.26379019 1.0541
-0.04445928 0.26309153 1.0535002
-0.034737833 0.26267579 1.0544708
-0.02506263 0.26218268 1.0547274
-0.013852407 0.26296011 1.0542002
-0.0048068771 0.26339349 1.0546252
0.0041608531 0.26274824 1.0554618
0.014573714 0.26191753 1.0550002
0.023948511 0.26239336 1.0550002
0.039503958 0.26366594 1.0580001
0.045306936 0.26218534 1.0553335
0.054886051 0.26071492 1.0535001
0.064248569 0.26034373 1.052
0.087694719 0.2603437 1.052
0.092262164 0.26034373 1.052
0.1169263 0.2603437 1.052
0.12490179 0.26077193 1.0525001
0.13519603 0.2603437 1.052
0.14570114 0.2603437 1.052
0.15437925 0.2603437 1.052
-0.5753082 0.27391142 1.0550001
-0.48071325 0.27063128 1.0565001
-0.47504252 0.27145132 1.0561252
-0.46539488 0.27067047 1.0538
-0.45491636 0.27130556 1.052
-0.44613665 0.27116054 1.0550001
-0.39299962 0.27129328 1.0550001
-0.38217783 0.2746903 1.0580001
-0.37472144 0.2722733 1.0557501
-0.3699621 0.27130556 1.052
-0.35177922 0.27024704 1.0550001
-0.34482497 0.27054948 1.054143
-0.3126851 0.27050322 1.0560001
-0.30872291 0.27024704 1.0550001
-0.27316391 0.27081048 1.054143
-0.26648661 0.27106449 1.054625
0.053762425 -0.43380934 1.0675
0.05274057 -0.42670399 1.0655
0.051809356 -0.41406888 1.0627143
0.048828989 -0.40353012 1.0610001
0.05211674 -0.40503162 1.0635715
0.048828989 -0.39892364 1.0610001
0.053215098 -0.39501083 1.0649092
0.051285796 -0.38848221 1.0610001
-0.5623014 -0.21855257 1.0680001
-0.52087843 -0.2142248 1.0680001
-0.51831168 -0.21342245 1.064
0.0082917148 -0.16399169 1.0610001
0.012179677 -0.16643651 1.0625001
-0.20469746 0.14912179 1.0666668
-0.19563006 0.14737299 1.0650001
-0.18886685 0.14648697 1.0610001
-0.39081255 0.1515207 1.064
-0.3844808 0.15259857 1.0623684
-0.37608832 0.15687941 1.0648667
-0.21314941 0.15658918 1.0652859
-0.20653899 0.15190415 1.0628
-0.37069774 0.16252668 1.0655001
-0.36525798 0.16643302 1.0658336
-0.35889608 0.16971055 1.0680001
-0.22136712 0.1676439 1.0666667
-0.21794027 0.16373217 1.064
-0.36160195 0.17357376 1.0623333
-0.35783139 0.17573243 1.0658749
-0.22109042 0.17298937 1.0653334
-0.2183485 0.17781124 1.0610001
-0.36022896 0.18472099 1.0610001
-0.35649338 0.1848598 1.064696
-0.36377597 0.19524041 1.0644119
-0.35679629 0.19268002 1.0672728
0.35838637 0.24967276 1.0610001
0.36207157 0.24967276 1.0610001
0.40629405 0.24967276 1.0610001
0.42752218 0.24946523 1.0680001
0.43444023 0.249569 1.0645
0.44488832 0.24814391 1.0632223
0.45503682 0.24722001 1.0636667
0.46583498 0.24747738 1.0630909
0.47293183 0.2475799 1.0628182
0.57648438 0.24437228 1.0636001
0.58349794 0.24332801 1.0655001
0.018034415 0.2593981 1.0650001
0.02217376 0.25961778 1.064
0.045623899 0.25818539 1.0650834
0.050814867 0.25961778 1.064
0.088011786 0.25822625 1.0637144
0.094263665 0.25811616 1.0633637
0.1058177 0.25947139 1.0634001
0.11556187 0.25836107 1.0646923
0.12471188 0.25751981 1.0638822
0.13400583 0.25908086 1.0643334
0.14579211 0.2585063 1.064
0.1538651 0.25753564 1.0638889
0.16550641 0.25796378 1.0648001
0.17476371 0.2570546 1.064875
0.18412974 0.25667658 1.0656002
0.19457614 0.25912976 1.062
0.2151612 0.25675544 1.0644001
0.225044 0.25526342 1.0633637
0.23365983 0.25554442 1.0650001
0.24561034 0.25635511 1.0658001
0.25646955 0.25646979 1.0650001
0.26432675 0.25535786 1.0638573
0.27809593 0.25592217 1.064
0.28505886 0.25580135 1.0649091
0.2930803 0.25563735 1.0647501
0.31557679 0.25407237 1.0640001
0.32459429 0.25369489 1.0650001
0.33532995 0.25396422 1.0648334
0.34498534 0.25317478 1.0680001
0.35322586 0.25164604 1.0635
0.36792135 0.25124899 1.0630001
0.37549195 0.25155988 1.0651
0.38544884 0.25212443 1.0641429
0.39473197 0.25176066 1.0638461
0.40419996 0.25092262 1.063375
0.4157069 0.25311887 1.0638751
0.42480934 0.25195915 1.064077
0.43885568 0.25037873 1.064
0.44070348 0.25037873 1.064
0.47262776 0.25151536 1.0610001
-0.485526 0.2680988 1.0610001
-0.47078517 0.2680988 1.0610001
-0.46570835 0.26922277 1.063625
-0.45578003 0.26879308 1.0650909
-0.44872618 0.26769143 1.0655001
-0.42656273 0.26625618 1.0610001
-0.41484496 0.26783413 1.0648334
-0.40652552 0.26910779 1.0650001
-0.39503342 0.26974431 1.0654286
-0.38459775 0.26907271 1.0680001
-0.37658101 0.26727113 1.0638335
-0.36563259 0.26658356 1.066
-0.35299772 0.26872745 1.0634999
-0.34556794 0.2681402 1.0641
-0.33577523 0.26918176 1.0652859
-0.32489213 0.26955849 1.0680001
-0.31554878 0.26678672 1.0641905
-0.30737039 0.26564905 1.0630001
-0.28469408 0.26807016 1.0633335
-0.27659661 0.26857552 1.0653334
-0.26453534 0.26989713 1.0652
-0.2545363 0.26885685 1.064
-0.24448448 0.26868594 1.0651667
-0.23529308 0.26763642 1.0643001
-0.22421049 0.26769254 1.0655
-0.213888 0.26804966 1.0650001
-0.20239721 0.2658585 1.0643334
-0.19382243 0.26615807 1.0680001
-0.18477155 0.26798022 1.0647143
-0.17484373 0.26735264 1.0653846
-0.095890924 0.26649362 1.0646363
-0.084549516 0.26519084 1.0641251
-0.074516684 0.26652092 1.064375
-0.066617094 0.26656726 1.063889
-0.055448294 0.26401013 1.0643334
-0.046195336 0.26331341 1.064
-0.036087938 0.26185879 1.0656
-0.013398383 0.26250976 1.0645001
-0.0052458914 0.26240921 1.0653334
0.0058734072 0.26244855 1.0680001
0.014305033 0.26078689 1.063125
0.025182534 0.26198682 1.06425
0.03558746 0.26337892 1.0656364
0.044146691 0.2610777 1.0624287
0.055460453 0.2606611 1.0645
0.065613754 0.26100588 1.0642859
0.085681058 0.26072839 1.0610001
0.13817963 0.2605938 1.0680001
-0.58239466 0.27543187 1.0680001
-0.57659853 0.27604404 1.0650001
-0.44994256 0.27070466 1.064
-0.40189943 0.27070469 1.064
-0.39155167 0.27218291 1.064
-0.38570225 0.27303863 1.0635
-0.37865499 0.27270532 1.0610001
-0.32521516 0.27070466 1.0640001
-0.31784907 0.27178401 1.0610001
-0.27162856 0.27070466 1.064
-0.26885685 0.27070466 1.064
-0.57474291 -0.44088584 1.0780001
-0.5850237 -0.43677902 1.0762501
-0.57745659 -0.43734401 1.0746155
-0.56281722 -0.43774521 1.0748888
-0.55761516 -0.43731627 1.0751429
0.057804685 -0.43539897 1.0737001
0.064353004 -0.43463543 1.0758823
0.073612958 -0.43373138 1.0776668
0.056860257 -0.42455634 1.0734706
0.065160714 -0.42532298 1.0745554
0.075239465 -0.42520133 1.0772496
0.056597535 -0.4149166 1.072875
0.063973285 -0.41558909 1.0761817
0.072076887 -0.41654822 1.0780001
0.057209104 -0.40442854 1.0730002
0.061967745 -0.40511897 1.0742859
0.056729089 -0.39772362 1.0710001
-0.56070197 -0.23307978 1.0780001
-0.5578602 -0.23387054 1.0773335
-0.5426048 -0.2318317 1.0780001
-0.53529453 -0.23201001 1.0780001
-0.56202096 -0.22102645 1.0710001
-0.55551171 -0.22584724 1.0772223
-0.54465514 -0.22572498 1.0779997
-0.5346483 -0.22543524 1.0779998
-0.52665895 -0.22272597 1.075
-0.56078094 -0.21854648 1.0710001
-0.55401427 -0.21561521 1.0767998
-0.54580629 -0.21517245 1.0779998
-0.5339011 -0.21554092 1.0779999
-0.52638853 -0.21545649 1.075
-0.55350035 -0.20426802 1.0761335
-0.54499602 -0.20466994 1.0759308
-0.53459454 -0.20467602 1.0769999
-0.52730185 -0.20564824 1.0773335
-0.55490708 -0.19433697 1.0759999
-0.54508108 -0.19436175 1.0747666
-0.53487986 -0.19528122 1.0763527
-0.52712852 -0.19413957 1.0780002
-0.55452394 -0.18751313 1.0774287
-0.54522163 -0.18858987 1.0757778
-0.53409809 -0.18534003 1.0773598
-0.52621543 -0.18420741 1.0779999
-0.54414082 -0.17489985 1.0780001
-0.53422475 -0.1782532 1.0780001
-0.52669168 -0.17816405 1.0780001
-0.54385281 -0.16849141 1.0780001
-0.38236189 0.14828181 1.074
-0.37476799 0.14801537 1.074
-0.36880895 0.14883408 1.0780001
-0.21248639 0.14883408 1.0780001
-0.20363554 0.14618501 1.0757501
-0.19724929 0.14421412 1.0715001
-0.38249427 0.15072322 1.0728
-0.37392154 0.15374641 1.073107
-0.36546275 0.15577774 1.0756428
-0.35851225 0.15819471 1.0780001
-0.22164123 0.15711015 1.077
-0.21608473 0.15394963 1.0745295
-0.2095397 0.15086728 1.0725
-0.37106404 0.16088741 1.0710001
-0.36378971 0.16186671 1.0727694
-0.35518146 0.16442062 1.0732856
-0.34886187 0.16728692 1.0762858
-0.22403245 0.16447571 1.075
-0.35354933 0.17444967 1.0709999
-0.34735382 0.17569885 1.074381
-0.22530606 0.17506352 1.075
-0.35217822 0.18463778 1.0710001
-0.3462221 0.18459438 1.0736817
-0.22704737 0.1829484 1.0780001
-0.36269414 0.19901679 1.0710001
-0.35443982 0.19486824 1.0713531
-0.34721005 0.1917558 1.072
0.34915164 0.24992892 1.0780001
0.35102376 0.24992892 1.0780001
0.37588805 0.24888301 1.0755
0.38458312 0.24829905 1.075
0.39371622 0.24922903 1.077
0.40531546 0.24992892 1.0780001
0.41467607 0.24992892 1.0780001
0.4256289 0.24926019 1.076125
0.43571728 0.24818316 1.0745001
0.44481513 0.24820907 1.0756249
0.45565057 0.24771801 1.0738335
0.46483764 0.24663956 1.073875
0.47496057 0.24679118 1.0725
0.57745439 0.24306197 1.0745625
0.58401531 0.24200034 1.0744001
0.59049273 0.24199063 1.076
0.014626497 0.25934833 1.0756668
0.025437282 0.25900137 1.0748751
0.034876827 0.25780392 1.0747499
0.0456383 0.25796664 1.0725
0.053557716 0.25942177 1.0727501
0.08723928 0.25844467 1.0745001
0.095920011 0.25796533 1.0725
0.10512883 0.2593483 1.0756668
0.11477145 0.25716338 1.0746001
0.1250689 0.25583076 1.0756364
0.13519318 0.25877243 1.0758572
0.14436856 0.2586486 1.074375
0.1557845 0.25716183 1.0743334
0.16445018 0.25717777 1.0726668
0.17443848 0.25760052 1.0761667
0.18519928 0.25704044 1.0764287
0.19500223 0.25749677 1.0749563
0.2055427 0.25712916 1.0745716
0.21535537 0.25596213 1.0761819
0.22268213 0.25582466 1.07525
0.23488244 0.25536296 1.072
0.24621384 0.25649011 1.0760834
0.25531155 0.25458518 1.0752778
0.26456371 0.25504145 1.0751002
0.27426717 0.25622982 1.0743334
0.2846151 0.25493738 1.0754445
0.29450172 0.25389445 1.074077
0.3048102 0.25540859 1.0735002
0.31568837 0.25317985 1.0759093
0.32436109 0.25221109 1.0744445
0.33495411 0.25301179 1.0740716
0.34513411 0.25185639 1.07425
0.35428241 0.25202996 1.0732858
0.36600077 0.25180104 1.0780001
0.37402639 0.25028276 1.0715001
0.38501382 0.25016597 1.0710001
0.39530009 0.25070956 1.072
0.40522024 0.25058642 1.0728
0.41577142 0.25140786 1.0727777
0.42358571 0.25112623 1.072125
0.43151307 0.25016597 1.0710001
0.44360286 0.25016597 1.0710001
-0.58286875 0.26951852 1.074
-0.57814074 0.26814568 1.0710001
-0.47336239 0.26876566 1.0710001
-0.46592247 0.26876566 1.0710001
-0.45280424 0.26757798 1.0752001
-0.44657403 0.26893961 1.0766667
-0.43526947 0.26865017 1.0780001
-0.42412525 0.26892501 1.0735
-0.41399705 0.26740414 1.073
-0.4058727 0.26788065 1.0737693
-0.39520136 0.26793712 1.0740001
-0.38567832 0.2667945 1.0713001
-0.37676638 0.26765335 1.074
-0.36661762 0.26773641 1.0743334
-0.35595024 0.26870793 1.0745001
-0.3447077 0.26884696 1.0758001
-0.33375812 0.26912284 1.0736667
-0.32554099 0.26717925 1.0736002
-0.31505296 0.26386729 1.0718751
-0.29200143 0.26893961 1.0766667
-0.28454331 0.26889315 1.0730001
-0.27589697 0.26917121 1.0756
-0.2655367 0.26833552 1.0742501
-0.25491482 0.26848811 1.0746365
-0.24554804 0.26604494 1.0731667
-0.23500955 0.26671916 1.0740001
-0.22517274 0.2672157 1.0760001
-0.2151718 0.26780045 1.0746001
-0.20742226 0.26815176 1.076
-0.19223878 0.26618236 1.0764445
-0.18469927 0.26653612 1.0756251
-0.17872474 0.26529238 1.072
-0.10165231 0.26392299 1.074
-0.095203064 0.26480317 1.0731668
-0.084588028 0.2645312 1.0731112
-0.075430222 0.26414353 1.0749092
-0.065493584 0.26463819 1.0740001
-0.055815309 0.26505297 1.0773335
-0.045227472 0.2631911 1.073875
-0.033617742 0.26282781 1.07525
-0.025523212 0.26393864 1.0753334
-0.01414638 0.26211619 1.0742501
-0.0049801087 0.262164 1.0750834
0.0046669445 0.2620151 1.0746001
0.012498617 0.26061305 1.0742
0.028116807 0.26124454 1.0722001
0.034123547 0.26166248 1.07175
0.055955403 0.2601926 1.074
0.064685941 0.26120764 1.0740001
0.076086849 0.26187241 1.0751667
0.082401365 0.26182827 1.0743334
0.10445008 0.2601926 1.074
0.13709074 0.2601926 1.074
-0.58426911 0.27309129 1.0740001
-0.57841033 0.27354282 1.0715001
-0.47083986 0.2705223 1.0780001
-0.46803167 0.2705223 1.0780001
-0.45024648 0.2705223 1.0780001
-0.44490564 0.27055678 1.0756668
-0.43901372 0.2705223 1.0780001
-0.39524364 0.27062565 1.0710001
-0.29485995 0.2705223 1.0780001
-0.2743091 0.27057397 1.0745001
-0.25471562 0.27057397 1.0745001
-0.57352638 -0.44098639 1.0810002
-0.56664282 -0.44148704 1.0810001
0.061013445 -0.4421128 1.0810001
-0.59242862 -0.43518364 1.0871429
-0.58377451 -0.43495765 1.0847001
-0.57535547 -0.4364571 1.0842856
-0.56606477 -0.43779153 1.0842501
0.074154802 -0.42146209 1.0810001
0.067396387 -0.41245085 1.0810002
0.072746798 -0.41629943 1.0810002
-0.55141717 -0.27177215 1.0880001
-0.5488978 -0.27208704 1.0880001
-0.56023479 -0.26169485 1.0880001
-0.55449361 -0.26461822 1.0867647
-0.54716164 -0.26417997 1.0858824
-0.56238174 -0.25527433 1.0878127
-0.55420357 -0.25514093 1.0849998
-0.54590249 -0.25484705 1.0863845
-0.5398472 -0.25343612 1.085
-0.56305259 -0.24519598 1.0867501
-0.55531031 -0.24561785 1.084478
-0.54569751 -0.24499914 1.0850604
-0.53786308 -0.24276951 1.0857501
-0.5622623 -0.2343542 1.0810001
-0.55422497 -0.23537938 1.0811906
-0.54547232 -0.23661588 1.082
-0.5378601 -0.23646827 1.0837144
-0.56348258 -0.22621909 1.0810001
-0.55515522 -0.2258168 1.0810003
-0.54536635 -0.22434174 1.0810001
-0.53034765 -0.22809641 1.0810001
-0.56038499 -0.21777105 1.0810001
-0.54449987 -0.21611036 1.0810003
-0.5370037 -0.2154671 1.0810003
-0.56142175 -0.20689085 1.0830001
-0.55663031 -0.20556837 1.0810001
-0.54348898 -0.20932305 1.0810001
-0.52488625 -0.20437372 1.0810003
-0.52588898 -0.19594702 1.0810002
-0.56038499 -0.18491767 1.0810002
-0.55444014 -0.18377045 1.0810001
-0.54518753 -0.18420252 1.0810001
-0.5397343 -0.183979 1.0810001
-0.52283835 -0.18491767 1.0810002
-0.5528757 -0.17821291 1.0810002
-0.54468364 -0.17604299 1.0810003
-0.53489512 -0.17373221 1.0814999
-0.52417606 -0.17430525 1.0827334
-0.51683044 -0.17317361 1.0847144
-0.54237205 -0.16624217 1.0829002
-0.53510857 -0.16550216 1.0839998
-0.52475238 -0.16503163 1.0849563
-0.51519388 -0.16455135 1.0838798
-0.50757378 -0.16437168 1.0851667
-0.52360201 -0.15498431 1.0877272
-0.5152055 -0.15549877 1.0869198
-0.50677961 -0.15801424 1.0875002
-0.48421139 -0.15951544 1.0870001
-0.51535153 -0.14980052 1.085
-0.50732899 -0.14832523 1.0880001
-0.36468649 0.14861584 1.0840002
-0.35740083 0.14899473 1.0860002
-0.22214746 0.14853744 1.0868
-0.21508828 0.14704813 1.0832502
-0.20657583 0.14450639 1.0830002
-0.36277083 0.15214165 1.0829002
-0.35475731 0.15500422 1.0847811
-0.34643421 0.15820748 1.0871003
-0.2250741 0.15529151 1.0838574
-0.21870972 0.15112561 1.0810001
-0.35200062 0.16098163 1.0810001
-0.34468538 0.164947 1.08429
-0.33840829 0.16759807 1.0880002
-0.23158555 0.16665784 1.0868
-0.22780117 0.16363308 1.0821431
-0.34288499 0.17469785 1.0834614
-0.33538872 0.1750008 1.0870399
-0.32971659 0.17572288 1.0880001
-0.23271471 0.17487502 1.0860001
-0.22959828 0.17703287 1.0810002
-0.34230602 0.18573673 1.0833334
-0.33549732 0.18316521 1.0876472
-0.32971659 0.18233611 1.0880001
-0.23385166 0.18323822 1.0833001
-0.22997375 0.183979 1.0810001
-0.34624141 0.19151917 1.0865
0.58731753 0.23650157 1.0880001
0.34795159 0.24920733 1.0830001
0.35236099 0.24966756 1.085
0.38524413 0.24819723 1.0847501
0.39543986 0.24863563 1.0838002
0.40606308 0.24966756 1.085
0.41511413 0.24906798 1.0865
0.42433611 0.24891174 1.0850002
0.43542537 0.2475549 1.084
0.445467 0.24674647 1.0846002
0.45414299 0.24806529 1.0853335
0.46453997 0.24697557 1.0856003
0.4742516 0.24649876 1.0846366
0.48290384 0.24735236 1.08725
0.57744896 0.24434063 1.0836668
0.58587253 0.2406601 1.0847501
0.59395891 0.24229778 1.0857501
-0.071703061 0.25944716 1.0865
-0.068966508 0.25980535 1.0880001
-0.010363558 0.25908896 1.085
-0.0069718482 0.25833526 1.085
0.0034571248 0.25932777 1.0860001
0.015570085 0.25944716 1.0865
0.025425127 0.25805685 1.0846251
0.045463331 0.25937554 1.0862001
0.054942399 0.25802165 1.0866156
0.064328618 0.25906083 1.0871429
0.075325698 0.25885615 1.0862859
0.083072692 0.25817147 1.0841252
0.096080869 0.25902927 1.0847501
0.10514513 0.25861737 1.0852858
0.11502841 0.25645745 1.0858335
0.124454 0.25441226 1.0845716
0.13553008 0.25750592 1.0839002
0.1446107 0.25811884 1.0853335
0.15468144 0.25744274 1.0871429
0.16618735 0.25757548 1.0865716
0.17439656 0.2568391 1.0856365
0.18563955 0.25516206 1.0843335
0.19454102 0.25378138 1.0813639
0.20509592 0.2549364 1.0846156
0.21440318 0.25437602 1.0845557
0.22574912 0.25592005 1.0857779
0.23570986 0.25623399 1.0853335
0.24549033 0.25465757 1.0848669
0.2537218 0.25184348 1.0835557
0.26551256 0.25352696 1.0823752
0.27577108 0.255301 1.0855001
0.28442651 0.25365248 1.0848669
0.29466695 0.252363 1.0848185
0.30524483 0.25403789 1.0831113
0.31362543 0.25334549 1.0846251
0.32537532 0.252085 1.086143
0.33461511 0.25219873 1.0847501
0.34376156 0.250779 1.0816668
0.35765314 0.25122565 1.0846251
0.36561447 0.25236043 1.0848891
0.37171572 0.2518996 1.0865
0.38073292 0.25035787 1.0880001
0.40681463 0.25049114 1.0845002
0.41583011 0.25062448 1.0810001
-0.48196682 0.26654312 1.0862001
-0.4750174 0.26657033 1.0842221
-0.46510467 0.26803541 1.0850002
-0.45463094 0.26654679 1.0846925
-0.44507229 0.26797009 1.0833335
-0.43556413 0.26784119 1.0843334
-0.42519245 0.26809561 1.0833335
-0.41551003 0.26646736 1.0836002
-0.40512544 0.26731974 1.0840001
-0.39712209 0.2672576 1.08375
-0.38262242 0.26925281 1.0880001
-0.37549078 0.26888159 1.0865
-0.36637068 0.26842791 1.0846667
-0.35531852 0.26920891 1.0845716
-0.34478509 0.26884913 1.0863751
-0.33535758 0.26815268 1.084154
-0.3272627 0.26613462 1.0830001
-0.31271115 0.26862299 1.0880001
-0.30231893 0.26925281 1.0880001
-0.29349339 0.26898482 1.0854
-0.28427896 0.26894075 1.0845716
-0.27520236 0.26823503 1.0839002
-0.26394632 0.26770964 1.0846251
-0.2562288 0.26697433 1.083143
-0.24410084 0.26672441 1.0854
-0.23434988 0.26702091 1.0853333
-0.22342661 0.26612297 1.0846668
-0.21476811 0.26627928 1.084143
-0.20451944 0.26766515 1.0854001
-0.19368833 0.26334319 1.0813639
-0.18655093 0.26267391 1.0835456
-0.101959 0.26327902 1.0852002
-0.095180541 0.2638703 1.0853002
-0.084740072 0.2633208 1.0843335
-0.074646153 0.26230437 1.0839232
-0.065145992 0.26293063 1.0846668
-0.055544328 0.26360241 1.0842003
-0.046401996 0.26349008 1.0842857
-0.034408577 0.26392213 1.0855
-0.02497527 0.26257467 1.0838464
-0.016539926 0.26140213 1.0821003
-0.0040698787 0.26064473 1.0823334
0.0041569602 0.26054755 1.0810002
0.015972124 0.26025167 1.082
0.021589372 0.26001114 1.0810001
0.056374807 0.26025167 1.082
0.064910524 0.26058841 1.0834001
0.075093463 0.26001117 1.0810002
0.083541483 0.26001114 1.0810001
-0.59166503 0.27039465 1.085
-0.58811271 0.27068818 1.0836668
-0.49343652 0.27098858 1.0855
-0.48331869 0.27039465 1.085
-0.47107086 0.27039465 1.085
-0.46636015 0.27039465 1.085
-0.43244305 0.27039465 1.085
-0.36460885 0.27039465 1.085
-0.34293959 0.27039465 1.085
-0.30506325 0.2710911 1.0867144
-0.29858136 0.27152294 1.0870001
-0.2892375 0.27039465 1.085
-0.5928148 -0.43549046 1.0958334
-0.5839234 -0.43432814 1.0934445
-0.57477009 -0.43538314 1.0944999
-0.56807065 -0.43887743 1.0940001
-0.55966341 -0.30033046 1.098
-0.57555389 -0.29079616 1.098
-0.56445539 -0.29400432 1.0974284
-0.55606246 -0.29342404 1.0963334
-0.57396483 -0.28555235 1.0979999
-0.56464517 -0.28470215 1.0965598
-0.55478787 -0.28425366 1.0957499
-0.54822224 -0.2822153 1.098
-0.57326573 -0.27541417 1.0979999
-0.56455415 -0.27535796 1.0955454
-0.55353731 -0.27558425 1.0925001
-0.5473218 -0.27509028 1.0962002
-0.57323724 -0.2667914 1.0960002
-0.56575531 -0.26550692 1.0925
-0.55925333 -0.2693637 1.0910001
-0.5468809 -0.26672968 1.093143
-0.5726034 -0.25537163 1.0960001
-0.56708473 -0.25559554 1.0910001
-0.54315454 -0.25351414 1.0948334
-0.57144582 -0.24816534 1.095
-0.54283249 -0.24915349 1.0910001
-0.53904313 -0.2472588 1.0910001
-0.5340085 -0.16029811 1.0923334
-0.50299722 -0.16266248 1.0942001
-0.4964678 -0.16197206 1.0936668
-0.48468372 -0.16029811 1.0923334
-0.53341281 -0.15878779 1.095
-0.52483284 -0.15631303 1.0910001
-0.51278251 -0.15295208 1.0921429
-0.50476402 -0.15424475 1.0940797
-0.49570733 -0.15487778 1.0953749
-0.48682454 -0.15529643 1.0954781
-0.51008505 -0.14968851 1.098
-0.50412613 -0.14849672 1.098
-0.49490243 -0.14798206 1.0975999
-0.48910961 -0.14968851 1.098
-0.35284439 0.14679089 1.0939232
-0.34652373 0.1460049 1.0975498
-0.22495021 0.14720161 1.0957143
-0.21678811 0.14547622 1.095
-0.20936473 0.14210275 1.0910001
-0.35146749 0.15347096 1.0910001
-0.34487736 0.15446541 1.093923
-0.33515844 0.15676837 1.0976839
-0.32644859 0.15680899 1.0975385
-0.2325317 0.15723884 1.0948001
-0.22841358 0.15243137 1.09375
-0.34088466 0.16167021 1.092
-0.33474588 0.16464557 1.0943666
-0.32478392 0.16477039 1.0954442
-0.31892234 0.16732696 1.098
-0.23553604 0.16523054 1.094077
-0.33124715 0.17311077 1.0918001
-0.32475057 0.17471896 1.0935555
-0.31771848 0.17458691 1.0977691
-0.24121779 0.1716174 1.098
-0.23768127 0.17479256 1.0940001
-0.33401349 0.18674743 1.0928
-0.3254407 0.18370485 1.0943683
-0.3179124 0.18203408 1.0975716
-0.24121779 0.18115172 1.098
-0.23865709 0.18160757 1.095
-0.34517494 0.19358216 1.0939001
-0.33944455 0.19111583 1.095
0.59589374 0.23931094 1.098
0.33630985 0.24915349 1.0910001
0.35430953 0.24915349 1.0910001
0.36516368 0.24884523 1.098
0.38551161 0.24888928 1.0970001
0.3958784 0.24905074 1.0933335
0.40563151 0.24902138 1.0940001
0.41449282 0.24781145 1.0934445
0.42532346 0.24743792 1.0930002
0.43517527 0.24866998 1.0958333
0.4429844 0.24763197 1.09475
0.45434961 0.24682027 1.0946667
0.46125519 0.24771208 1.0930001
0.47348338 0.24641362 1.0956668
0.48402816 0.24686752 1.0960001
0.59630352 0.24200928 1.0958333
0.60174334 0.24183908 1.0965
-0.082721785 0.25957522 1.095
0.015998101 0.25804716 1.0945834
0.024975872 0.25736189 1.0923334
0.047843434 0.25886059 1.0946667
0.055176158 0.25578234 1.0918
0.065560035 0.25767288 1.0942
0.074860469 0.25793639 1.0943334
0.083833896 0.2571997 1.0940001
0.096033335 0.25957522 1.095
0.10521828 0.25730416 1.0955999
0.11460589 0.25486711 1.0940911
0.12403448 0.25473604 1.0960001
0.13538828 0.25615606 1.0934002
0.14525038 0.25632221 1.0933
0.15478118 0.25627664 1.0935557
0.16477378 0.2556994 1.0926666
0.17396468 0.25487268 1.0936002
0.18267809 0.25643641 1.0946001
0.19646478 0.25340658 1.0930001
0.20483851 0.2536684 1.0955001
0.21545102 0.25400847 1.0944288
0.22518463 0.25404337 1.0933002
0.23496106 0.25446114 1.093091
0.2434158 0.2529079 1.093091
0.25312561 0.2512323 1.0918001
0.26693437 0.25363845 1.0940001
0.27662921 0.25242549 1.092875
0.28368148 0.25118983 1.0941001
0.29412794 0.25224477 1.0962
0.30662566 0.25275013 1.09325
0.31483856 0.25231162 1.0946668
0.32616502 0.25152135 1.0951251
0.33416179 0.25068027 1.0925001
0.34489456 0.25178453 1.0942
0.35560855 0.250067 1.095
0.364988 0.25060534 1.0936668
0.37505379 0.25092945 1.095
0.3831825 0.250067 1.095
0.40600228 0.250067 1.095
0.43262538 0.250067 1.095
-0.50228882 0.26838169 1.0968001
-0.4951843 0.26873165 1.0951333
-0.48775899 0.26781064 1.093143
-0.47277364 0.26421016 1.0955
-0.46547353 0.26580256 1.0932502
-0.45771176 0.26569331 1.09475
-0.44986615 0.26669383 1.0930001
-0.43645015 0.26796052 1.0962501
-0.42419195 0.26762 1.0968001
-0.41480738 0.2646558 1.0954616
-0.40558705 0.26627374 1.0944
-0.39492983 0.26827624 1.0946251
-0.38466185 0.2691204 1.0951669
-0.37501732 0.26830763 1.09475
-0.36580166 0.2684803 1.0942144
-0.35673532 0.26901156 1.0947144
-0.34329188 0.26721498 1.0951431
-0.33489543 0.26649159 1.094125
-0.32537687 0.26773083 1.09725
-0.31416807 0.26722249 1.0944002
-0.30552956 0.26772645 1.0937499
-0.2946873 0.26808491 1.0941668
-0.28430659 0.26736882 1.0938334
-0.27557263 0.26701313 1.0951
-0.26691341 0.26712552 1.0947778
-0.25862703 0.26620582 1.0910001
-0.24512631 0.2669785 1.0941668
-0.2348095 0.26713306 1.0948
-0.22513095 0.26561934 1.0952859
-0.21421209 0.26467335 1.094923
-0.20526293 0.26613092 1.09525
-0.19899467 0.26659441 1.0965
-0.10173828 0.26337853 1.095
-0.094459906 0.26209164 1.0944
-0.085538574 0.2617957 1.0934546
-0.07701683 0.26147687 1.095
-0.063932925 0.26175025 1.0935
-0.056043107 0.26247624 1.093889
-0.044356205 0.2639311 1.0946667
-0.03469795 0.26474291 1.09475
-0.024748802 0.26278591 1.0965
-0.015225574 0.26165599 1.0957501
-0.0019029526 0.26183507 1.0965
0.0066314619 0.26052171 1.0910001
0.014210276 0.26052171 1.0910001
0.03909063 0.26028639 1.098
0.043309644 0.26034522 1.0962501
0.093436144 0.26028639 1.098
-0.60282654 -0.43719369 1.1090001
-0.59516275 -0.43610319 1.1072857
-0.58415461 -0.4337258 1.1066364
-0.5712713 -0.43921864 1.102
-0.57201111 -0.31104308 1.1090001
-0.56655431 -0.31361103 1.1090002
-0.58260393 -0.30333924 1.1090001
-0.57496464 -0.30509523 1.1075
-0.56534463 -0.30526361 1.1044499
-0.55930495 -0.30315936 1.1048335
-0.58050257 -0.29744759 1.105
-0.57541031 -0.29536709 1.1028572
-0.56935751 -0.29951075 1.102
-0.55555975 -0.29620746 1.1054001
-0.58285403 -0.28471524 1.1040001
-0.57701272 -0.28611413 1.1020001
-0.55282736 -0.28744575 1.1046668
-0.54830563 -0.28228649 1.102
-0.57796967 -0.27750197 1.102
-0.54897749 -0.27473003 1.10625
-0.55178851 -0.26674592 1.1090001
-0.54899323 -0.26276499 1.106143
-0.54521912 -0.25488406 1.1035
-0.48267242 -0.16261271 1.1029001
-0.47558111 -0.16225182 1.1048824
-0.46700647 -0.16160864 1.105
-0.48350787 -0.15388301 1.104913
-0.47511595 -0.15484354 1.1076152
-0.46790963 -0.15615968 1.1074001
-0.50620186 -0.14832002 1.102
-0.49263915 -0.144449 1.1043637
-0.48522031 -0.14550778 1.1073869
-0.47609815 -0.14772141 1.1090001
-0.48630574 -0.13963234 1.1090001
-0.45613235 -0.1319285 1.1090001
-0.34256756 0.1453703 1.1024288
-0.33559617 0.14624986 1.1052172
-0.32785723 0.14788845 1.1083336
-0.23238719 0.14819567 1.1068001
-0.22431289 0.14396498 1.1068001
-0.2166933 0.14320894 1.1055456
-0.34275204 0.15192951 1.1032001
-0.3349871 0.15175703 1.1031431
-0.32405958 0.15430577 1.1056362
-0.31576282 0.15673818 1.10825
-0.30911714 0.15889198 1.1090001
-0.24170841 0.157929 1.1090001
-0.23612031 0.15423267 1.1050669
-0.32085353 0.16186169 1.103
-0.31472176 0.16475496 1.1050292
-0.30789149 0.16502006 1.1090002
-0.24276635 0.16493544 1.1065001
-0.23848516 0.16186169 1.103
-0.31321767 0.1750581 1.1049544
-0.3065199 0.17491068 1.108238
-0.24403998 0.17516616 1.1053751
-0.32332569 0.18823528 1.1060002
-0.31420678 0.18521608 1.1051579
-0.30623713 0.18429939 1.1073701
-0.24526511 0.18178473 1.1076669
-0.34346512 0.19710387 1.1062728
-0.33993253 0.19548528 1.1090001
-0.31345055 0.19211484 1.1090001
-0.3071304 0.19212587 1.1074001
0.59750241 0.23657063 1.1045001
0.60478991 0.23887835 1.1066002
0.31864882 0.24975178 1.102
0.3310304 0.24851267 1.105
0.35701028 0.2496669 1.10375
0.36477917 0.24958202 1.1055001
0.3749944 0.24935713 1.1045002
0.38456771 0.24749701 1.1039001
0.39387438 0.24838071 1.1044288
0.40492305 0.24908979 1.104375
0.41410002 0.24776764 1.1034001
0.42543927 0.24783798 1.1020001
0.43654639 0.24731164 1.1025001
0.44502348 0.24794565 1.1053334
0.45579273 0.2468168 1.1060002
0.46456891 0.24783389 1.1044286
0.4744823 0.24805571 1.1072501
0.48396757 0.24713391 1.1074287
0.49271703 0.24559057 1.1073999
0.59870255 0.24082069 1.102
0.60446352 0.24120982 1.1032001
-0.023111561 0.25904208 1.1090001
-0.014444726 0.25904208 1.1090001
0.0072223628 0.2585606 1.1090001
0.014553774 0.25608474 1.1052502
0.022766182 0.25691292 1.1040001
0.036272313 0.25904208 1.1090001
0.044909813 0.25828674 1.1057779
0.051038031 0.25711611 1.1090001
0.067181796 0.25722378 1.1053334
0.074222818 0.25658295 1.1053334
0.086744644 0.2577644 1.1047144
0.096005075 0.2580201 1.1046364
0.10448023 0.25592205 1.1038573
0.1139084 0.25472993 1.1070001
0.12451393 0.25521147 1.1067145
0.13383177 0.25547385 1.1042858
0.14404386 0.25560534 1.1048573
0.15363771 0.25560534 1.1048572
0.16401827 0.25571081 1.1046001
0.17562111 0.25469849 1.1052001
0.18465486 0.25602233 1.1056668
0.19416824 0.25601485 1.10425
0.20680372 0.2541163 1.1043334
0.2158522 0.25352687 1.1031668
0.22412692 0.25365442 1.1040001
0.23490487 0.25375697 1.1041667
0.24396059 0.25259355 1.1046668
0.25411224 0.25219846 1.1043334
0.2656416 0.25413164 1.1044
0.27545086 0.25351104 1.1052859
0.28605378 0.25150192 1.1055
0.29613489 0.25286454 1.1072501
0.3047998 0.25298867 1.105
0.31430915 0.25138298 1.1054446
0.32530141 0.25141126 1.1051
0.33511087 0.25061297 1.1058
0.3456887 0.25173715 1.1040001
0.35269943 0.2519263 1.1052501
0.40011498 0.25043169 1.105
-0.50591493 0.26710019 1.1045001
-0.49567595 0.26697603 1.102
-0.48534277 0.26674592 1.1090001
-0.47485331 0.26434237 1.1070001
-0.46555388 0.26686707 1.1055
-0.45311806 0.2693052 1.1063335
-0.44500002 0.26898855 1.1076667
-0.43471879 0.26873145 1.1058573
-0.42563358 0.2665599 1.10525
-0.41146845 0.26506224 1.102
-0.40308663 0.26776341 1.10525
-0.39460263 0.26764497 1.103889
-0.38627243 0.26748186 1.1033001
-0.37545523 0.26732039 1.1034287
-0.36417031 0.26737982 1.1036668
-0.35507572 0.268774 1.1065454
-0.34598067 0.26680151 1.10525
-0.33535618 0.26798317 1.1084287
-0.32474121 0.26751146 1.1058
-0.31575859 0.26622131 1.1041667
-0.30279291 0.26598221 1.1058334
-0.29548776 0.26572001 1.10575
-0.28592464 0.26671574 1.1062224
-0.2747297 0.26610106 1.1036668
-0.26462555 0.26689523 1.1060001
-0.25539714 0.26749611 1.1047693
-0.24521576 0.26629964 1.1038334
-0.2348668 0.26623812 1.1040001
-0.22510737 0.26489043 1.1058573
-0.21403174 0.26362342 1.1053334
-0.20539501 0.26545244 1.1066251
-0.19933721 0.26674592 1.1090001
-0.10343096 0.26354119 1.1063335
-0.095248975 0.26163504 1.1048573
-0.08862152 0.26074314 1.1053334
-0.070297666 0.262894 1.1090001
-0.063656509 0.2616643 1.1051668
-0.054280389 0.26179257 1.1056155
-0.045256671 0.26275373 1.1053078
-0.035503216 0.26387945 1.105077
-0.024959104 0.26207528 1.1055626
-0.014836826 0.26135316 1.1061112
-0.0028819987 0.26226187 1.1063335
0.0055155447 0.26119477 1.1048751
0.010540265 0.26063067 1.1035
0.035747673 0.26037183 1.1041429
0.042218369 0.26002675 1.105
0.092112802 0.26002675 1.105
-0.60306132 0.27411982 1.1076669
-0.59993762 0.2744498 1.1090001
-0.35261846 0.27117229 1.1035
-0.58143604 -0.44092232 1.1160001
-0.57749033 -0.44142073 1.1140001
-0.60436392 -0.43343195 1.1144999
-0.59527034 -0.43326306 1.1146876
-0.58489311 -0.43552622 1.1143637
-0.57819933 -0.43606788 1.1135001
-0.60953873 -0.4292936 1.1160001
-0.57326823 -0.32325074 1.1160002
-0.5647915 -0.32195455 1.1156669
-0.55817854 -0.32172793 1.1160001
-0.59015757 -0.3130064 1.1160001
-0.58438331 -0.31313238 1.1146002
-0.57553095 -0.31583017 1.1132001
-0.5635407 -0.3159453 1.1138334
-0.55803639 -0.31411073 1.1147501
-0.58373886 -0.30829915 1.113
-0.56129807 -0.30677652 1.1145
-0.55940551 -0.30669761 1.1142001
-0.55742967 -0.29710418 1.1145
-0.55527139 -0.28974894 1.1160001
-0.55139518 -0.27133679 1.1160001
-0.55162048 -0.26806754 1.1145
-0.54991293 -0.26384223 1.113
-0.46389842 -0.1633309 1.113
-0.47066361 -0.15173344 1.113
-0.46397948 -0.15504074 1.1134093
-0.45768961 -0.15439032 1.1147501
-0.48226106 -0.14124051 1.113
-0.47455624 -0.14442332 1.1141429
-0.46526855 -0.14605086 1.1149999
-0.45836538 -0.14438994 1.1160001
-0.4611814 -0.13780712 1.1150001
-0.45603284 -0.13610278 1.1142501
-0.4486748 -0.13469934 1.1160001
-0.22228464 0.13820307 1.113
-0.2193853 0.13820307 1.113
-0.32419401 0.1465278 1.1136001
-0.31872809 0.14754163 1.1147144
-0.23596905 0.14738929 1.1148751
-0.2263563 0.1421974 1.1140001
-0.21841884 0.14013597 1.113
-0.32279599 0.15173344 1.113
-0.31439939 0.15326713 1.1145
-0.30746934 0.15712145 1.1146667
-0.24346545 0.15494704 1.1146365
-0.30525938 0.16539639 1.1139001
-0.24798885 0.16476104 1.1145
-0.30194488 0.17466125 1.1135455
-0.29849395 0.1767154 1.1155716
-0.25098655 0.17152363 1.1160001
-0.24864674 0.1751201 1.1142
-0.30182201 0.18577965 1.1136668
-0.29865938 0.18339418 1.1155001
-0.25098655 0.1821833 1.1160001
-0.2478562 0.18492723 1.1150001
-0.33540508 0.19525008 1.1131502
-0.32622081 0.19466956 1.1147999
-0.31686494 0.19416021 1.1136667
-0.30406082 0.19120702 1.1140001
-0.34278789 0.20174721 1.1147144
-0.33414599 0.2014561 1.1154002
0.49422061 0.23741971 1.1160001
0.60886669 0.2387144 1.113
0.61221933 0.23785126 1.1150001
0.36533564 0.24904843 1.1160001
0.37793341 0.24904843 1.1160001
0.38479397 0.24693674 1.114125
0.39563531 0.24795607 1.1140001
0.40564853 0.24904843 1.1160001
0.41447699 0.24888106 1.1152501
0.42444831 0.24904843 1.1160001
0.43898419 0.24904843 1.1160001
0.44728568 0.24806179 1.1137501
0.45321333 0.24742746 1.1152501
0.46741566 0.24736404 1.1154002
0.47533005 0.24693798 1.1145
0.4854897 0.24554937 1.1142
0.49377602 0.24398431 1.1150001
-0.053768694 0.25944611 1.1142858
-0.048322752 0.25997642 1.113
-0.024839109 0.25935772 1.1145
-0.015154153 0.25924182 1.1140001
-0.00290718 0.25873902 1.1160001
0.0058030724 0.25730801 1.1140001
0.01065966 0.25680092 1.1160001
0.02709721 0.25887448 1.1145
0.036774784 0.25838998 1.1145
0.045451391 0.25773287 1.11375
0.066743575 0.25634071 1.1140001
0.076349951 0.25611061 1.1130002
0.084171198 0.25716093 1.1142
0.094355702 0.25693896 1.1145
0.10437714 0.25611058 1.113
0.1177955 0.25528046 1.1150001
0.12618621 0.25527871 1.1150001
0.13651678 0.25657082 1.1150001
0.1459347 0.25611058 1.113
0.15587711 0.25527874 1.1150001
0.16508174 0.25541735 1.1146666
0.17286193 0.25517473 1.1152501
0.18556784 0.25548667 1.1145
0.19379377 0.25572896 1.1145
0.20385101 0.25614378 1.1152501
0.21503451 0.25442559 1.1155002
0.22615048 0.25417766 1.113
0.23436534 0.25417766 1.113
0.24532849 0.25306797 1.1145
0.25442645 0.25313354 1.1155001
0.2645534 0.25486279 1.1160001
0.27452055 0.25387421 1.1145
0.28470984 0.25292468 1.1160001
0.29604787 0.25292468 1.1160001
0.30541205 0.2522738 1.1155715
0.31415913 0.25119627 1.1155002
0.32129419 0.25064921 1.1145
0.33922571 0.25031185 1.113
0.34560567 0.25170064 1.1148751
0.35435817 0.25140595 1.115
0.36306494 0.25031185 1.1130002
0.40204531 0.25031185 1.113
