# .PCD v0.7 - Point Cloud Data file format
VERSION 0.7
FIELDS x y z
SIZE 4 4 4
TYPE F F F
COUNT 1 1 1
WIDTH 1408
HEIGHT 1
VIEWPOINT 0 0 0 1 0 0 0
POINTS 1408
DATA ascii
0.17612219 0.27079409 0.81566668
0.18487932 0.27064764 0.81381267
0.19370915 0.27116355 0.81456262
0.20979369 0.27095386 0.81900007
0.21367036 0.27116618 0.81750005
0.22477171 0.27019972 0.8131668
-0.44341004 0.28543216 0.81723094
-0.43269303 0.28297818 0.81385726
-0.42466465 0.28334329 0.81483352
-0.41568804 0.28426757 0.81538898
-0.40492168 0.28272963 0.81340021
-0.39488658 0.28136611 0.8142401
-0.38812399 0.28069448 0.8118
-0.37245083 0.28073749 0.8143847
-0.36562711 0.28152087 0.81578958
-0.35560688 0.28100061 0.81460005
-0.34588772 0.28068814 0.81260008
-0.33565983 0.28054368 0.81528586
-0.3256785 0.28053674 0.81454557
-0.31540841 0.28032038 0.81625009
-0.30888182 0.28060886 0.81400001
-0.24130058 0.2808491 0.81333339
-0.23726428 0.28062278 0.81200004
-0.21558112 0.28060886 0.81400001
-0.17387855 0.28060886 0.81400001
0.029513782 0.26994312 0.82900006
0.033832874 0.26994312 0.82900006
0.077023767 0.26994312 0.82900012
0.086035475 0.26925969 0.82623076
0.093720958 0.26938134 0.82639998
0.11579625 0.26952356 0.82420009
0.1377055 0.26968089 0.82600003
0.14387603 0.26977515 0.8278572
0.15530728 0.26976317 0.82900006
0.16448535 0.2695832 0.82900006
0.17545792 0.26914915 0.828143
0.18492322 0.26878551 0.82545465
0.19524984 0.26805076 0.82466686
0.2053808 0.26813787 0.82444441
0.21497047 0.26861301 0.8257274
0.22425799 0.26861876 0.82392317
0.2364531 0.26803073 0.82350004
0.24425775 0.26810914 0.82411104
0.25496566 0.26824734 0.82526684
0.26459593 0.26632488 0.82616681
0.27471811 0.26683652 0.82533336
0.28524476 0.26571345 0.82481819
0.29387423 0.26508316 0.82509094
0.30565113 0.26564676 0.82516658
0.31438196 0.26517877 0.82548004
0.32318082 0.26487437 0.82566673
0.33670411 0.26600209 0.82522231
0.34459624 0.26453 0.82538098
0.35469007 0.26449242 0.82569999
0.36570117 0.26272967 0.82500005
0.37485605 0.263547 0.82700002
0.38634408 0.26211077 0.82700002
-0.42485249 0.27942359 0.82300001
-0.40156049 0.27892113 0.82433337
-0.39888194 0.27889565 0.82250005
-0.38213742 0.27896339 0.82800007
-0.37391946 0.27875185 0.8278001
-0.36472857 0.27789122 0.82507992
-0.35563773 0.27874643 0.82499999
-0.34326467 0.27854833 0.82530773
-0.33516297 0.27796689 0.82416666
-0.32366055 0.2790314 0.82466668
-0.31632218 0.27857018 0.82471442
-0.30370927 0.27856234 0.82594121
-0.29497197 0.27766517 0.82555163
-0.28464827 0.27698424 0.82490009
-0.27488118 0.27814177 0.8251819
-0.26523423 0.27748084 0.82591671
-0.25569767 0.27762365 0.82484621
-0.24414776 0.27699766 0.82600003
-0.23525323 0.27695668 0.82599998
-0.22542827 0.27692086 0.82528573
-0.21402748 0.27703685 0.82575005
-0.20521237 0.27691564 0.82405263
-0.19474119 0.27671701 0.82481831
-0.18477409 0.27742028 0.82487082
-0.17564341 0.27596554 0.82278949
-0.16478702 0.27735794 0.82483333
-0.15500371 0.27718368 0.82513356
-0.14935942 0.27584866 0.82300007
-0.13314068 0.27762127 0.82700008
-0.12473501 0.27671835 0.82459998
-0.11566953 0.27777612 0.82483339
-0.10437002 0.27620056 0.82620007
-0.094737239 0.27529728 0.82552642
-0.086103059 0.27526319 0.82572734
-0.074369274 0.27664015 0.8275001
-0.064837433 0.27498737 0.82881826
-0.054496359 0.27583879 0.82650006
-0.046279415 0.27575973 0.82416672
-0.03419162 0.27367747 0.82785726
-0.024691558 0.27403867 0.82585722
-0.015273846 0.27545404 0.82531577
-0.0050818813 0.27484417 0.82545459
0.0046592164 0.27320483 0.82560015
0.015445046 0.27136278 0.82536381
0.025144208 0.27158579 0.8274287
0.035804901 0.27179518 0.82547635
0.04448982 0.27238253 0.8257826
0.055267189 0.27273947 0.82657152
0.065548889 0.27257591 0.82499981
0.074808702 0.27157241 0.82499999
0.083796464 0.27047712 0.82227278
0.096002936 0.27014321 0.82260001
0.10480848 0.27050343 0.82250005
0.11457687 0.27036998 0.82300007
0.12528014 0.27089339 0.82515389
0.13452321 0.27036065 0.82333338
0.14516175 0.27041554 0.82350004
0.15532149 0.2710889 0.82476473
0.16523212 0.27194816 0.82711756
0.17398119 0.27132803 0.82489997
0.18369101 0.27018973 0.82100004
0.19177055 0.27018973 0.82100004
0.2088802 0.27018973 0.82100004
0.21474092 0.27081496 0.82160008
0.22189246 0.27040917 0.82166672
-0.45097414 0.28509033 0.82700002
-0.4442229 0.28416103 0.82563168
-0.43544707 0.28206548 0.82473922
-0.4249872 0.28147894 0.82275003
-0.41487947 0.28274697 0.82508701
-0.40730962 0.28198275 0.82380003
-0.39423916 0.28123459 0.82580006
-0.38509792 0.28183755 0.82700002
-0.37519592 0.28044364 0.82468432
-0.36438257 0.28066635 0.82120007
-0.35543984 0.28012058 0.82366675
-0.34458235 0.28009668 0.82500011
-0.33493847 0.28012058 0.82366675
-0.3250978 0.28055191 0.82542872
-0.31586754 0.28012058 0.82366675
-0.30409902 0.28011608 0.82400006
-0.29656711 0.28017035 0.82100004
0.37720662 0.25946581 0.83700001
0.38307434 0.25922665 0.83757144
0.018896671 0.26964095 0.83700001
0.022475073 0.26971996 0.83500004
0.094666921 0.26953989 0.83220005
0.10538528 0.26964095 0.83700001
0.12547567 0.26927152 0.83790922
0.13025174 0.26923457 0.83800006
0.14719033 0.26971996 0.83500004
0.15554911 0.2683937 0.83476001
0.16501729 0.2682263 0.83288246
0.17489444 0.26799124 0.83361548
0.18485872 0.26793164 0.83488238
0.19418256 0.26757085 0.83535308
0.20551339 0.26856419 0.83566678
0.21508773 0.26724905 0.83433342
0.22418647 0.26783752 0.83441663
0.23544794 0.26914492 0.83462501
0.24530555 0.26797536 0.83550006
0.25531268 0.26745525 0.83491659
0.26398793 0.26656321 0.83344448
0.27621153 0.26811889 0.83614296
0.28483731 0.26630941 0.8359412
0.29463181 0.26488316 0.8357501
0.30486473 0.26587668 0.83553338
0.31556353 0.2638869 0.83476478
0.32562554 0.26414704 0.8345834
0.33511561 0.26429087 0.83471423
0.34446469 0.26347518 0.83516014
0.35480589 0.26340175 0.83542109
0.36481875 0.26397124 0.83593357
0.3752926 0.26245201 0.8348
0.38432533 0.2625314 0.83417237
0.39046144 0.2616795 0.83633339
-0.40046406 0.27981609 0.83700001
-0.39458129 0.27901143 0.83460003
-0.3851732 0.27828515 0.83476937
-0.3753325 0.27768049 0.83300012
-0.36411995 0.27825439 0.83450007
-0.35434055 0.27789521 0.83481824
-0.3455945 0.27726105 0.83425009
-0.33449855 0.27803394 0.8362
-0.32531247 0.27865013 0.8360908
-0.31510758 0.27798072 0.83522218
-0.30581746 0.27774143 0.83340007
-0.29492149 0.27634236 0.8338334
-0.28471956 0.27699023 0.8343333
-0.27503023 0.27655241 0.83363169
-0.26393422 0.27640203 0.83460015
-0.25515491 0.2784923 0.83688235
-0.24483709 0.27576238 0.83354557
-0.23477352 0.27582797 0.83354545
-0.22475745 0.2766127 0.83534795
-0.21528472 0.27636698 0.83511764
-0.20554477 0.27659401 0.83350009
-0.19454999 0.2761921 0.83533329
-0.18623964 0.27566397 0.8350001
-0.17558572 0.27588603 0.83100003
-0.16453257 0.27707267 0.83555567
-0.15563475 0.27646664 0.83707988
-0.14098059 0.27807683 0.83833337
-0.1346651 0.27654907 0.83670592
-0.12533645 0.27717683 0.83689469
-0.11402818 0.27699226 0.83414292
-0.10530163 0.27378109 0.83403999
-0.096367635 0.27517506 0.83450007
-0.084103495 0.27577603 0.83577776
-0.074972205 0.27608284 0.83592868
-0.0654779 0.27483377 0.83600008
-0.054328833 0.27234527 0.83194745
-0.045368645 0.27381989 0.83395654
-0.036267217 0.27414456 0.83420002
-0.025961684 0.2738634 0.83476478
-0.014502162 0.27385896 0.83499998
-0.0056039868 0.27366015 0.83536375
0.0047585913 0.27288267 0.83485717
0.015403368 0.27162054 0.83547062
0.025200075 0.27092472 0.83380002
0.036938205 0.27069911 0.83400005
0.045378231 0.27076215 0.83399999
0.055014536 0.27118504 0.8336364
0.064719006 0.27151537 0.83433336
0.074241251 0.27091143 0.83544445
0.080674246 0.27109453 0.83700001
0.098845854 0.27036601 0.83700001
0.10541141 0.27148926 0.83569568
0.11466639 0.27084273 0.83552635
0.12508395 0.27080396 0.833875
0.13435702 0.27077767 0.83499998
0.14508356 0.27057123 0.83588886
0.15008707 0.27044678 0.83500004
0.16379979 0.27059439 0.83100003
-0.4543685 0.28359914 0.83633322
-0.44625726 0.28242996 0.83400011
-0.43393728 0.28254578 0.83820009
-0.42399946 0.28174743 0.83526671
-0.41484526 0.28195751 0.83433336
-0.40548801 0.28182632 0.83649999
-0.39367431 0.28197479 0.83142871
-0.38863128 0.28784817 0.83500004
-0.14206368 0.28048471 0.83900005
0.37917861 0.2598618 0.84300005
0.3843517 0.25939941 0.84150004
0.3905794 0.2598961 0.84550005
0.058699332 0.26928321 0.84500003
0.062162071 0.26907656 0.84619999
0.096726552 0.26911101 0.84600008
0.10510316 0.26928729 0.84410012
0.11577923 0.26916841 0.84566671
0.1250077 0.26852942 0.84386683
0.1344942 0.2684277 0.84462512
0.14549714 0.26909304 0.84507143
0.15367568 0.26825631 0.84408343
0.16595522 0.26901793 0.84474999
0.17368934 0.2688863 0.84330004
0.18519004 0.26828915 0.84444451
0.19489068 0.26758796 0.84500015
0.2051844 0.26871943 0.84521443
0.21301669 0.26828909 0.84385717
0.22664855 0.26707748 0.84360009
0.23596069 0.26872841 0.84480017
0.24523397 0.26692525 0.84405011
0.25451192 0.2659837 0.84426075
0.26450711 0.26642972 0.84468752
0.27628988 0.26705244 0.84360868
0.28451112 0.2649737 0.84374994
0.29477686 0.26600206 0.84657156
0.3045083 0.265582 0.84357148
0.31389111 0.2646054 0.84412515
0.32459661 0.26355749 0.84418195
0.33500308 0.26269147 0.84354562
0.3455776 0.26215839 0.84362507
0.35547662 0.26239246 0.84408343
0.36517611 0.26252243 0.84386367
0.3731491 0.26142392 0.84388226
0.38923302 0.2607058 0.84100002
-0.45933878 0.27969277 0.84100002
-0.41456318 0.27907538 0.84800005
-0.4038384 0.27969277 0.84100002
-0.39227483 0.27783072 0.84485728
-0.38470531 0.27768517 0.8441819
-0.37383243 0.27914014 0.84628588
-0.36445263 0.27806675 0.84450001
-0.35583851 0.27688193 0.84336364
-0.34534925 0.27635455 0.84384626
-0.33454373 0.27614242 0.84376174
-0.32573813 0.27624726 0.84274989
-0.31425539 0.27735963 0.84427774
-0.30504885 0.27729553 0.84364712
-0.29523736 0.27750278 0.84508348
-0.28605029 0.2771422 0.8438462
-0.27576339 0.27723336 0.84488899
-0.26402971 0.27648631 0.84370005
-0.25554594 0.27689409 0.84495014
-0.24551122 0.27631575 0.8447144
-0.23420659 0.27602148 0.84466672
-0.22510873 0.27614442 0.84505546
-0.21562263 0.27629283 0.84464294
-0.20498015 0.2777029 0.84642118
-0.19462448 0.27492049 0.84429407
-0.18507606 0.27597678 0.84513348
-0.17486529 0.27778968 0.84495234
-0.16509067 0.2757408 0.84421039
-0.15451346 0.27437249 0.84404552
-0.14533149 0.27667123 0.84430766
-0.13566114 0.27379516 0.84450012
-0.12458621 0.27524048 0.84419984
-0.11543064 0.27464607 0.84427273
-0.10406951 0.27391925 0.84314293
-0.094109133 0.27534565 0.84487998
-0.085037991 0.27441102 0.84463161
-0.075953171 0.27369633 0.84306252
-0.064854637 0.27513909 0.84464288
-0.056412723 0.27424377 0.84622234
-0.043423519 0.2739566 0.84433335
-0.035208967 0.27378505 0.84475011
-0.024757318 0.27399868 0.84423089
-0.01641464 0.2726939 0.84438461
-0.004794002 0.27258468 0.84369242
0.0051279427 0.27221233 0.84299994
0.01246688 0.27242005 0.84450006
0.026603237 0.27188876 0.84512502
0.032985087 0.27229083 0.84422231
0.044774659 0.27143171 0.84530002
0.055569213 0.2707673 0.84391665
0.065182924 0.27084175 0.8434118
0.074875809 0.27232558 0.84533334
0.084735349 0.27137563 0.84489995
0.094236612 0.27082989 0.84405267
0.1030693 0.27037486 0.84383339
0.11486419 0.27029201 0.84255552
0.13745371 0.2705197 0.84200007
0.14333445 0.27048856 0.84266675
0.21008544 0.27010986 0.84300005
0.23200531 0.27016163 0.84499997
-0.46316206 0.2805481 0.84800005
-0.45610702 0.28152764 0.84358329
-0.44430199 0.28288642 0.8440001
-0.43658623 0.28275177 0.84360009
-0.4258599 0.28171051 0.84266675
-0.41462269 0.28144416 0.84407151
-0.40652153 0.28201258 0.84455556
-0.37627316 0.2805481 0.84800005
-0.17683175 0.28102306 0.84500003
-0.14632651 0.28107587 0.8434
-0.391803 -0.27508163 0.85799992
-0.38512653 -0.27433571 0.85787868
-0.37747964 -0.27229691 0.85769224
-0.35835943 -0.27044588 0.85800004
-0.41151151 -0.26287368 0.85760003
-0.40082616 -0.26076052 0.85800004
-0.3941209 -0.26331955 0.85799992
-0.38494933 -0.26512352 0.85738885
-0.37565893 -0.26436636 0.85675579
-0.36580974 -0.26150554 0.85799992
-0.35608515 -0.26425037 0.85799992
-0.40363798 -0.25439164 0.85799986
-0.39440697 -0.25450453 0.85700023
-0.38524169 -0.25455758 0.85670298
-0.37533092 -0.25491986 0.85620421
-0.36591029 -0.25387654 0.85739398
-0.35701838 -0.25584331 0.85799992
-0.40410167 -0.24582005 0.85606259
-0.39491013 -0.24441092 0.85615993
-0.38502932 -0.24486504 0.85745877
-0.37479964 -0.24465939 0.85640937
-0.36511177 -0.24480335 0.85658354
-0.35683754 -0.24459618 0.8578124
-0.34867406 -0.24064469 0.85800004
-0.40159839 -0.23613645 0.85557151
-0.39511555 -0.23522228 0.85663652
-0.38498187 -0.23488308 0.85800022
-0.37445489 -0.23458204 0.85702229
-0.36466578 -0.23499645 0.85642135
-0.35577878 -0.23535764 0.85773677
-0.34697112 -0.23585525 0.85799992
-0.39362559 -0.22526518 0.85721219
-0.38521945 -0.22486272 0.85635042
-0.37538496 -0.22486499 0.85659099
-0.36493069 -0.22531752 0.8563832
-0.35582522 -0.22510371 0.85687196
-0.39453217 -0.21536437 0.85789746
-0.38500994 -0.21525973 0.85741699
-0.37500143 -0.21516523 0.85740936
-0.36536321 -0.2151641 0.85740441
-0.35690907 -0.21577962 0.85787868
-0.39317265 -0.20583145 0.85799992
-0.38665134 -0.2051857 0.85775751
-0.37214252 -0.20724252 0.85799992
-0.36470613 -0.2052497 0.85789472
-0.35791239 -0.20562828 0.85799992
-0.39200875 -0.19552673 0.85757136
-0.38714117 -0.19649185 0.85799992
-0.36282963 -0.19892302 0.85800004
-0.033943735 0.2698155 0.85600013
0.049858831 0.26938564 0.85700005
0.056661706 0.2689487 0.85420007
0.065254293 0.26932687 0.85288888
0.074829899 0.26875141 0.85623527
0.083854437 0.26922274 0.85459995
0.095230639 0.26909772 0.85420001
0.10540368 0.26829064 0.85333347
0.11449341 0.26865864 0.85357898
0.12494819 0.26861846 0.85346687
0.13536561 0.26797402 0.85272729
0.14535619 0.26840422 0.8530001
0.15472402 0.26787379 0.85399997
0.16606414 0.26851049 0.8542223
0.17457227 0.2679041 0.85308337
0.1842863 0.26860124 0.853625
0.19469611 0.26787579 0.85416675
0.20481496 0.26761124 0.85347366
0.21468981 0.26830581 0.85482359
0.22515243 0.26864338 0.85446161
0.23546998 0.26733223 0.85416013
0.24370937 0.26661015 0.854375
0.25410241 0.26673841 0.85566664
0.26604757 0.26660681 0.85525
0.27423954 0.26641688 0.85399997
0.28528875 0.2652615 0.85450006
0.29604021 0.26613137 0.85446161
0.30522534 0.26571628 0.85466671
0.31542444 0.26532286 0.85385722
0.32530403 0.26441851 0.8538751
0.33520123 0.263313 0.85505885
0.34493098 0.26269868 0.85488898
0.35511687 0.26221454 0.85425001
0.36549452 0.26163754 0.85246164
0.37424126 0.26071954 0.85413337
0.38140154 0.26127285 0.85400003
0.39349952 0.26208454 0.85600007
-0.42317706 0.27938625 0.85800004
-0.41435283 0.27931905 0.85714293
-0.40355039 0.27882504 0.85666668
-0.39630893 0.2785556 0.85500002
-0.3848919 0.27872169 0.8544445
-0.37416449 0.27795073 0.85360014
-0.36494759 0.2759403 0.85219055
-0.35525829 0.27604511 0.85325003
-0.34512812 0.27702475 0.85439998
-0.33424062 0.27583763 0.85266668
-0.32532334 0.27738786 0.85459995
-0.31462479 0.27717185 0.8532728
-0.30543625 0.27789745 0.85509098
-0.29435584 0.27569667 0.85450017
-0.28575084 0.2764875 0.8544001
-0.27480799 0.27777231 0.85426676
-0.26424226 0.27514076 0.85461545
-0.25567791 0.27494687 0.85347843
-0.24460673 0.27686381 0.85481822
-0.23540381 0.27643216 0.85399997
-0.22600487 0.27550134 0.85257143
-0.21480398 0.27560753 0.85400009
-0.20529199 0.27550006 0.85290003
-0.19412895 0.27463254 0.85250008
-0.18426464 0.27541634 0.85223538
-0.17525621 0.27618086 0.85322231
-0.16585949 0.27467284 0.85328591
-0.15183939 0.27516443 0.85300004
-0.14600731 0.27514723 0.85180008
-0.13420093 0.27511752 0.85400003
-0.12465099 0.27473378 0.85490912
-0.11605449 0.27437338 0.85399997
-0.10057905 0.27491611 0.85800004
-0.095262989 0.27435237 0.85553843
-0.086342014 0.27370816 0.8538183
-0.073619656 0.2741861 0.85550016
-0.064939931 0.27384171 0.85365242
-0.055251621 0.27442709 0.85416675
-0.045453548 0.27376965 0.85443473
-0.034837808 0.2722567 0.8536002
-0.025071319 0.2725167 0.85341686
-0.015470011 0.27254531 0.85350007
-0.0057906262 0.27319494 0.85480016
0.0055950671 0.27309197 0.85400003
0.0157276 0.27286994 0.8544001
0.024203829 0.27147755 0.85344452
0.034775287 0.27177909 0.85210538
0.045536038 0.27098808 0.85378957
0.053103507 0.27107051 0.85333347
0.066535175 0.27087602 0.85466671
0.074996904 0.27162963 0.85260004
0.085040621 0.27072278 0.85290921
0.094203755 0.27028036 0.85200012
0.16443194 0.27035123 0.85300004
0.17829663 0.27003431 0.85200006
0.21676728 0.27003431 0.85200012
-0.46258289 0.2815406 0.85100007
-0.45286992 0.28198114 0.85338473
-0.44554174 0.28267825 0.85421062
-0.43452293 0.28346404 0.85570002
-0.42534283 0.2822541 0.85581833
-0.41470268 0.28118291 0.85266668
-0.40573063 0.28090182 0.85329419
-0.39938354 0.28132266 0.85333335
-0.38408643 0.28043982 0.85666674
-0.3788586 0.28080034 0.85549998
-0.35162181 -0.35237595 0.86849999
-0.34813893 -0.35247734 0.86874998
-0.33304495 -0.35307562 0.86900014
-0.32975221 -0.35389885 0.86900008
-0.35166526 -0.34468776 0.868375
-0.34599417 -0.34436041 0.86841679
-0.33780107 -0.34383774 0.86900008
-0.39346841 -0.334454 0.8681429
-0.38472062 -0.33292055 0.86775017
-0.37714198 -0.33366609 0.86887521
-0.36457363 -0.33271563 0.86806679
-0.35220098 -0.3356002 0.86900002
-0.34538722 -0.3362526 0.86862177
-0.33880717 -0.33880717 0.86900002
-0.40189019 -0.32190454 0.86900008
-0.39483961 -0.32522541 0.86805892
-0.38497949 -0.32544333 0.86738098
-0.3751488 -0.32522666 0.86780024
-0.36441052 -0.3252888 0.86825722
-0.35726014 -0.32350978 0.86900014
-0.34886825 -0.32120028 0.86900008
-0.40464249 -0.31404421 0.86844826
-0.39539391 -0.31535992 0.86704373
-0.38511759 -0.31524339 0.86654562
-0.37478566 -0.31458324 0.86573339
-0.36485481 -0.31445885 0.86660975
-0.35500464 -0.31471437 0.8679269
-0.34650877 -0.31438205 0.86823076
-0.40473849 -0.30482167 0.86820006
-0.39559382 -0.30512309 0.86589199
-0.38519761 -0.30476934 0.86372966
-0.37514526 -0.30466628 0.86433339
-0.3647643 -0.30498073 0.86497509
-0.3549245 -0.30516469 0.86575633
-0.34489861 -0.30485478 0.86755806
-0.33527443 -0.30449519 0.86862165
-0.32069722 -0.30409643 0.86900002
-0.31805617 -0.30409643 0.86900002
-0.41176498 -0.29430616 0.86849999
-0.40487039 -0.29479507 0.86635137
-0.39505321 -0.29522857 0.86435282
-0.38571835 -0.29495451 0.8633557
-0.37527838 -0.29513219 0.86264277
-0.3651413 -0.29476994 0.86255807
-0.35469592 -0.29434457 0.86146349
-0.34547299 -0.29492077 0.86484027
-0.33527997 -0.29493016 0.86810625
-0.32552654 -0.29247591 0.86900014
-0.31752801 -0.29368323 0.86900008
-0.41185555 -0.28511837 0.86749989
-0.40480059 -0.28481495 0.86460596
-0.39476064 -0.28471971 0.86097318
-0.38527188 -0.28472039 0.86197811
-0.37466669 -0.28491339 0.86166656
-0.36429489 -0.28453532 0.8613863
-0.35463488 -0.28523159 0.86338454
-0.34475872 -0.28467005 0.86500031
-0.33513212 -0.28477177 0.86686379
-0.32522494 -0.28531259 0.86880928
-0.31734353 -0.28481266 0.86900026
-0.30334187 -0.28221357 0.86900002
-0.41323745 -0.27593794 0.86666662
-0.40494686 -0.27476841 0.8632856
-0.39595476 -0.27483952 0.86056
-0.38558054 -0.27729937 0.86000007
-0.37365431 -0.27524912 0.8612352
-0.36502546 -0.27511802 0.86083347
-0.35484651 -0.27522266 0.86105007
-0.34458169 -0.27455884 0.86379546
-0.33477789 -0.27511451 0.8651579
-0.32544273 -0.27530566 0.86735588
-0.3155148 -0.27510709 0.86838764
-0.30275494 -0.27475157 0.86900026
-0.29919162 -0.27278125 0.86900002
-0.41122293 -0.26578975 0.86090922
-0.40542701 -0.26513857 0.86094302
-0.39523441 -0.26588142 0.86000007
-0.38906544 -0.26136833 0.86000001
-0.37228259 -0.26744524 0.86033338
-0.36558893 -0.26580232 0.86000019
-0.35243613 -0.26563391 0.860111
-0.34471649 -0.26500016 0.86106652
-0.33499157 -0.2650733 0.86446822
-0.32548562 -0.26514411 0.86568201
-0.31564769 -0.26468495 0.86766684
-0.30247119 -0.26543865 0.8690002
-0.29956892 -0.26636732 0.86900008
-0.40807405 -0.25654832 0.86000001
-0.36367542 -0.25806126 0.86000013
-0.35488304 -0.25456494 0.86040926
-0.34484088 -0.25473526 0.86018211
-0.33560908 -0.25488883 0.8632077
-0.3253665 -0.25473446 0.86536765
-0.3175554 -0.25563166 0.86824149
-0.3027885 -0.25439465 0.8690002
-0.29866344 -0.25218117 0.86900008
-0.35203877 -0.24528097 0.86011755
-0.34426785 -0.24482054 0.86166662
-0.33534011 -0.2452873 0.86423242
-0.32524481 -0.24488337 0.86568201
-0.31741941 -0.24452734 0.86799991
-0.30427074 -0.24566831 0.86868751
-0.29816222 -0.24611062 0.86875015
-0.40151155 -0.23124877 0.86000001
-0.39952019 -0.2307509 0.86000001
-0.38607839 -0.2397121 0.86000001
-0.35199866 -0.23305909 0.86000001
-0.34438416 -0.23475491 0.86019373
-0.33551645 -0.23497203 0.86390412
-0.3252615 -0.23496024 0.86508542
-0.31633034 -0.2345878 0.86732435
-0.30183268 -0.2392024 0.86900002
-0.40159923 -0.2265065 0.86171436
-0.39952019 -0.22567289 0.86000007
-0.35098034 -0.22477679 0.85999995
-0.34488845 -0.22472632 0.86057782
-0.33582759 -0.22501433 0.86405694
-0.32548815 -0.22476199 0.86569417
-0.31823283 -0.22562933 0.86787999
-0.39952019 -0.2128285 0.86000001
-0.38159779 -0.21133497 0.86000001
-0.35228762 -0.21450497 0.86073911
-0.34486061 -0.21501487 0.86313218
-0.33525714 -0.21436252 0.86486667
-0.32526112 -0.21446672 0.86543506
-0.31820989 -0.21448055 0.86807692
-0.39503959 -0.20326988 0.86000007
-0.38211322 -0.20463531 0.86009097
-0.37599418 -0.2047112 0.86051637
-0.36725986 -0.20147765 0.86000007
-0.35362425 -0.20497838 0.86023557
-0.3450712 -0.20504552 0.86463654
-0.33505577 -0.20495637 0.86739028
-0.32530054 -0.20508982 0.86734164
-0.31734484 -0.20626423 0.86809093
-0.39131877 -0.19060133 0.86250001
-0.38395354 -0.1933936 0.86186671
-0.37493971 -0.19505075 0.8638072
-0.36482215 -0.19496025 0.86403948
-0.35466102 -0.19478449 0.86337751
-0.34518912 -0.19525322 0.86656171
-0.33613122 -0.19764319 0.86875004
-0.3252247 -0.19996415 0.86900002
-0.39132744 -0.18777709 0.86500007
-0.38505781 -0.18514271 0.86636198
-0.37558714 -0.1853544 0.86866671
-0.36504671 -0.18555415 0.8673684
-0.355616 -0.18673277 0.86855549
-0.34590027 -0.18643202 0.86899996
-0.38419721 -0.17685828 0.86760598
-0.37788692 -0.17639746 0.86814296
0.34431154 0.25973067 0.86200005
0.39895228 0.25973067 0.86200005
0.40272886 0.25887871 0.8658334
-0.023311276 0.26920676 0.86600006
0.039808743 0.2696479 0.86500007
0.046831392 0.26939783 0.86300004
0.05200427 0.26938155 0.86175001
0.068507157 0.26951677 0.86700004
0.074916661 0.26804805 0.86500001
0.085564867 0.26878232 0.86343747
0.095083266 0.26901105 0.86382347
0.10494433 0.26814383 0.86500007
0.11520735 0.26780948 0.86490005
0.12517807 0.2684471 0.86561549
0.13552685 0.269481 0.86754549
0.14505595 0.26907223 0.86557156
0.15602198 0.26805604 0.86593741
0.16499071 0.26708284 0.86500001
0.17482236 0.2662752 0.86327773
0.18497464 0.26771092 0.86361104
0.19454926 0.26799959 0.86505258
0.20506273 0.26668832 0.8645218
0.21515544 0.26596844 0.86282617
0.22448771 0.26703712 0.86300015
0.23442687 0.26593602 0.86400014
0.24515322 0.26597792 0.8648001
0.25530538 0.26704082 0.86630011
0.26570821 0.26614833 0.8646251
0.2750676 0.2644971 0.86339998
0.28543231 0.26559845 0.86395663
0.29532582 0.26526779 0.86542869
0.30468875 0.26464763 0.86457157
0.31479529 0.26448047 0.86542857
0.32491741 0.26442567 0.86490917
0.33500144 0.26246369 0.86452627
0.34433302 0.26170444 0.86329418
0.35528502 0.26147225 0.86343741
0.36451375 0.261619 0.86429989
0.37549925 0.26175451 0.86600006
0.38547379 0.26224482 0.86589473
0.39465091 0.262256 0.8654092
0.4018414 0.26128483 0.8671667
-0.46104941 0.27844065 0.86900002
-0.45923546 0.27930552 0.86700004
-0.43522748 0.27894458 0.86666679
-0.42446947 0.27849337 0.86394119
-0.41557297 0.27859604 0.86675012
-0.40591437 0.27805573 0.8638463
-0.39427778 0.27881163 0.866
-0.38458046 0.27789181 0.86524016
-0.37628245 0.27798006 0.86469245
-0.36901215 0.27619773 0.86200005
-0.35366362 0.27613661 0.86475009
-0.34533641 0.27683419 0.8646667
-0.33422193 0.27722937 0.86366671
-0.32468918 0.277549 0.86582601
-0.31440946 0.27648711 0.86448139
-0.30527297 0.27690777 0.86520839
-0.2959398 0.27470461 0.86471438
-0.28402108 0.27535588 0.8624348
-0.27502251 0.27545583 0.86183345
-0.26829708 0.27477369 0.86066675
-0.25438884 0.27670759 0.86633343
-0.24517567 0.2760348 0.86490911
-0.23535535 0.2764169 0.86562496
-0.22425033 0.27615646 0.86457145
-0.21471331 0.27524886 0.86608332
-0.2059395 0.27597672 0.86472732
-0.19507384 0.27639383 0.86183345
-0.1845278 0.27648306 0.86545461
-0.17531164 0.27606812 0.86512518
-0.1650257 0.27509838 0.86573702
-0.15484171 0.27707416 0.86742878
-0.14519532 0.27649254 0.86566681
-0.13478331 0.27601621 0.86520004
-0.12504664 0.27473146 0.86378574
-0.1143728 0.27545884 0.8656317
-0.10552469 0.27540275 0.86140007
-0.094664961 0.27446383 0.86328572
-0.083635733 0.27442342 0.86460006
-0.076119557 0.27395198 0.86516678
-0.065886095 0.27467901 0.86725003
-0.054379694 0.27378771 0.86410522
-0.044967566 0.2722261 0.86394119
-0.024193041 0.27169585 0.86453849
-0.014453843 0.27324194 0.86450005
-0.0044975686 0.27173427 0.86329168
0.0049505769 0.27226916 0.86380005
0.015162573 0.27190909 0.8636958
0.024831515 0.27074134 0.86395019
0.035365362 0.27097669 0.86309546
0.043619428 0.27040154 0.86310005
0.065471202 0.27123064 0.86670011
0.096364163 0.27027136 0.86700004
0.12400293 0.27089483 0.86900008
0.13234994 0.2704792 0.86766672
-0.47085899 0.28523189 0.86900002
-0.46438774 0.28440791 0.86650002
-0.45529506 0.28181288 0.86599994
-0.44475549 0.28259993 0.8645556
-0.43606228 0.28131971 0.8619374
-0.42864406 0.28003752 0.86000001
-0.41706502 0.28051561 0.86542869
-0.39271614 0.28045669 0.86475003
-0.38802084 0.28036314 0.86100006
-0.41316974 -0.35623249 0.8774547
-0.40519097 -0.3539657 0.87393743
-0.39488912 -0.35358179 0.87305391
-0.38529393 -0.35362324 0.87311405
-0.3752259 -0.35360262 0.87233323
-0.36560854 -0.3540518 0.87274981
-0.35667974 -0.35373011 0.87100023
-0.34346533 -0.35388023 0.87148017
-0.33531776 -0.35282788 0.87270015
-0.32484171 -0.35417512 0.87439477
-0.31502539 -0.35447389 0.8759768
-0.30501565 -0.35426083 0.87436652
-0.29473618 -0.35394406 0.87414992
-0.28488845 -0.3544549 0.87560004
-0.27565485 -0.3555564 0.87775022
-0.26851615 -0.35786903 0.87800008
-0.42358759 -0.34490827 0.87800026
-0.41398534 -0.34409034 0.87585723
-0.40437308 -0.34423906 0.87288886
-0.3951661 -0.34488341 0.8731817
-0.38531297 -0.34480801 0.87305689
-0.3747457 -0.34517911 0.87264442
-0.3651973 -0.34546697 0.87388873
-0.35685319 -0.34529418 0.87194753
-0.34401855 -0.3468903 0.87194753
-0.33484933 -0.34476539 0.87236375
-0.32569611 -0.3450157 0.87404537
-0.31514588 -0.34529358 0.87566668
-0.30453849 -0.34478959 0.87374979
-0.29560876 -0.3452934 0.87516683
-0.28428429 -0.34769776 0.8780002
-0.27725825 -0.34892356 0.87800014
-0.43229803 -0.33179817 0.87680006
-0.42393354 -0.33426985 0.87633342
-0.41442278 -0.33492681 0.87452626
-0.40527034 -0.33523008 0.87355536
-0.39776233 -0.33603495 0.87300014
-0.38552529 -0.33764499 0.87128597
-0.37390128 -0.3363032 0.87138474
-0.36439231 -0.33607835 0.8719002
-0.3559421 -0.33453897 0.8711766
-0.34345523 -0.3323606 0.87122244
-0.33521205 -0.33538675 0.87286365
-0.32551178 -0.3355656 0.87476927
-0.31514841 -0.33525926 0.87533343
-0.30452237 -0.33476031 0.87490195
-0.29488236 -0.33484456 0.87724978
-0.28675261 -0.33414322 0.87800014
-0.43168759 -0.32600918 0.87680006
-0.42449239 -0.32544562 0.87543905
-0.41414344 -0.32487261 0.87419993
-0.40543997 -0.32634759 0.87233341
-0.39782345 -0.32748586 0.87100005
-0.38874763 -0.32294795 0.87100005
-0.37165484 -0.32415807 0.87100011
-0.36757073 -0.32483873 0.87100017
-0.35320067 -0.32623625 0.87100023
-0.34434065 -0.3254979 0.87155002
-0.33475471 -0.32531339 0.87157893
-0.32519022 -0.3251904 0.8729592
-0.31514421 -0.32527176 0.87444443
-0.30461416 -0.32489249 0.87505263
-0.29463822 -0.32510895 0.87716681
-0.28512156 -0.32501212 0.87780023
-0.2792913 -0.3240186 0.87800014
-0.42333078 -0.31502199 0.8759678
-0.414819 -0.3148289 0.87275749
-0.40841192 -0.31841004 0.87100005
-0.353957 -0.31992266 0.87100005
-0.3428283 -0.31581691 0.87100023
-0.33514553 -0.31544155 0.87141645
-0.3253347 -0.31546178 0.87304872
-0.3149299 -0.31493422 0.87385714
-0.3049897 -0.31485051 0.87371427
-0.2949025 -0.31480676 0.87342006
-0.28604028 -0.31533617 0.87622511
-0.42428151 -0.30482602 0.87542868
-0.41505763 -0.30489948 0.87205881
-0.40916824 -0.30479631 0.87100005
-0.33070019 -0.30517447 0.87100017
-0.32530919 -0.30479622 0.87100005
-0.31478971 -0.30452371 0.87191302
-0.30502811 -0.30482098 0.87364846
-0.29498032 -0.30482388 0.87360436
-0.28640953 -0.30437964 0.87633348
-0.27802065 -0.30190909 0.87800014
-0.4222452 -0.29517111 0.87257159
-0.41643131 -0.29526988 0.87109119
-0.33051112 -0.29798943 0.87100005
-0.32517713 -0.2967554 0.87100017
-0.31391162 -0.29527831 0.87187177
-0.30463347 -0.29517674 0.87315762
-0.29517427 -0.29498637 0.87358332
-0.28506154 -0.29493576 0.87576747
-0.27867043 -0.29497036 0.87776941
-0.42195877 -0.28842056 0.87180007
-0.41739571 -0.28624958 0.87133354
-0.32294795 -0.28513202 0.87100005
-0.31339768 -0.28585291 0.8710835
-0.30511972 -0.2852287 0.87129283
-0.29486644 -0.28501379 0.87295222
-0.28537816 -0.28514805 0.87549996
-0.27903718 -0.28780475 0.87800002
-0.26607645 -0.28818595 0.87800002
-0.31084684 -0.27363598 0.87100011
-0.30667198 -0.2750881 0.87100017
-0.2946783 -0.27500004 0.87179965
-0.28510487 -0.27468011 0.87467378
-0.27689525 -0.27362782 0.8780002
-0.31142998 -0.26520011 0.87122238
-0.30602118 -0.26438195 0.87129641
-0.29462549 -0.26410818 0.8715114
-0.28524926 -0.26504782 0.87432683
-0.27600941 -0.26494381 0.8780002
-0.26912603 -0.26226446 0.87800002
-0.31320652 -0.25427425 0.87100017
-0.30618292 -0.25632894 0.87100023
-0.29438764 -0.25501224 0.8721
-0.28475651 -0.25514406 0.87449992
-0.27440816 -0.25532755 0.87595451
-0.26878721 -0.25557232 0.87800014
-0.31360611 -0.24565557 0.8711741
-0.30706045 -0.24379085 0.87118202
-0.29356074 -0.24466662 0.87175679
-0.28485438 -0.24535517 0.87479591
-0.27471778 -0.2451971 0.87589777
-0.26912603 -0.24777892 0.87800002
-0.3114492 -0.23520391 0.87172735
-0.30440277 -0.23514962 0.87159997
-0.29471126 -0.2352961 0.87202108
-0.28432968 -0.23501119 0.87351149
-0.27625006 -0.23520683 0.87627286
-0.31314799 -0.2247787 0.87158829
-0.30471992 -0.22466624 0.87193328
-0.2947858 -0.22506943 0.8727141
-0.28477219 -0.2252529 0.87473983
-0.27742767 -0.22516115 0.8780002
-0.31319985 -0.21514185 0.87180001
-0.30454123 -0.21510939 0.87163162
-0.29449478 -0.21500596 0.87185717
-0.28562066 -0.21545294 0.87552494
-0.27929133 -0.2182996 0.87800002
-0.33051112 -0.20042436 0.87100005
-0.32483873 -0.20042436 0.87100005
-0.3134746 -0.20425725 0.87189472
-0.30454591 -0.20523669 0.87346679
-0.29485968 -0.20510238 0.8749122
-0.28792709 -0.2067465 0.87644458
-0.33384478 -0.19380641 0.87122238
-0.324875 -0.19486718 0.87211633
-0.31499738 -0.19507129 0.87347078
-0.30529708 -0.19550504 0.87593472
-0.29622045 -0.19804722 0.8780002
-0.28894836 -0.19898553 0.87800002
-0.37508354 -0.18388622 0.87100029
-0.36446142 -0.18109624 0.87100017
-0.35524273 -0.18302907 0.87100023
-0.34361824 -0.18288688 0.87163651
-0.33529302 -0.18535583 0.87262458
-0.32523 -0.18490559 0.8732354
-0.31527308 -0.18523085 0.87610197
-0.30610153 -0.1868096 0.87742871
-0.39039832 -0.17132044 0.87300003
-0.38540804 -0.17169097 0.87200016
-0.37421876 -0.17408149 0.87372917
-0.3649835 -0.17501159 0.87408149
-0.35483047 -0.17449519 0.87359971
-0.34509715 -0.1747358 0.873963
-0.3350943 -0.17601699 0.87554759
-0.32739285 -0.177423 0.87627286
-0.31944421 -0.17916322 0.87800002
-0.38468716 -0.1674097 0.87578571
-0.37658006 -0.16854154 0.87714297
-0.3644042 -0.16869944 0.87733346
-0.35938147 -0.16943355 0.87500006
0.36900002 0.25997728 0.87800002
0.37464175 0.25997731 0.87800008
0.3879146 0.25854161 0.87637508
0.39443496 0.25807896 0.87616676
0.40335503 0.25835404 0.87692881
-0.026592709 0.26972604 0.87500012
-0.0007597917 0.26972604 0.87500006
0.0007597917 0.26972604 0.87500006
0.018213291 0.26941779 0.87400007
0.026946893 0.2692202 0.87555557
0.033327501 0.2687431 0.87455559
0.065565802 0.26766679 0.87618196
0.073836878 0.26820245 0.8743751
0.085045874 0.2695719 0.87450004
0.096296668 0.26819733 0.873182
0.10481791 0.26786461 0.8747223
0.11428325 0.26660717 0.87381262
0.12546185 0.26714644 0.87286687
0.13512608 0.26735601 0.87336379
0.14474037 0.26774305 0.87322235
0.15510631 0.26733571 0.87330782
0.16400421 0.26486287 0.87200016
0.17476787 0.26577094 0.87128592
0.18553202 0.26764843 0.8756668
0.19513552 0.26627249 0.87340015
0.20449895 0.26524061 0.87306267
0.21484254 0.26571158 0.87180007
0.22601464 0.26571703 0.873182
0.23524901 0.26561043 0.87413347
0.24543296 0.26501185 0.87477791
0.25478753 0.26516381 0.8744446
0.26534948 0.26496625 0.87460011
0.27471495 0.26417077 0.87573355
0.285276 0.26385716 0.87318766
0.29461315 0.26400077 0.87408352
0.30481628 0.2639792 0.87381834
0.31622204 0.2643528 0.87566686
0.32593167 0.26281667 0.87410533
0.33454797 0.26138228 0.87341183
0.34492293 0.26215184 0.87610006
0.35786188 0.26364771 0.87500006
0.3662633 0.26101819 0.87411118
0.37469399 0.26135179 0.87350017
0.38577145 0.26083642 0.87345463
0.3947967 0.26067382 0.8718335
0.4019298 0.26060855 0.87500012
-0.46092394 0.27944052 0.87450004
-0.45778593 0.27881664 0.87333339
-0.44042996 0.2782062 0.87300003
-0.43389663 0.27795783 0.87573349
-0.4251653 0.27691236 0.87457144
-0.41514412 0.27817172 0.87357152
-0.40412614 0.27761048 0.87404358
-0.39578435 0.27763945 0.87347078
-0.3841503 0.2770873 0.87357157
-0.37415135 0.27791214 0.87500012
-0.36446774 0.27725449 0.87505561
-0.35459179 0.27570975 0.87350005
-0.34381527 0.27608228 0.87445015
-0.3353225 0.27668452 0.87400007
-0.32514626 0.27500549 0.87488902
-0.31553894 0.27428225 0.87361908
-0.30579185 0.27507776 0.87350011
-0.29490569 0.27607909 0.87587512
-0.28857729 0.27540118 0.87533343
-0.27776653 0.27725828 0.87800002
-0.26152146 0.27620327 0.87466669
-0.25573969 0.27655631 0.87553865
-0.24503241 0.27597818 0.87407702
-0.23433988 0.27533773 0.87440926
-0.22602043 0.27545792 0.87276196
-0.21355303 0.27532277 0.87287509
-0.20450468 0.2763859 0.8744446
-0.1952651 0.27732086 0.87500012
-0.18466012 0.27538416 0.87394458
-0.17590135 0.27461809 0.87294132
-0.16366832 0.27414912 0.87429422
-0.15547331 0.27495423 0.87378281
-0.1453377 0.27527645 0.87313056
-0.13505054 0.27431914 0.87377793
-0.12532867 0.27408159 0.87355572
-0.11526377 0.27429837 0.87475014
-0.10620181 0.27596155 0.87711126
-0.094983123 0.27433243 0.8729232
-0.085805915 0.27390763 0.87450016
-0.075062826 0.27377757 0.87442875
-0.064834408 0.27316815 0.87352401
-0.056320373 0.27316743 0.87356263
-0.044161156 0.2723698 0.87312508
-0.035271525 0.27421755 0.87673348
-0.025194773 0.27201334 0.87436378
-0.01527554 0.27245623 0.87273699
-0.006386694 0.27097023 0.87441194
0.0063984385 0.27123588 0.87392873
0.014287847 0.27062783 0.87383354
0.024177391 0.2703557 0.87322235
0.03502737 0.27035287 0.87212515
0.044868212 0.27072683 0.87578595
0.055337198 0.27097002 0.87441194
0.062272336 0.27076072 0.87344456
0.085388429 0.27065083 0.87800002
0.12479253 0.27000564 0.87100005
-0.47432554 0.28383148 0.87516677
-0.46650833 0.28202668 0.87388897
-0.4548378 0.28157112 0.87466681
-0.44638422 0.28142482 0.87411118
-0.40261349 0.28059411 0.87100005
-0.39555451 0.28059411 0.87100005
-0.44164217 -0.36036617 0.88300002
-0.43501419 -0.36072478 0.88200009
-0.42658958 -0.36072478 0.88200009
-0.26116168 -0.36072478 0.88200003
-0.25503474 -0.36072478 0.88200009
-0.24382666 -0.36092892 0.88333333
-0.23533091 -0.36203447 0.88857901
-0.22077724 -0.36049989 0.88900006
-0.21581163 -0.36209962 0.88884622
-0.44071886 -0.35573968 0.88166666
-0.43519798 -0.35495687 0.88175005
-0.42508233 -0.35556629 0.88114274
-0.41710848 -0.35453713 0.88047987
-0.27279565 -0.35277489 0.88000005
-0.26481655 -0.35480651 0.8805778
-0.25522774 -0.35486677 0.8826735
-0.24501964 -0.35521418 0.88433331
-0.23729081 -0.35478327 0.88799977
-0.22000529 -0.35895598 0.88900006
-0.21846138 -0.3574121 0.88900012
-0.44137385 -0.3442716 0.88400006
-0.43509361 -0.34525228 0.88251299
-0.42638642 -0.34554106 0.88000005
-0.4167074 -0.34895426 0.88000005
-0.29178977 -0.34571573 0.88000011
-0.28532737 -0.34370711 0.87999964
-0.27492243 -0.34429103 0.88048774
-0.2652213 -0.34469664 0.88176
-0.25497562 -0.34483257 0.88446146
-0.24479473 -0.34523642 0.88717288
-0.23695607 -0.34619692 0.88857901
-0.44037527 -0.33928043 0.88200003
-0.43509299 -0.33615303 0.88060868
-0.29724789 -0.33698282 0.88000005
-0.28200066 -0.33473253 0.88011116
-0.27475807 -0.33519083 0.88195455
-0.26478693 -0.33473206 0.88319999
-0.2549966 -0.33511764 0.88720405
-0.2456743 -0.33542368 0.88882852
-0.23412091 -0.33800313 0.88900006
-0.43318912 -0.32190418 0.88140011
-0.42867881 -0.32017186 0.88000005
-0.28145579 -0.32577553 0.88000005
-0.27478644 -0.32487333 0.88010234
-0.26467702 -0.32441738 0.88195914
-0.25510791 -0.32524794 0.88759518
-0.24484552 -0.32478103 0.88872087
-0.23853204 -0.32113051 0.88900006
-0.43301618 -0.31564236 0.8819474
-0.42867881 -0.31635121 0.88000005
-0.28186971 -0.31434536 0.88000005
-0.27486667 -0.31502378 0.88061523
-0.26485613 -0.31478429 0.88238007
-0.25459823 -0.31526119 0.8865332
-0.24483228 -0.31513524 0.88881814
-0.23853204 -0.31418297 0.88900012
-0.28210416 -0.30725107 0.88000005
-0.27474219 -0.30547062 0.88005239
-0.26482549 -0.3046599 0.88207996
-0.25489426 -0.30514073 0.88674992
-0.24481793 -0.30613267 0.88900006
-0.2371168 -0.30710679 0.88900006
-0.27461046 -0.29514652 0.8799997
-0.2648291 -0.29501864 0.88163275
-0.25462884 -0.29463547 0.88593322
-0.24737437 -0.29349241 0.88887501
-0.28087363 -0.28327519 0.88000011
-0.27489695 -0.28486884 0.87999976
-0.26490158 -0.28473574 0.88200009
-0.25499678 -0.28509122 0.88659084
-0.24690284 -0.28493199 0.88867986
-0.28043693 -0.27814454 0.88000005
-0.27308765 -0.27600762 0.88027275
-0.26519924 -0.27465034 0.88209528
-0.25505036 -0.27429423 0.88284999
-0.24515647 -0.27469587 0.88727069
-0.2383115 -0.27426225 0.88900006
-0.27192235 -0.26777416 0.88000011
-0.26506346 -0.26487827 0.88019484
-0.2547408 -0.26460236 0.88215214
-0.24496312 -0.26489228 0.8876667
-0.23791449 -0.26601341 0.88900006
-0.26401052 -0.25456533 0.88064998
-0.25487047 -0.25502726 0.88389999
-0.24469981 -0.25495288 0.88741851
-0.23685791 -0.25393531 0.88887501
-0.27126735 -0.24146613 0.88000005
-0.26498994 -0.24482359 0.88156521
-0.25473559 -0.24469155 0.88512975
-0.24460715 -0.24463777 0.88785994
-0.2371597 -0.24470764 0.88900006
-0.27238813 -0.23346819 0.88000011
-0.26524588 -0.23503001 0.88229626
-0.25490496 -0.23468785 0.8864091
-0.24462855 -0.23459806 0.88871431
-0.23718113 -0.23447932 0.889
-0.28043693 -0.2223628 0.88000005
-0.27455035 -0.22485335 0.87999982
-0.26494622 -0.22491951 0.88265395
-0.25479898 -0.22477858 0.88652158
-0.24474335 -0.22508153 0.88834876
-0.23729694 -0.22865109 0.88900006
-0.28158319 -0.21293849 0.88000005
-0.27458212 -0.21452691 0.88017774
-0.26490876 -0.21504526 0.882375
-0.25551963 -0.21503745 0.88746333
-0.24522226 -0.2165744 0.88900006
-0.28399521 -0.2046998 0.88012093
-0.27488816 -0.20466192 0.88289994
-0.26459444 -0.20533144 0.88471437
-0.25679389 -0.2047482 0.88850003
-0.30095941 -0.19245246 0.88000011
-0.29461628 -0.19362275 0.88030285
-0.28492472 -0.19529535 0.88239616
-0.27504298 -0.19495313 0.88686001
-0.26474863 -0.19540538 0.88857436
-0.2570588 -0.19800475 0.889
-0.31314185 -0.18201657 0.88000005
-0.30380785 -0.1842432 0.88014793
-0.29486009 -0.18472238 0.88301998
-0.2846669 -0.18524517 0.88538003
-0.27581811 -0.18628062 0.88837934
-0.26786608 -0.18835539 0.88900006
-0.37671775 -0.17040174 0.88000005
-0.34118554 -0.1707838 0.88000005
-0.33397701 -0.17157809 0.8810001
-0.32420281 -0.1746577 0.88166666
-0.31458485 -0.17555867 0.88257456
-0.30412114 -0.17499843 0.88315088
-0.29660916 -0.17699368 0.88742304
-0.28381968 -0.17857739 0.88900006
-0.27712947 -0.17986397 0.88900012
-0.39285964 -0.16265245 0.88566673
-0.38468605 -0.16260214 0.88191676
-0.37540829 -0.16413417 0.88244188
-0.36495823 -0.16393906 0.88275599
-0.35476631 -0.16492537 0.88258338
-0.3448174 -0.16494733 0.88356519
-0.33503595 -0.16536433 0.88474441
-0.32490006 -0.16687195 0.88630545
-0.31497636 -0.16688961 0.88703203
-0.3059836 -0.1671593 0.8871429
-0.39226004 -0.15903197 0.88819999
-0.38440853 -0.15721735 0.88636374
-0.37532684 -0.15805288 0.88790476
-0.36516502 -0.15804029 0.88783336
-0.35564142 -0.15836714 0.88822222
-0.34532964 -0.15800516 0.88850003
-0.33734405 -0.15941617 0.88833332
0.36844558 0.25944847 0.884
0.3734026 0.25870234 0.88246161
0.38695213 0.25936383 0.88400006
0.39589065 0.25713393 0.88290006
0.40330091 0.25628036 0.88300008
-0.11360579 0.26942995 0.88400006
-0.041685209 0.26940998 0.88900006
-0.035881072 0.26838335 0.88484621
-0.0115141 0.26942995 0.88400006
-0.0061412877 0.26951668 0.88430005
0.015939852 0.26941335 0.88816667
0.024938535 0.26885033 0.88400006
0.034503445 0.26828006 0.88275003
0.046256255 0.26871386 0.88405257
0.05498939 0.2682735 0.88303983
0.06344378 0.26641592 0.88184625
0.076088823 0.26917678 0.88642859
0.084808022 0.26856014 0.88469994
0.094483204 0.26830792 0.884
0.10453171 0.26637006 0.88169241
0.11646212 0.26727375 0.88485724
0.1244991 0.26719186 0.8835001
0.13503158 0.26631638 0.88447058
0.14575188 0.26645979 0.88434994
0.15492602 0.26657441 0.88546431
0.16462994 0.26605552 0.88570589
0.17559397 0.26768675 0.88723081
0.18499263 0.2664305 0.88548011
0.19476636 0.26612076 0.88481253
0.20480394 0.2658011 0.88555557
0.21491142 0.26741236 0.88750005
0.22437423 0.26678571 0.88606244
0.23474249 0.26498556 0.88364708
0.24430369 0.26440215 0.88400012
0.25472531 0.26381958 0.88321429
0.26482987 0.26352414 0.88300002
0.27539441 0.26310897 0.88414294
0.2848933 0.26431289 0.88546163
0.29543725 0.26402301 0.88518757
0.30504584 0.26352155 0.88550007
0.31449637 0.26289082 0.88459265
0.32477671 0.26216754 0.88268423
0.33450943 0.26144016 0.88442868
0.34563428 0.26187471 0.88561547
0.35534117 0.26312104 0.8842631
0.36420661 0.26200646 0.88461906
0.37910566 0.2603941 0.88200009
0.38381365 0.26090321 0.88344449
-0.48446316 0.27958685 0.88700002
-0.46509063 0.27925688 0.88433337
-0.45086688 0.27795637 0.88671434
-0.44427401 0.27852264 0.88564706
-0.43663579 0.27798259 0.88374996
-0.42375901 0.27645257 0.88468748
-0.41579095 0.27775428 0.88462955
-0.40389702 0.27625239 0.88478577
-0.39459139 0.27722627 0.88533342
-0.38524476 0.27738228 0.8851667
-0.37483004 0.27600059 0.88410527
-0.36560664 0.27473962 0.88424122
-0.35520577 0.27664363 0.88416672
-0.34459227 0.27616432 0.88550007
-0.33431104 0.27530289 0.88480008
-0.32592288 0.273893 0.8835454
-0.31407762 0.27515954 0.88672733
-0.30459684 0.27491078 0.88574076
-0.29512995 0.2744922 0.88511527
-0.28526643 0.27423707 0.88350004
-0.27460203 0.27522835 0.88317949
-0.26533747 0.27438393 0.88349998
-0.25499701 0.27409679 0.88325781
-0.2457938 0.27493283 0.88319999
-0.23818558 0.27418062 0.88200003
-0.22416416 0.27575326 0.88410008
-0.21514174 0.27581853 0.88450009
-0.2047713 0.27515918 0.88480961
-0.19500795 0.27406844 0.88346672
-0.18591745 0.27393469 0.88337499
-0.17454243 0.27416915 0.88253856
-0.16542822 0.27315918 0.88200009
-0.15489766 0.27353898 0.88340008
-0.14516334 0.27382457 0.88266677
-0.13500266 0.27384409 0.88453853
-0.12409812 0.27274066 0.88330001
-0.11471976 0.27195993 0.88318509
-0.10534678 0.27411768 0.88513786
-0.09476544 0.27446282 0.88657147
-0.084193736 0.27350441 0.8850556
-0.074810512 0.27365178 0.88587505
-0.064918578 0.2729696 0.88653338
-0.05469675 0.27271554 0.88364285
-0.044302367 0.27243692 0.88476193
-0.035019368 0.27195674 0.88250011
-0.026832245 0.2725803 0.88285732
-0.014444033 0.27237621 0.88459998
-0.0053744628 0.2704725 0.88340008
0.0053809895 0.27183241 0.88558334
0.014984831 0.2705009 0.88499999
0.02285222 0.27085608 0.88700002
0.037662368 0.27055198 0.88516665
0.041910287 0.270349 0.884
-0.48123136 0.28160101 0.88228577
-0.47607273 0.28160709 0.88471431
-0.46395063 0.28097251 0.88544446
-0.45551482 0.28162506 0.88442862
-0.44813713 0.28094542 0.88160008
-0.23133183 -0.3613109 0.89100003
-0.22554955 -0.36302117 0.89099997
-0.21206729 -0.36273801 0.89507139
-0.20530532 -0.36419243 0.89775795
-0.19821584 -0.36602092 0.89800006
-0.23236382 -0.3545785 0.89175022
-0.22507684 -0.354808 0.89182383
-0.21522048 -0.3547993 0.89520001
-0.20793693 -0.35765147 0.898
-0.24061604 -0.34119511 0.89100003
-0.23396987 -0.34437826 0.89140922
-0.22482827 -0.3443425 0.89397746
-0.21557425 -0.34497342 0.89719075
-0.20855673 -0.34447548 0.898
-0.241235 -0.33361298 0.89099991
-0.23489647 -0.33415365 0.89158994
-0.22561127 -0.33553624 0.89584631
-0.21640484 -0.3362422 0.898
-0.20975634 -0.33919707 0.89800006
-0.24061604 -0.32804245 0.89100003
-0.23463327 -0.32536846 0.89307159
-0.2249403 -0.32527453 0.8965115
-0.21530569 -0.32503209 0.89752638
-0.20975636 -0.32360178 0.89800006
-0.23450199 -0.31536412 0.89176327
-0.22507927 -0.31524813 0.89641678
-0.21566167 -0.31585875 0.8978712
-0.24511081 -0.30398446 0.89100003
-0.23381335 -0.30393231 0.89197081
-0.2254266 -0.30517209 0.89621288
-0.21781389 -0.30631706 0.898
-0.24350449 -0.29554772 0.89100027
-0.23503567 -0.29498693 0.89256537
-0.22526734 -0.29473513 0.89684451
-0.21755397 -0.29365891 0.898
-0.24216339 -0.28471604 0.89099991
-0.23471263 -0.28503594 0.89277303
-0.22476217 -0.28465211 0.89566684
-0.21774894 -0.28529593 0.89799994
-0.24061604 -0.2793003 0.89100003
-0.23387788 -0.27493313 0.8920266
-0.22486381 -0.27532664 0.89650017
-0.21533167 -0.27506155 0.89800018
-0.20801336 -0.27388036 0.89799994
-0.23381771 -0.26470685 0.8919093
-0.22502939 -0.26511869 0.89535582
-0.21528518 -0.26469272 0.8971054
-0.20681058 -0.26503289 0.89800024
-0.2337634 -0.25586867 0.89100003
-0.22505783 -0.25461715 0.89250028
-0.21541584 -0.25493076 0.89733338
-0.20666057 -0.25522938 0.89785206
-0.24061604 -0.24525815 0.89100003
-0.23403996 -0.24520585 0.89155287
-0.22502783 -0.24548486 0.89553845
-0.21569453 -0.24598536 0.89800024
-0.20694923 -0.24676913 0.898
-0.23255973 -0.23501742 0.89203471
-0.2252021 -0.23505615 0.89669758
-0.21513675 -0.23470882 0.89800018
-0.20819686 -0.23481277 0.898
-0.2437108 -0.22075813 0.89099997
-0.23470201 -0.22458424 0.89354545
-0.22519918 -0.22526932 0.89684457
-0.21631429 -0.22541884 0.89752012
-0.2542845 -0.21405286 0.89099997
-0.24511749 -0.21454516 0.89100033
-0.23533069 -0.21486627 0.8945871
-0.22545159 -0.21570311 0.8971284
-0.25299501 -0.20494059 0.89099991
-0.24520838 -0.20510608 0.89213473
-0.23497382 -0.20519213 0.89722639
-0.22747824 -0.20550311 0.89800006
-0.26305288 -0.1911002 0.89100003
-0.25470382 -0.19379027 0.8917225
-0.24525623 -0.19511271 0.89457405
-0.23619741 -0.19628771 0.89800012
-0.22847067 -0.19883965 0.89800006
-0.2725091 -0.18267561 0.89099991
-0.26428372 -0.18456972 0.89229274
-0.25562 -0.18563557 0.8955583
-0.24510561 -0.18861608 0.89800006
-0.23899746 -0.18831284 0.89800006
-0.29367006 -0.17340331 0.89163673
-0.2852239 -0.17439277 0.89137524
-0.27492693 -0.17468256 0.89254361
-0.26546121 -0.1751563 0.89653069
-0.25872549 -0.17607059 0.89800006
-0.40134194 -0.16069204 0.89400005
-0.39793199 -0.1606686 0.89100003
-0.33168983 -0.16125807 0.89099997
-0.32467934 -0.16170785 0.89194739
-0.31523597 -0.16183212 0.89223522
-0.30405718 -0.16301778 0.89278591
-0.29519561 -0.16506638 0.89511138
-0.28491586 -0.16601582 0.89521056
-0.27578241 -0.16719182 0.89646447
-0.26745886 -0.1683175 0.89800012
-0.40099904 -0.15544085 0.89571434
-0.39498821 -0.15408321 0.89397252
-0.38540584 -0.15284453 0.89457709
-0.37489578 -0.15321782 0.89483887
-0.36514238 -0.15308338 0.89464533
-0.35491571 -0.15318368 0.8931179
-0.34471354 -0.15311256 0.89376485
-0.33540207 -0.15628506 0.89490652
-0.32504812 -0.15719795 0.89606911
-0.31462991 -0.15667251 0.89671451
-0.30589277 -0.15853268 0.89760005
-0.29528248 -0.1584834 0.89752936
-0.28851247 -0.15985149 0.89800006
-0.39495015 -0.1489348 0.89800006
-0.35401258 -0.1489348 0.89800012
-0.34777445 -0.1489348 0.89800006
-0.11722443 0.22691116 0.89800012
-0.10994663 0.22301231 0.89800006
-0.084994204 0.22379208 0.89800006
-0.11618474 0.23003019 0.89800006
